782.00	765.00	747.00	732.00	697.00	664.00	648.00	634.00	615.00	609.00	600.00	594.00	592.00	580.00	570.00	568.00	562.00	552.00	549.00	531.00	521.00	530.00	573.00	585.00	597.00	608.00	639.00	644.00	647.00	650.00	653.00	657.00	660.00	664.00	667.00	679.00	696.00	703.00	711.00	717.00	717.00	715.00	714.00	712.00	702.00	692.00	696.00	713.00	718.00	732.00	742.00	752.00	764.00	783.00	794.00	806.00	817.00	823.00	864.00	879.00	888.00	893.00	889.00	882.00	870.00	853.00	836.00	824.00	822.00	819.00	819.00	830.00	839.00	849.00	867.00	877.00	887.00	889.00	890.00	892.00	893.00	890.00	884.00	879.00	875.00	872.00	872.00	872.00	872.00	868.00	857.00	831.00	803.00	756.00	743.00	728.00	703.00	710.00	743.00	756.00	758.00	760.00	757.00	751.00	738.00	746.00	778.00	825.00	853.00	885.00	902.00	900.00	900.00	899.00	900.00	903.00	909.00	905.00	902.00	896.00	908.00	910.00	910.00	910.00	910.00	907.00	907.00	907.00	910.00	917.00	921.00	932.00	934.00	932.00	931.00	929.00	933.00	936.00	942.00	944.00	948.00	942.00	904.00	863.00	848.00	834.00	820.00	804.00	800.00	799.00	800.00	803.00	819.00	824.00	835.00	847.00	871.00	880.00	887.00	888.00	887.00	885.00	877.00	874.00	872.00	860.00	851.00	850.00	841.00	833.00	809.00	799.00	791.00	774.00	760.00	748.00	736.00	728.00	719.00	708.00	704.00	695.00	676.00	642.00	628.00	612.00	596.00	572.00	521.00	540.00	581.00	618.00	667.00	687.00	719.00	734.00	746.00	762.00	752.00	735.00	720.00	670.00	617.00	561.00	521.00	469.00	454.00	457.00	447.00	426.00	404.00	399.00	397.00	396.00	396.00	410.00	413.00	416.00	418.00	422.00	422.00	418.00	417.00	420.00	429.00	473.00	497.00	526.00	583.00	629.00	676.00	716.00	779.00	821.00	856.00	877.00	886.00	890.00	893.00	897.00	900.00	902.00	902.00	902.00	902.00	902.00	894.00	885.00	874.00	862.00	823.00	810.00	798.00	787.00	789.00	853.00
783.00	765.00	748.00	731.00	692.00	661.00	646.00	632.00	612.00	600.00	589.00	579.00	573.00	567.00	563.00	564.00	560.00	535.00	524.00	535.00	550.00	558.00	577.00	586.00	595.00	607.00	642.00	655.00	668.00	678.00	685.00	691.00	694.00	696.00	701.00	712.00	728.00	741.00	755.00	759.00	759.00	753.00	745.00	739.00	730.00	725.00	726.00	749.00	757.00	772.00	782.00	793.00	799.00	814.00	821.00	826.00	833.00	845.00	864.00	857.00	855.00	855.00	849.00	840.00	832.00	827.00	821.00	798.00	788.00	790.00	798.00	820.00	827.00	833.00	837.00	841.00	867.00	878.00	886.00	897.00	909.00	909.00	903.00	896.00	892.00	888.00	888.00	885.00	879.00	870.00	864.00	838.00	813.00	769.00	752.00	738.00	723.00	706.00	690.00	711.00	719.00	724.00	718.00	714.00	737.00	766.00	790.00	833.00	864.00	881.00	882.00	881.00	880.00	883.00	892.00	896.00	899.00	897.00	885.00	862.00	885.00	898.00	905.00	908.00	907.00	886.00	877.00	866.00	866.00	908.00	914.00	921.00	928.00	933.00	941.00	948.00	951.00	953.00	955.00	958.00	960.00	967.00	949.00	912.00	894.00	877.00	865.00	851.00	851.00	854.00	863.00	867.00	884.00	895.00	906.00	915.00	921.00	918.00	908.00	891.00	875.00	864.00	871.00	878.00	881.00	875.00	860.00	847.00	831.00	814.00	790.00	777.00	764.00	748.00	725.00	713.00	696.00	682.00	670.00	650.00	644.00	637.00	629.00	599.00	579.00	567.00	584.00	594.00	588.00	571.00	581.00	639.00	709.00	736.00	773.00	796.00	812.00	788.00	778.00	750.00	722.00	672.00	629.00	587.00	555.00	545.00	520.00	500.00	477.00	456.00	420.00	410.00	401.00	394.00	391.00	389.00	398.00	406.00	412.00	403.00	406.00	412.00	414.00	422.00	463.00	513.00	544.00	586.00	658.00	686.00	705.00	725.00	751.00	768.00	802.00	845.00	884.00	885.00	883.00	881.00	880.00	882.00	885.00	891.00	896.00	898.00	843.00	825.00	806.00	787.00	750.00	732.00	726.00	739.00	774.00	854.00
783.00	765.00	748.00	731.00	692.00	661.00	646.00	632.00	612.00	600.00	589.00	579.00	573.00	567.00	563.00	564.00	560.00	535.00	524.00	535.00	550.00	558.00	577.00	586.00	595.00	607.00	642.00	655.00	668.00	678.00	685.00	691.00	694.00	696.00	701.00	712.00	728.00	741.00	755.00	759.00	759.00	753.00	745.00	739.00	730.00	725.00	726.00	749.00	757.00	772.00	782.00	793.00	799.00	814.00	821.00	826.00	833.00	845.00	864.00	857.00	855.00	855.00	849.00	840.00	832.00	827.00	821.00	798.00	788.00	790.00	798.00	820.00	827.00	833.00	837.00	841.00	867.00	878.00	886.00	897.00	909.00	909.00	903.00	896.00	892.00	888.00	888.00	885.00	879.00	870.00	864.00	838.00	813.00	769.00	752.00	738.00	723.00	706.00	690.00	711.00	719.00	724.00	718.00	714.00	737.00	766.00	790.00	833.00	864.00	881.00	882.00	881.00	880.00	883.00	892.00	896.00	899.00	897.00	885.00	862.00	885.00	898.00	905.00	908.00	907.00	886.00	877.00	866.00	866.00	908.00	914.00	921.00	928.00	933.00	941.00	948.00	951.00	953.00	955.00	958.00	960.00	967.00	949.00	912.00	894.00	877.00	865.00	851.00	851.00	854.00	863.00	867.00	884.00	895.00	906.00	915.00	921.00	918.00	908.00	891.00	875.00	864.00	871.00	878.00	881.00	875.00	860.00	847.00	831.00	814.00	790.00	777.00	764.00	748.00	725.00	713.00	696.00	682.00	670.00	650.00	644.00	637.00	629.00	599.00	579.00	567.00	584.00	594.00	588.00	571.00	581.00	639.00	709.00	736.00	773.00	796.00	812.00	788.00	778.00	750.00	722.00	672.00	629.00	587.00	555.00	545.00	520.00	500.00	477.00	456.00	420.00	410.00	401.00	394.00	391.00	389.00	398.00	406.00	412.00	403.00	406.00	412.00	414.00	422.00	463.00	513.00	544.00	586.00	658.00	686.00	705.00	725.00	751.00	768.00	802.00	845.00	884.00	885.00	883.00	881.00	880.00	882.00	885.00	891.00	896.00	898.00	843.00	825.00	806.00	787.00	750.00	732.00	726.00	739.00	774.00	854.00
782.00	768.00	753.00	738.00	701.00	673.00	662.00	648.00	624.00	615.00	607.00	596.00	581.00	559.00	554.00	556.00	529.00	534.00	544.00	556.00	560.00	563.00	571.00	576.00	583.00	594.00	624.00	639.00	652.00	663.00	674.00	690.00	699.00	709.00	717.00	726.00	747.00	766.00	778.00	783.00	792.00	791.00	785.00	779.00	766.00	765.00	770.00	787.00	796.00	816.00	821.00	823.00	826.00	846.00	849.00	859.00	873.00	870.00	827.00	824.00	820.00	816.00	808.00	804.00	800.00	794.00	785.00	773.00	759.00	758.00	766.00	795.00	802.00	808.00	819.00	833.00	857.00	869.00	881.00	902.00	916.00	919.00	918.00	914.00	910.00	894.00	890.00	888.00	887.00	838.00	827.00	813.00	796.00	747.00	736.00	729.00	721.00	711.00	699.00	678.00	675.00	672.00	693.00	714.00	735.00	753.00	767.00	805.00	815.00	823.00	830.00	831.00	837.00	860.00	890.00	907.00	884.00	862.00	844.00	836.00	849.00	864.00	870.00	873.00	866.00	848.00	839.00	831.00	842.00	885.00	915.00	921.00	920.00	910.00	895.00	903.00	905.00	906.00	905.00	908.00	912.00	924.00	955.00	947.00	936.00	921.00	907.00	894.00	898.00	910.00	921.00	937.00	953.00	954.00	959.00	954.00	927.00	912.00	898.00	885.00	872.00	846.00	851.00	857.00	864.00	878.00	873.00	861.00	849.00	836.00	810.00	795.00	780.00	758.00	744.00	733.00	718.00	708.00	697.00	690.00	688.00	684.00	673.00	620.00	598.00	626.00	648.00	656.00	651.00	641.00	621.00	596.00	713.00	751.00	811.00	815.00	813.00	805.00	787.00	771.00	746.00	693.00	674.00	677.00	688.00	718.00	666.00	626.00	569.00	517.00	441.00	420.00	402.00	389.00	383.00	385.00	385.00	388.00	390.00	400.00	410.00	410.00	410.00	425.00	465.00	491.00	507.00	526.00	569.00	590.00	614.00	645.00	716.00	750.00	785.00	826.00	889.00	877.00	863.00	837.00	814.00	794.00	800.00	813.00	823.00	829.00	780.00	759.00	736.00	711.00	658.00	653.00	681.00	723.00	768.00	849.00
782.00	768.00	753.00	738.00	701.00	673.00	662.00	648.00	624.00	615.00	607.00	596.00	581.00	559.00	554.00	556.00	529.00	534.00	544.00	556.00	560.00	563.00	571.00	576.00	583.00	594.00	624.00	639.00	652.00	663.00	674.00	690.00	699.00	709.00	717.00	726.00	747.00	766.00	778.00	783.00	792.00	791.00	785.00	779.00	766.00	765.00	770.00	787.00	796.00	816.00	821.00	823.00	826.00	846.00	849.00	859.00	873.00	870.00	827.00	824.00	820.00	816.00	808.00	804.00	800.00	794.00	785.00	773.00	759.00	758.00	766.00	795.00	802.00	808.00	819.00	833.00	857.00	869.00	881.00	902.00	916.00	919.00	918.00	914.00	910.00	894.00	890.00	888.00	887.00	838.00	827.00	813.00	796.00	747.00	736.00	729.00	721.00	711.00	699.00	678.00	675.00	672.00	693.00	714.00	735.00	753.00	767.00	805.00	815.00	823.00	830.00	831.00	837.00	860.00	890.00	907.00	884.00	862.00	844.00	836.00	849.00	864.00	870.00	873.00	866.00	848.00	839.00	831.00	842.00	885.00	915.00	921.00	920.00	910.00	895.00	903.00	905.00	906.00	905.00	908.00	912.00	924.00	955.00	947.00	936.00	921.00	907.00	894.00	898.00	910.00	921.00	937.00	953.00	954.00	959.00	954.00	927.00	912.00	898.00	885.00	872.00	846.00	851.00	857.00	864.00	878.00	873.00	861.00	849.00	836.00	810.00	795.00	780.00	758.00	744.00	733.00	718.00	708.00	697.00	690.00	688.00	684.00	673.00	620.00	598.00	626.00	648.00	656.00	651.00	641.00	621.00	596.00	713.00	751.00	811.00	815.00	813.00	805.00	787.00	771.00	746.00	693.00	674.00	677.00	688.00	718.00	666.00	626.00	569.00	517.00	441.00	420.00	402.00	389.00	383.00	385.00	385.00	388.00	390.00	400.00	410.00	410.00	410.00	425.00	465.00	491.00	507.00	526.00	569.00	590.00	614.00	645.00	716.00	750.00	785.00	826.00	889.00	877.00	863.00	837.00	814.00	794.00	800.00	813.00	823.00	829.00	780.00	759.00	736.00	711.00	658.00	653.00	681.00	723.00	768.00	849.00
794.00	779.00	765.00	754.00	725.00	695.00	681.00	666.00	640.00	628.00	617.00	603.00	586.00	554.00	549.00	542.00	520.00	541.00	548.00	556.00	565.00	572.00	574.00	572.00	571.00	572.00	595.00	605.00	614.00	621.00	630.00	646.00	655.00	663.00	673.00	694.00	715.00	730.00	740.00	747.00	757.00	764.00	769.00	774.00	777.00	781.00	788.00	805.00	814.00	826.00	844.00	863.00	869.00	872.00	871.00	866.00	850.00	832.00	798.00	791.00	784.00	775.00	762.00	756.00	752.00	748.00	744.00	719.00	729.00	752.00	770.00	795.00	809.00	825.00	835.00	839.00	863.00	879.00	888.00	899.00	906.00	914.00	924.00	930.00	924.00	897.00	888.00	884.00	875.00	822.00	803.00	785.00	781.00	776.00	772.00	765.00	758.00	749.00	721.00	697.00	683.00	657.00	667.00	682.00	700.00	716.00	730.00	754.00	763.00	769.00	790.00	814.00	834.00	863.00	886.00	896.00	862.00	840.00	823.00	812.00	805.00	814.00	820.00	824.00	824.00	812.00	811.00	817.00	834.00	875.00	899.00	898.00	886.00	872.00	861.00	866.00	870.00	873.00	876.00	887.00	899.00	910.00	933.00	949.00	946.00	939.00	931.00	928.00	933.00	945.00	954.00	956.00	956.00	949.00	941.00	933.00	906.00	890.00	878.00	866.00	851.00	817.00	801.00	802.00	811.00	846.00	858.00	865.00	867.00	864.00	840.00	825.00	811.00	783.00	770.00	761.00	748.00	740.00	734.00	724.00	716.00	704.00	690.00	650.00	661.00	685.00	696.00	696.00	687.00	679.00	667.00	648.00	687.00	736.00	798.00	808.00	811.00	815.00	814.00	807.00	795.00	771.00	766.00	765.00	769.00	786.00	770.00	736.00	688.00	627.00	502.00	462.00	434.00	415.00	404.00	396.00	392.00	390.00	396.00	402.00	404.00	407.00	409.00	415.00	437.00	454.00	469.00	485.00	526.00	555.00	590.00	631.00	718.00	757.00	790.00	818.00	849.00	825.00	804.00	781.00	759.00	725.00	733.00	751.00	763.00	768.00	729.00	694.00	659.00	632.00	632.00	652.00	689.00	719.00	750.00	804.00
794.00	779.00	765.00	754.00	725.00	695.00	681.00	666.00	640.00	628.00	617.00	603.00	586.00	554.00	549.00	542.00	520.00	541.00	548.00	556.00	565.00	572.00	574.00	572.00	571.00	572.00	595.00	605.00	614.00	621.00	630.00	646.00	655.00	663.00	673.00	694.00	715.00	730.00	740.00	747.00	757.00	764.00	769.00	774.00	777.00	781.00	788.00	805.00	814.00	826.00	844.00	863.00	869.00	872.00	871.00	866.00	850.00	832.00	798.00	791.00	784.00	775.00	762.00	756.00	752.00	748.00	744.00	719.00	729.00	752.00	770.00	795.00	809.00	825.00	835.00	839.00	863.00	879.00	888.00	899.00	906.00	914.00	924.00	930.00	924.00	897.00	888.00	884.00	875.00	822.00	803.00	785.00	781.00	776.00	772.00	765.00	758.00	749.00	721.00	697.00	683.00	657.00	667.00	682.00	700.00	716.00	730.00	754.00	763.00	769.00	790.00	814.00	834.00	863.00	886.00	896.00	862.00	840.00	823.00	812.00	805.00	814.00	820.00	824.00	824.00	812.00	811.00	817.00	834.00	875.00	899.00	898.00	886.00	872.00	861.00	866.00	870.00	873.00	876.00	887.00	899.00	910.00	933.00	949.00	946.00	939.00	931.00	928.00	933.00	945.00	954.00	956.00	956.00	949.00	941.00	933.00	906.00	890.00	878.00	866.00	851.00	817.00	801.00	802.00	811.00	846.00	858.00	865.00	867.00	864.00	840.00	825.00	811.00	783.00	770.00	761.00	748.00	740.00	734.00	724.00	716.00	704.00	690.00	650.00	661.00	685.00	696.00	696.00	687.00	679.00	667.00	648.00	687.00	736.00	798.00	808.00	811.00	815.00	814.00	807.00	795.00	771.00	766.00	765.00	769.00	786.00	770.00	736.00	688.00	627.00	502.00	462.00	434.00	415.00	404.00	396.00	392.00	390.00	396.00	402.00	404.00	407.00	409.00	415.00	437.00	454.00	469.00	485.00	526.00	555.00	590.00	631.00	718.00	757.00	790.00	818.00	849.00	825.00	804.00	781.00	759.00	725.00	733.00	751.00	763.00	768.00	729.00	694.00	659.00	632.00	632.00	652.00	689.00	719.00	750.00	804.00
794.00	784.00	780.00	775.00	757.00	726.00	713.00	700.00	671.00	652.00	632.00	611.00	594.00	559.00	554.00	538.00	524.00	547.00	553.00	562.00	574.00	582.00	593.00	591.00	589.00	586.00	582.00	587.00	596.00	604.00	608.00	619.00	628.00	636.00	644.00	658.00	672.00	683.00	692.00	701.00	716.00	725.00	734.00	738.00	749.00	756.00	764.00	786.00	799.00	815.00	822.00	850.00	870.00	871.00	871.00	845.00	823.00	817.00	777.00	768.00	757.00	746.00	728.00	725.00	723.00	712.00	697.00	728.00	763.00	777.00	791.00	819.00	832.00	846.00	859.00	866.00	884.00	891.00	894.00	902.00	911.00	917.00	936.00	953.00	941.00	908.00	901.00	895.00	891.00	849.00	836.00	830.00	830.00	828.00	823.00	812.00	794.00	776.00	742.00	714.00	701.00	687.00	649.00	647.00	659.00	676.00	689.00	700.00	704.00	725.00	775.00	824.00	842.00	878.00	910.00	888.00	838.00	820.00	804.00	789.00	756.00	767.00	773.00	773.00	772.00	779.00	797.00	816.00	834.00	889.00	910.00	864.00	839.00	829.00	832.00	830.00	831.00	831.00	859.00	880.00	899.00	915.00	925.00	932.00	925.00	918.00	913.00	926.00	934.00	943.00	954.00	952.00	919.00	906.00	899.00	890.00	854.00	839.00	829.00	819.00	806.00	782.00	748.00	752.00	773.00	809.00	828.00	849.00	867.00	878.00	877.00	863.00	848.00	824.00	802.00	793.00	786.00	779.00	771.00	760.00	748.00	724.00	703.00	701.00	725.00	740.00	740.00	732.00	712.00	700.00	692.00	674.00	692.00	747.00	798.00	801.00	802.00	815.00	821.00	822.00	822.00	821.00	813.00	806.00	804.00	808.00	779.00	748.00	737.00	708.00	548.00	489.00	459.00	440.00	435.00	410.00	407.00	401.00	403.00	404.00	404.00	403.00	405.00	405.00	409.00	430.00	444.00	462.00	499.00	531.00	570.00	617.00	730.00	771.00	793.00	802.00	790.00	758.00	738.00	716.00	692.00	639.00	638.00	670.00	697.00	710.00	643.00	599.00	563.00	562.00	630.00	658.00	690.00	724.00	746.00	779.00
794.00	784.00	780.00	775.00	757.00	726.00	713.00	700.00	671.00	652.00	632.00	611.00	594.00	559.00	554.00	538.00	524.00	547.00	553.00	562.00	574.00	582.00	593.00	591.00	589.00	586.00	582.00	587.00	596.00	604.00	608.00	619.00	628.00	636.00	644.00	658.00	672.00	683.00	692.00	701.00	716.00	725.00	734.00	738.00	749.00	756.00	764.00	786.00	799.00	815.00	822.00	850.00	870.00	871.00	871.00	845.00	823.00	817.00	777.00	768.00	757.00	746.00	728.00	725.00	723.00	712.00	697.00	728.00	763.00	777.00	791.00	819.00	832.00	846.00	859.00	866.00	884.00	891.00	894.00	902.00	911.00	917.00	936.00	953.00	941.00	908.00	901.00	895.00	891.00	849.00	836.00	830.00	830.00	828.00	823.00	812.00	794.00	776.00	742.00	714.00	701.00	687.00	649.00	647.00	659.00	676.00	689.00	700.00	704.00	725.00	775.00	824.00	842.00	878.00	910.00	888.00	838.00	820.00	804.00	789.00	756.00	767.00	773.00	773.00	772.00	779.00	797.00	816.00	834.00	889.00	910.00	864.00	839.00	829.00	832.00	830.00	831.00	831.00	859.00	880.00	899.00	915.00	925.00	932.00	925.00	918.00	913.00	926.00	934.00	943.00	954.00	952.00	919.00	906.00	899.00	890.00	854.00	839.00	829.00	819.00	806.00	782.00	748.00	752.00	773.00	809.00	828.00	849.00	867.00	878.00	877.00	863.00	848.00	824.00	802.00	793.00	786.00	779.00	771.00	760.00	748.00	724.00	703.00	701.00	725.00	740.00	740.00	732.00	712.00	700.00	692.00	674.00	692.00	747.00	798.00	801.00	802.00	815.00	821.00	822.00	822.00	821.00	813.00	806.00	804.00	808.00	779.00	748.00	737.00	708.00	548.00	489.00	459.00	440.00	435.00	410.00	407.00	401.00	403.00	404.00	404.00	403.00	405.00	405.00	409.00	430.00	444.00	462.00	499.00	531.00	570.00	617.00	730.00	771.00	793.00	802.00	790.00	758.00	738.00	716.00	692.00	639.00	638.00	670.00	697.00	710.00	643.00	599.00	563.00	562.00	630.00	658.00	690.00	724.00	746.00	779.00
772.00	757.00	752.00	750.00	731.00	709.00	698.00	687.00	665.00	647.00	628.00	607.00	590.00	558.00	547.00	516.00	537.00	557.00	568.00	579.00	591.00	601.00	618.00	619.00	615.00	613.00	605.00	603.00	603.00	606.00	611.00	618.00	620.00	624.00	628.00	638.00	648.00	654.00	659.00	668.00	688.00	697.00	705.00	712.00	728.00	739.00	750.00	773.00	786.00	813.00	820.00	829.00	860.00	870.00	866.00	861.00	845.00	822.00	785.00	768.00	753.00	740.00	713.00	704.00	688.00	677.00	703.00	740.00	772.00	790.00	803.00	826.00	834.00	839.00	864.00	885.00	888.00	894.00	898.00	909.00	924.00	930.00	938.00	939.00	932.00	908.00	898.00	894.00	893.00	886.00	883.00	881.00	880.00	880.00	879.00	871.00	854.00	829.00	777.00	742.00	725.00	707.00	682.00	658.00	633.00	631.00	640.00	657.00	690.00	715.00	759.00	805.00	827.00	857.00	881.00	865.00	825.00	807.00	789.00	772.00	708.00	702.00	730.00	744.00	754.00	789.00	804.00	822.00	832.00	861.00	864.00	826.00	811.00	801.00	788.00	783.00	790.00	807.00	855.00	873.00	892.00	906.00	908.00	894.00	886.00	880.00	877.00	893.00	910.00	922.00	925.00	918.00	871.00	859.00	848.00	838.00	817.00	806.00	798.00	788.00	773.00	745.00	720.00	723.00	744.00	784.00	799.00	815.00	832.00	849.00	873.00	878.00	878.00	868.00	846.00	836.00	828.00	822.00	818.00	805.00	796.00	784.00	771.00	765.00	779.00	788.00	788.00	782.00	760.00	742.00	728.00	708.00	712.00	757.00	796.00	799.00	800.00	801.00	802.00	802.00	800.00	784.00	762.00	739.00	721.00	710.00	707.00	691.00	673.00	648.00	567.00	523.00	492.00	463.00	443.00	406.00	403.00	403.00	401.00	402.00	402.00	403.00	405.00	404.00	405.00	421.00	433.00	448.00	483.00	501.00	528.00	563.00	658.00	704.00	726.00	729.00	699.00	668.00	657.00	647.00	633.00	602.00	576.00	559.00	558.00	554.00	525.00	530.00	551.00	575.00	605.00	628.00	651.00	680.00	710.00	741.00
772.00	757.00	752.00	750.00	731.00	709.00	698.00	687.00	665.00	647.00	628.00	607.00	590.00	558.00	547.00	516.00	537.00	557.00	568.00	579.00	591.00	601.00	618.00	619.00	615.00	613.00	605.00	603.00	603.00	606.00	611.00	618.00	620.00	624.00	628.00	638.00	648.00	654.00	659.00	668.00	688.00	697.00	705.00	712.00	728.00	739.00	750.00	773.00	786.00	813.00	820.00	829.00	860.00	870.00	866.00	861.00	845.00	822.00	785.00	768.00	753.00	740.00	713.00	704.00	688.00	677.00	703.00	740.00	772.00	790.00	803.00	826.00	834.00	839.00	864.00	885.00	888.00	894.00	898.00	909.00	924.00	930.00	938.00	939.00	932.00	908.00	898.00	894.00	893.00	886.00	883.00	881.00	880.00	880.00	879.00	871.00	854.00	829.00	777.00	742.00	725.00	707.00	682.00	658.00	633.00	631.00	640.00	657.00	690.00	715.00	759.00	805.00	827.00	857.00	881.00	865.00	825.00	807.00	789.00	772.00	708.00	702.00	730.00	744.00	754.00	789.00	804.00	822.00	832.00	861.00	864.00	826.00	811.00	801.00	788.00	783.00	790.00	807.00	855.00	873.00	892.00	906.00	908.00	894.00	886.00	880.00	877.00	893.00	910.00	922.00	925.00	918.00	871.00	859.00	848.00	838.00	817.00	806.00	798.00	788.00	773.00	745.00	720.00	723.00	744.00	784.00	799.00	815.00	832.00	849.00	873.00	878.00	878.00	868.00	846.00	836.00	828.00	822.00	818.00	805.00	796.00	784.00	771.00	765.00	779.00	788.00	788.00	782.00	760.00	742.00	728.00	708.00	712.00	757.00	796.00	799.00	800.00	801.00	802.00	802.00	800.00	784.00	762.00	739.00	721.00	710.00	707.00	691.00	673.00	648.00	567.00	523.00	492.00	463.00	443.00	406.00	403.00	403.00	401.00	402.00	402.00	403.00	405.00	404.00	405.00	421.00	433.00	448.00	483.00	501.00	528.00	563.00	658.00	704.00	726.00	729.00	699.00	668.00	657.00	647.00	633.00	602.00	576.00	559.00	558.00	554.00	525.00	530.00	551.00	575.00	605.00	628.00	651.00	680.00	710.00	741.00
751.00	734.00	716.00	703.00	674.00	664.00	656.00	648.00	628.00	614.00	601.00	590.00	577.00	557.00	535.00	506.00	544.00	565.00	581.00	596.00	610.00	625.00	652.00	661.00	663.00	660.00	640.00	636.00	635.00	636.00	640.00	648.00	646.00	646.00	646.00	648.00	660.00	665.00	670.00	675.00	688.00	694.00	702.00	713.00	734.00	741.00	750.00	776.00	792.00	820.00	829.00	852.00	874.00	863.00	845.00	823.00	805.00	795.00	765.00	753.00	741.00	730.00	702.00	687.00	668.00	684.00	711.00	738.00	762.00	776.00	789.00	814.00	824.00	829.00	827.00	843.00	890.00	893.00	898.00	907.00	920.00	925.00	923.00	915.00	911.00	917.00	918.00	919.00	919.00	904.00	902.00	899.00	896.00	895.00	892.00	893.00	891.00	882.00	840.00	776.00	755.00	734.00	700.00	685.00	666.00	635.00	604.00	658.00	673.00	688.00	728.00	765.00	788.00	807.00	819.00	820.00	791.00	773.00	755.00	739.00	696.00	674.00	708.00	739.00	758.00	795.00	813.00	831.00	856.00	860.00	835.00	797.00	787.00	776.00	749.00	751.00	771.00	790.00	831.00	849.00	863.00	870.00	860.00	844.00	834.00	830.00	840.00	884.00	900.00	913.00	913.00	904.00	853.00	836.00	819.00	804.00	784.00	773.00	765.00	756.00	745.00	724.00	687.00	687.00	713.00	749.00	766.00	786.00	806.00	827.00	868.00	884.00	895.00	902.00	895.00	885.00	873.00	864.00	853.00	836.00	829.00	823.00	818.00	810.00	808.00	807.00	806.00	805.00	798.00	786.00	765.00	739.00	766.00	791.00	804.00	803.00	802.00	800.00	799.00	800.00	796.00	754.00	727.00	704.00	685.00	644.00	622.00	610.00	591.00	571.00	531.00	502.00	473.00	450.00	427.00	402.00	401.00	400.00	400.00	401.00	403.00	405.00	401.00	405.00	401.00	419.00	426.00	430.00	455.00	476.00	497.00	520.00	562.00	577.00	587.00	592.00	597.00	592.00	591.00	585.00	576.00	558.00	543.00	533.00	522.00	498.00	522.00	531.00	538.00	548.00	578.00	596.00	615.00	635.00	660.00	696.00
751.00	734.00	716.00	703.00	674.00	664.00	656.00	648.00	628.00	614.00	601.00	590.00	577.00	557.00	535.00	506.00	544.00	565.00	581.00	596.00	610.00	625.00	652.00	661.00	663.00	660.00	640.00	636.00	635.00	636.00	640.00	648.00	646.00	646.00	646.00	648.00	660.00	665.00	670.00	675.00	688.00	694.00	702.00	713.00	734.00	741.00	750.00	776.00	792.00	820.00	829.00	852.00	874.00	863.00	845.00	823.00	805.00	795.00	765.00	753.00	741.00	730.00	702.00	687.00	668.00	684.00	711.00	738.00	762.00	776.00	789.00	814.00	824.00	829.00	827.00	843.00	890.00	893.00	898.00	907.00	920.00	925.00	923.00	915.00	911.00	917.00	918.00	919.00	919.00	904.00	902.00	899.00	896.00	895.00	892.00	893.00	891.00	882.00	840.00	776.00	755.00	734.00	700.00	685.00	666.00	635.00	604.00	658.00	673.00	688.00	728.00	765.00	788.00	807.00	819.00	820.00	791.00	773.00	755.00	739.00	696.00	674.00	708.00	739.00	758.00	795.00	813.00	831.00	856.00	860.00	835.00	797.00	787.00	776.00	749.00	751.00	771.00	790.00	831.00	849.00	863.00	870.00	860.00	844.00	834.00	830.00	840.00	884.00	900.00	913.00	913.00	904.00	853.00	836.00	819.00	804.00	784.00	773.00	765.00	756.00	745.00	724.00	687.00	687.00	713.00	749.00	766.00	786.00	806.00	827.00	868.00	884.00	895.00	902.00	895.00	885.00	873.00	864.00	853.00	836.00	829.00	823.00	818.00	810.00	808.00	807.00	806.00	805.00	798.00	786.00	765.00	739.00	766.00	791.00	804.00	803.00	802.00	800.00	799.00	800.00	796.00	754.00	727.00	704.00	685.00	644.00	622.00	610.00	591.00	571.00	531.00	502.00	473.00	450.00	427.00	402.00	401.00	400.00	400.00	401.00	403.00	405.00	401.00	405.00	401.00	419.00	426.00	430.00	455.00	476.00	497.00	520.00	562.00	577.00	587.00	592.00	597.00	592.00	591.00	585.00	576.00	558.00	543.00	533.00	522.00	498.00	522.00	531.00	538.00	548.00	578.00	596.00	615.00	635.00	660.00	696.00
738.00	720.00	701.00	684.00	643.00	593.00	584.00	578.00	574.00	576.00	575.00	571.00	564.00	548.00	531.00	505.00	540.00	564.00	579.00	597.00	617.00	637.00	676.00	688.00	693.00	694.00	677.00	668.00	665.00	666.00	667.00	667.00	667.00	667.00	667.00	670.00	684.00	692.00	701.00	711.00	723.00	727.00	733.00	737.00	751.00	761.00	774.00	796.00	810.00	830.00	857.00	881.00	880.00	843.00	829.00	806.00	789.00	778.00	739.00	727.00	715.00	704.00	685.00	671.00	661.00	684.00	706.00	723.00	736.00	748.00	763.00	803.00	823.00	837.00	838.00	853.00	887.00	887.00	894.00	898.00	896.00	895.00	895.00	894.00	890.00	895.00	900.00	903.00	909.00	916.00	915.00	913.00	910.00	909.00	910.00	910.00	909.00	907.00	882.00	824.00	796.00	768.00	718.00	697.00	677.00	658.00	635.00	596.00	626.00	655.00	683.00	708.00	721.00	732.00	741.00	745.00	733.00	724.00	714.00	704.00	661.00	684.00	722.00	748.00	765.00	802.00	826.00	857.00	880.00	838.00	811.00	779.00	767.00	759.00	730.00	723.00	743.00	760.00	789.00	800.00	805.00	803.00	796.00	781.00	786.00	802.00	823.00	867.00	893.00	905.00	910.00	922.00	862.00	837.00	818.00	801.00	773.00	761.00	750.00	740.00	731.00	707.00	677.00	678.00	685.00	742.00	763.00	781.00	803.00	829.00	867.00	877.00	879.00	890.00	905.00	910.00	912.00	910.00	907.00	889.00	878.00	870.00	861.00	842.00	837.00	833.00	827.00	823.00	816.00	813.00	808.00	803.00	808.00	811.00	815.00	816.00	817.00	815.00	807.00	790.00	772.00	743.00	718.00	694.00	665.00	613.00	565.00	552.00	542.00	529.00	483.00	454.00	443.00	452.00	462.00	416.00	403.00	402.00	402.00	402.00	403.00	405.00	403.00	400.00	405.00	408.00	413.00	416.00	445.00	460.00	474.00	485.00	512.00	519.00	525.00	531.00	534.00	530.00	528.00	523.00	514.00	496.00	488.00	485.00	483.00	486.00	522.00	527.00	529.00	528.00	544.00	558.00	572.00	588.00	604.00	628.00
738.00	720.00	701.00	684.00	643.00	593.00	584.00	578.00	574.00	576.00	575.00	571.00	564.00	548.00	531.00	505.00	540.00	564.00	579.00	597.00	617.00	637.00	676.00	688.00	693.00	694.00	677.00	668.00	665.00	666.00	667.00	667.00	667.00	667.00	667.00	670.00	684.00	692.00	701.00	711.00	723.00	727.00	733.00	737.00	751.00	761.00	774.00	796.00	810.00	830.00	857.00	881.00	880.00	843.00	829.00	806.00	789.00	778.00	739.00	727.00	715.00	704.00	685.00	671.00	661.00	684.00	706.00	723.00	736.00	748.00	763.00	803.00	823.00	837.00	838.00	853.00	887.00	887.00	894.00	898.00	896.00	895.00	895.00	894.00	890.00	895.00	900.00	903.00	909.00	916.00	915.00	913.00	910.00	909.00	910.00	910.00	909.00	907.00	882.00	824.00	796.00	768.00	718.00	697.00	677.00	658.00	635.00	596.00	626.00	655.00	683.00	708.00	721.00	732.00	741.00	745.00	733.00	724.00	714.00	704.00	661.00	684.00	722.00	748.00	765.00	802.00	826.00	857.00	880.00	838.00	811.00	779.00	767.00	759.00	730.00	723.00	743.00	760.00	789.00	800.00	805.00	803.00	796.00	781.00	786.00	802.00	823.00	867.00	893.00	905.00	910.00	922.00	862.00	837.00	818.00	801.00	773.00	761.00	750.00	740.00	731.00	707.00	677.00	678.00	685.00	742.00	763.00	781.00	803.00	829.00	867.00	877.00	879.00	890.00	905.00	910.00	912.00	910.00	907.00	889.00	878.00	870.00	861.00	842.00	837.00	833.00	827.00	823.00	816.00	813.00	808.00	803.00	808.00	811.00	815.00	816.00	817.00	815.00	807.00	790.00	772.00	743.00	718.00	694.00	665.00	613.00	565.00	552.00	542.00	529.00	483.00	454.00	443.00	452.00	462.00	416.00	403.00	402.00	402.00	402.00	403.00	405.00	403.00	400.00	405.00	408.00	413.00	416.00	445.00	460.00	474.00	485.00	512.00	519.00	525.00	531.00	534.00	530.00	528.00	523.00	514.00	496.00	488.00	485.00	483.00	486.00	522.00	527.00	529.00	528.00	544.00	558.00	572.00	588.00	604.00	628.00
721.00	716.00	704.00	687.00	650.00	616.00	598.00	582.00	554.00	539.00	537.00	540.00	541.00	526.00	525.00	502.00	517.00	559.00	576.00	593.00	610.00	628.00	658.00	667.00	672.00	676.00	669.00	663.00	658.00	655.00	655.00	661.00	663.00	665.00	669.00	671.00	691.00	701.00	713.00	722.00	732.00	735.00	739.00	745.00	757.00	768.00	781.00	808.00	822.00	852.00	878.00	890.00	885.00	839.00	826.00	809.00	793.00	777.00	745.00	734.00	721.00	706.00	682.00	660.00	661.00	678.00	688.00	705.00	732.00	749.00	770.00	816.00	830.00	842.00	864.00	886.00	882.00	877.00	874.00	875.00	874.00	872.00	875.00	881.00	880.00	862.00	874.00	885.00	888.00	897.00	900.00	900.00	894.00	879.00	885.00	891.00	888.00	874.00	849.00	819.00	793.00	766.00	723.00	700.00	680.00	660.00	643.00	609.00	583.00	593.00	621.00	649.00	661.00	671.00	680.00	687.00	691.00	686.00	680.00	669.00	674.00	711.00	738.00	759.00	778.00	824.00	847.00	875.00	879.00	818.00	795.00	772.00	756.00	740.00	712.00	695.00	703.00	719.00	736.00	743.00	746.00	744.00	734.00	754.00	778.00	804.00	823.00	870.00	889.00	899.00	927.00	946.00	894.00	863.00	836.00	815.00	784.00	768.00	754.00	739.00	725.00	701.00	662.00	663.00	665.00	743.00	759.00	773.00	785.00	793.00	797.00	799.00	811.00	849.00	876.00	889.00	896.00	899.00	901.00	905.00	906.00	906.00	902.00	878.00	869.00	861.00	854.00	846.00	831.00	827.00	824.00	820.00	815.00	810.00	809.00	811.00	803.00	774.00	763.00	750.00	735.00	702.00	679.00	659.00	632.00	577.00	543.00	528.00	508.00	489.00	510.00	550.00	579.00	579.00	554.00	470.00	435.00	407.00	403.00	403.00	404.00	405.00	398.00	402.00	405.00	400.00	402.00	406.00	425.00	434.00	444.00	454.00	458.00	457.00	465.00	478.00	482.00	466.00	459.00	457.00	459.00	470.00	496.00	517.00	529.00	544.00	590.00	631.00	665.00	654.00	659.00	684.00	671.00	656.00	626.00	667.00
721.00	716.00	704.00	687.00	650.00	616.00	598.00	582.00	554.00	539.00	537.00	540.00	541.00	526.00	525.00	502.00	517.00	559.00	576.00	593.00	610.00	628.00	658.00	667.00	672.00	676.00	669.00	663.00	658.00	655.00	655.00	661.00	663.00	665.00	669.00	671.00	691.00	701.00	713.00	722.00	732.00	735.00	739.00	745.00	757.00	768.00	781.00	808.00	822.00	852.00	878.00	890.00	885.00	839.00	826.00	809.00	793.00	777.00	745.00	734.00	721.00	706.00	682.00	660.00	661.00	678.00	688.00	705.00	732.00	749.00	770.00	816.00	830.00	842.00	864.00	886.00	882.00	877.00	874.00	875.00	874.00	872.00	875.00	881.00	880.00	862.00	874.00	885.00	888.00	897.00	900.00	900.00	894.00	879.00	885.00	891.00	888.00	874.00	849.00	819.00	793.00	766.00	723.00	700.00	680.00	660.00	643.00	609.00	583.00	593.00	621.00	649.00	661.00	671.00	680.00	687.00	691.00	686.00	680.00	669.00	674.00	711.00	738.00	759.00	778.00	824.00	847.00	875.00	879.00	818.00	795.00	772.00	756.00	740.00	712.00	695.00	703.00	719.00	736.00	743.00	746.00	744.00	734.00	754.00	778.00	804.00	823.00	870.00	889.00	899.00	927.00	946.00	894.00	863.00	836.00	815.00	784.00	768.00	754.00	739.00	725.00	701.00	662.00	663.00	665.00	743.00	759.00	773.00	785.00	793.00	797.00	799.00	811.00	849.00	876.00	889.00	896.00	899.00	901.00	905.00	906.00	906.00	902.00	878.00	869.00	861.00	854.00	846.00	831.00	827.00	824.00	820.00	815.00	810.00	809.00	811.00	803.00	774.00	763.00	750.00	735.00	702.00	679.00	659.00	632.00	577.00	543.00	528.00	508.00	489.00	510.00	550.00	579.00	579.00	554.00	470.00	435.00	407.00	403.00	403.00	404.00	405.00	398.00	402.00	405.00	400.00	402.00	406.00	425.00	434.00	444.00	454.00	458.00	457.00	465.00	478.00	482.00	466.00	459.00	457.00	459.00	470.00	496.00	517.00	529.00	544.00	590.00	631.00	665.00	654.00	659.00	684.00	671.00	656.00	626.00	667.00
690.00	704.00	706.00	694.00	654.00	618.00	601.00	587.00	566.00	554.00	542.00	535.00	529.00	511.00	512.00	504.00	495.00	544.00	563.00	581.00	594.00	602.00	616.00	620.00	622.00	623.00	620.00	619.00	616.00	612.00	614.00	627.00	633.00	637.00	642.00	644.00	659.00	667.00	674.00	679.00	686.00	692.00	700.00	707.00	722.00	733.00	745.00	784.00	800.00	826.00	834.00	847.00	874.00	849.00	840.00	832.00	818.00	802.00	773.00	751.00	730.00	714.00	686.00	664.00	651.00	670.00	686.00	703.00	732.00	753.00	776.00	819.00	836.00	852.00	858.00	852.00	838.00	833.00	830.00	832.00	840.00	854.00	867.00	875.00	876.00	845.00	838.00	841.00	846.00	869.00	870.00	866.00	854.00	833.00	828.00	830.00	828.00	822.00	798.00	767.00	752.00	735.00	694.00	674.00	654.00	636.00	622.00	607.00	608.00	606.00	584.00	578.00	593.00	612.00	629.00	640.00	652.00	650.00	629.00	619.00	704.00	723.00	743.00	769.00	794.00	844.00	878.00	905.00	880.00	808.00	789.00	752.00	736.00	724.00	705.00	688.00	682.00	694.00	697.00	695.00	699.00	708.00	740.00	768.00	787.00	806.00	827.00	872.00	886.00	910.00	926.00	930.00	912.00	889.00	861.00	834.00	782.00	764.00	752.00	736.00	717.00	697.00	650.00	660.00	682.00	715.00	742.00	749.00	747.00	744.00	745.00	761.00	784.00	832.00	859.00	865.00	870.00	877.00	884.00	900.00	904.00	907.00	907.00	902.00	895.00	885.00	872.00	857.00	838.00	830.00	822.00	816.00	805.00	799.00	779.00	757.00	745.00	728.00	708.00	675.00	643.00	604.00	584.00	570.00	556.00	565.00	561.00	562.00	582.00	626.00	693.00	712.00	718.00	713.00	680.00	495.00	458.00	424.00	403.00	401.00	402.00	404.00	400.00	401.00	399.00	397.00	396.00	403.00	422.00	429.00	434.00	434.00	425.00	424.00	425.00	426.00	437.00	478.00	503.00	527.00	550.00	602.00	612.00	608.00	601.00	611.00	652.00	682.00	716.00	741.00	763.00	765.00	758.00	750.00	728.00	735.00
644.00	658.00	671.00	676.00	652.00	623.00	609.00	595.00	568.00	555.00	546.00	539.00	536.00	532.00	531.00	520.00	495.00	531.00	542.00	549.00	556.00	561.00	568.00	572.00	573.00	575.00	574.00	573.00	571.00	570.00	571.00	575.00	578.00	581.00	582.00	594.00	621.00	624.00	621.00	626.00	630.00	645.00	660.00	674.00	701.00	711.00	723.00	755.00	777.00	813.00	829.00	840.00	848.00	880.00	853.00	840.00	839.00	826.00	773.00	753.00	734.00	717.00	688.00	671.00	644.00	648.00	673.00	695.00	729.00	747.00	768.00	809.00	812.00	810.00	805.00	801.00	796.00	795.00	794.00	813.00	842.00	869.00	880.00	878.00	874.00	864.00	846.00	824.00	805.00	798.00	805.00	806.00	802.00	791.00	779.00	775.00	774.00	767.00	744.00	715.00	695.00	677.00	647.00	645.00	652.00	665.00	678.00	678.00	670.00	662.00	645.00	604.00	580.00	564.00	571.00	594.00	612.00	602.00	611.00	644.00	703.00	725.00	746.00	770.00	799.00	848.00	873.00	875.00	849.00	788.00	768.00	735.00	721.00	708.00	690.00	675.00	658.00	666.00	690.00	695.00	707.00	724.00	749.00	780.00	801.00	823.00	850.00	895.00	906.00	911.00	913.00	913.00	879.00	858.00	840.00	824.00	786.00	762.00	744.00	729.00	717.00	688.00	646.00	637.00	662.00	686.00	687.00	688.00	697.00	721.00	764.00	784.00	804.00	832.00	840.00	838.00	841.00	847.00	858.00	883.00	891.00	895.00	896.00	904.00	906.00	906.00	900.00	887.00	853.00	837.00	821.00	806.00	780.00	764.00	735.00	718.00	697.00	651.00	632.00	630.00	642.00	656.00	660.00	668.00	677.00	699.00	725.00	727.00	725.00	732.00	739.00	738.00	732.00	715.00	677.00	500.00	459.00	430.00	411.00	399.00	400.00	401.00	402.00	404.00	403.00	397.00	398.00	409.00	421.00	420.00	411.00	404.00	405.00	415.00	434.00	457.00	537.00	604.00	639.00	669.00	691.00	721.00	729.00	732.00	729.00	724.00	742.00	759.00	787.00	824.00	873.00	876.00	867.00	853.00	840.00	850.00
644.00	658.00	671.00	676.00	652.00	623.00	609.00	595.00	568.00	555.00	546.00	539.00	536.00	532.00	531.00	520.00	495.00	531.00	542.00	549.00	556.00	561.00	568.00	572.00	573.00	575.00	574.00	573.00	571.00	570.00	571.00	575.00	578.00	581.00	582.00	594.00	621.00	624.00	621.00	626.00	630.00	645.00	660.00	674.00	701.00	711.00	723.00	755.00	777.00	813.00	829.00	840.00	848.00	880.00	853.00	840.00	839.00	826.00	773.00	753.00	734.00	717.00	688.00	671.00	644.00	648.00	673.00	695.00	729.00	747.00	768.00	809.00	812.00	810.00	805.00	801.00	796.00	795.00	794.00	813.00	842.00	869.00	880.00	878.00	874.00	864.00	846.00	824.00	805.00	798.00	805.00	806.00	802.00	791.00	779.00	775.00	774.00	767.00	744.00	715.00	695.00	677.00	647.00	645.00	652.00	665.00	678.00	678.00	670.00	662.00	645.00	604.00	580.00	564.00	571.00	594.00	612.00	602.00	611.00	644.00	703.00	725.00	746.00	770.00	799.00	848.00	873.00	875.00	849.00	788.00	768.00	735.00	721.00	708.00	690.00	675.00	658.00	666.00	690.00	695.00	707.00	724.00	749.00	780.00	801.00	823.00	850.00	895.00	906.00	911.00	913.00	913.00	879.00	858.00	840.00	824.00	786.00	762.00	744.00	729.00	717.00	688.00	646.00	637.00	662.00	686.00	687.00	688.00	697.00	721.00	764.00	784.00	804.00	832.00	840.00	838.00	841.00	847.00	858.00	883.00	891.00	895.00	896.00	904.00	906.00	906.00	900.00	887.00	853.00	837.00	821.00	806.00	780.00	764.00	735.00	718.00	697.00	651.00	632.00	630.00	642.00	656.00	660.00	668.00	677.00	699.00	725.00	727.00	725.00	732.00	739.00	738.00	732.00	715.00	677.00	500.00	459.00	430.00	411.00	399.00	400.00	401.00	402.00	404.00	403.00	397.00	398.00	409.00	421.00	420.00	411.00	404.00	405.00	415.00	434.00	457.00	537.00	604.00	639.00	669.00	691.00	721.00	729.00	732.00	729.00	724.00	742.00	759.00	787.00	824.00	873.00	876.00	867.00	853.00	840.00	850.00
644.00	658.00	671.00	676.00	652.00	623.00	609.00	595.00	568.00	555.00	546.00	539.00	536.00	532.00	531.00	520.00	495.00	531.00	542.00	549.00	556.00	561.00	568.00	572.00	573.00	575.00	574.00	573.00	571.00	570.00	571.00	575.00	578.00	581.00	582.00	594.00	621.00	624.00	621.00	626.00	630.00	645.00	660.00	674.00	701.00	711.00	723.00	755.00	777.00	813.00	829.00	840.00	848.00	880.00	853.00	840.00	839.00	826.00	773.00	753.00	734.00	717.00	688.00	671.00	644.00	648.00	673.00	695.00	729.00	747.00	768.00	809.00	812.00	810.00	805.00	801.00	796.00	795.00	794.00	813.00	842.00	869.00	880.00	878.00	874.00	864.00	846.00	824.00	805.00	798.00	805.00	806.00	802.00	791.00	779.00	775.00	774.00	767.00	744.00	715.00	695.00	677.00	647.00	645.00	652.00	665.00	678.00	678.00	670.00	662.00	645.00	604.00	580.00	564.00	571.00	594.00	612.00	602.00	611.00	644.00	703.00	725.00	746.00	770.00	799.00	848.00	873.00	875.00	849.00	788.00	768.00	735.00	721.00	708.00	690.00	675.00	658.00	666.00	690.00	695.00	707.00	724.00	749.00	780.00	801.00	823.00	850.00	895.00	906.00	911.00	913.00	913.00	879.00	858.00	840.00	824.00	786.00	762.00	744.00	729.00	717.00	688.00	646.00	637.00	662.00	686.00	687.00	688.00	697.00	721.00	764.00	784.00	804.00	832.00	840.00	838.00	841.00	847.00	858.00	883.00	891.00	895.00	896.00	904.00	906.00	906.00	900.00	887.00	853.00	837.00	821.00	806.00	780.00	764.00	735.00	718.00	697.00	651.00	632.00	630.00	642.00	656.00	660.00	668.00	677.00	699.00	725.00	727.00	725.00	732.00	739.00	738.00	732.00	715.00	677.00	500.00	459.00	430.00	411.00	399.00	400.00	401.00	402.00	404.00	403.00	397.00	398.00	409.00	421.00	420.00	411.00	404.00	405.00	415.00	434.00	457.00	537.00	604.00	639.00	669.00	691.00	721.00	729.00	732.00	729.00	724.00	742.00	759.00	787.00	824.00	873.00	876.00	867.00	853.00	840.00	850.00
602.00	616.00	627.00	634.00	632.00	605.00	594.00	584.00	559.00	548.00	538.00	527.00	523.00	520.00	518.00	514.00	491.00	506.00	506.00	508.00	514.00	517.00	524.00	524.00	525.00	528.00	543.00	547.00	549.00	555.00	562.00	569.00	577.00	583.00	591.00	603.00	618.00	621.00	623.00	632.00	648.00	655.00	664.00	671.00	704.00	715.00	728.00	759.00	778.00	812.00	828.00	843.00	854.00	869.00	848.00	831.00	817.00	802.00	751.00	734.00	719.00	707.00	680.00	667.00	644.00	642.00	665.00	690.00	716.00	729.00	741.00	759.00	764.00	763.00	755.00	739.00	746.00	772.00	788.00	826.00	870.00	888.00	884.00	880.00	875.00	868.00	861.00	846.00	829.00	796.00	778.00	763.00	755.00	737.00	728.00	732.00	722.00	714.00	702.00	691.00	690.00	699.00	720.00	727.00	733.00	737.00	738.00	733.00	728.00	718.00	688.00	652.00	630.00	604.00	574.00	553.00	562.00	586.00	608.00	622.00	672.00	692.00	716.00	735.00	753.00	800.00	814.00	816.00	800.00	758.00	740.00	707.00	697.00	691.00	668.00	663.00	677.00	699.00	728.00	735.00	743.00	752.00	767.00	806.00	834.00	863.00	887.00	911.00	910.00	910.00	907.00	896.00	827.00	802.00	785.00	770.00	745.00	729.00	713.00	704.00	698.00	674.00	643.00	618.00	618.00	664.00	669.00	699.00	727.00	745.00	778.00	795.00	803.00	783.00	770.00	790.00	815.00	834.00	847.00	855.00	849.00	843.00	839.00	863.00	878.00	894.00	906.00	906.00	873.00	851.00	828.00	810.00	773.00	748.00	706.00	691.00	688.00	700.00	708.00	716.00	721.00	726.00	729.00	730.00	734.00	760.00	791.00	798.00	787.00	766.00	736.00	713.00	679.00	637.00	592.00	470.00	446.00	428.00	412.00	396.00	396.00	396.00	396.00	396.00	397.00	401.00	398.00	399.00	400.00	398.00	397.00	402.00	441.00	456.00	475.00	520.00	620.00	686.00	706.00	716.00	731.00	773.00	788.00	795.00	797.00	794.00	832.00	862.00	879.00	887.00	888.00	888.00	887.00	891.00	898.00	905.00
602.00	616.00	627.00	634.00	632.00	605.00	594.00	584.00	559.00	548.00	538.00	527.00	523.00	520.00	518.00	514.00	491.00	506.00	506.00	508.00	514.00	517.00	524.00	524.00	525.00	528.00	543.00	547.00	549.00	555.00	562.00	569.00	577.00	583.00	591.00	603.00	618.00	621.00	623.00	632.00	648.00	655.00	664.00	671.00	704.00	715.00	728.00	759.00	778.00	812.00	828.00	843.00	854.00	869.00	848.00	831.00	817.00	802.00	751.00	734.00	719.00	707.00	680.00	667.00	644.00	642.00	665.00	690.00	716.00	729.00	741.00	759.00	764.00	763.00	755.00	739.00	746.00	772.00	788.00	826.00	870.00	888.00	884.00	880.00	875.00	868.00	861.00	846.00	829.00	796.00	778.00	763.00	755.00	737.00	728.00	732.00	722.00	714.00	702.00	691.00	690.00	699.00	720.00	727.00	733.00	737.00	738.00	733.00	728.00	718.00	688.00	652.00	630.00	604.00	574.00	553.00	562.00	586.00	608.00	622.00	672.00	692.00	716.00	735.00	753.00	800.00	814.00	816.00	800.00	758.00	740.00	707.00	697.00	691.00	668.00	663.00	677.00	699.00	728.00	735.00	743.00	752.00	767.00	806.00	834.00	863.00	887.00	911.00	910.00	910.00	907.00	896.00	827.00	802.00	785.00	770.00	745.00	729.00	713.00	704.00	698.00	674.00	643.00	618.00	618.00	664.00	669.00	699.00	727.00	745.00	778.00	795.00	803.00	783.00	770.00	790.00	815.00	834.00	847.00	855.00	849.00	843.00	839.00	863.00	878.00	894.00	906.00	906.00	873.00	851.00	828.00	810.00	773.00	748.00	706.00	691.00	688.00	700.00	708.00	716.00	721.00	726.00	729.00	730.00	734.00	760.00	791.00	798.00	787.00	766.00	736.00	713.00	679.00	637.00	592.00	470.00	446.00	428.00	412.00	396.00	396.00	396.00	396.00	396.00	397.00	401.00	398.00	399.00	400.00	398.00	397.00	402.00	441.00	456.00	475.00	520.00	620.00	686.00	706.00	716.00	731.00	773.00	788.00	795.00	797.00	794.00	832.00	862.00	879.00	887.00	888.00	888.00	887.00	891.00	898.00	905.00
558.00	567.00	577.00	584.00	593.00	585.00	581.00	572.00	545.00	534.00	524.00	514.00	509.00	507.00	507.00	503.00	493.00	509.00	517.00	525.00	532.00	535.00	546.00	550.00	556.00	566.00	586.00	592.00	597.00	599.00	602.00	609.00	615.00	621.00	626.00	630.00	639.00	645.00	649.00	653.00	671.00	683.00	691.00	702.00	728.00	744.00	759.00	787.00	801.00	832.00	848.00	862.00	873.00	851.00	831.00	815.00	797.00	780.00	729.00	716.00	706.00	692.00	672.00	654.00	635.00	643.00	656.00	677.00	695.00	702.00	709.00	706.00	708.00	709.00	713.00	736.00	775.00	792.00	815.00	837.00	884.00	882.00	881.00	879.00	877.00	868.00	866.00	867.00	861.00	822.00	812.00	802.00	791.00	775.00	773.00	767.00	761.00	759.00	755.00	759.00	761.00	767.00	781.00	786.00	791.00	795.00	793.00	784.00	774.00	756.00	723.00	683.00	664.00	646.00	627.00	603.00	552.00	547.00	549.00	560.00	629.00	650.00	675.00	696.00	709.00	727.00	738.00	747.00	743.00	713.00	699.00	680.00	661.00	644.00	672.00	693.00	713.00	731.00	758.00	767.00	778.00	793.00	813.00	834.00	854.00	876.00	897.00	913.00	912.00	906.00	885.00	856.00	783.00	767.00	755.00	743.00	715.00	703.00	691.00	682.00	681.00	664.00	629.00	608.00	617.00	657.00	680.00	720.00	735.00	743.00	759.00	756.00	744.00	722.00	750.00	777.00	796.00	811.00	817.00	807.00	803.00	795.00	785.00	827.00	847.00	867.00	884.00	893.00	887.00	876.00	866.00	852.00	823.00	814.00	781.00	774.00	774.00	775.00	779.00	779.00	778.00	787.00	796.00	803.00	812.00	832.00	836.00	821.00	801.00	769.00	719.00	678.00	624.00	575.00	551.00	483.00	470.00	455.00	433.00	401.00	397.00	397.00	397.00	397.00	399.00	397.00	401.00	397.00	397.00	398.00	401.00	410.00	431.00	442.00	460.00	486.00	541.00	600.00	645.00	687.00	717.00	756.00	770.00	782.00	797.00	812.00	859.00	869.00	861.00	848.00	827.00	829.00	835.00	847.00	868.00	901.00
558.00	567.00	577.00	584.00	593.00	585.00	581.00	572.00	545.00	534.00	524.00	514.00	509.00	507.00	507.00	503.00	493.00	509.00	517.00	525.00	532.00	535.00	546.00	550.00	556.00	566.00	586.00	592.00	597.00	599.00	602.00	609.00	615.00	621.00	626.00	630.00	639.00	645.00	649.00	653.00	671.00	683.00	691.00	702.00	728.00	744.00	759.00	787.00	801.00	832.00	848.00	862.00	873.00	851.00	831.00	815.00	797.00	780.00	729.00	716.00	706.00	692.00	672.00	654.00	635.00	643.00	656.00	677.00	695.00	702.00	709.00	706.00	708.00	709.00	713.00	736.00	775.00	792.00	815.00	837.00	884.00	882.00	881.00	879.00	877.00	868.00	866.00	867.00	861.00	822.00	812.00	802.00	791.00	775.00	773.00	767.00	761.00	759.00	755.00	759.00	761.00	767.00	781.00	786.00	791.00	795.00	793.00	784.00	774.00	756.00	723.00	683.00	664.00	646.00	627.00	603.00	552.00	547.00	549.00	560.00	629.00	650.00	675.00	696.00	709.00	727.00	738.00	747.00	743.00	713.00	699.00	680.00	661.00	644.00	672.00	693.00	713.00	731.00	758.00	767.00	778.00	793.00	813.00	834.00	854.00	876.00	897.00	913.00	912.00	906.00	885.00	856.00	783.00	767.00	755.00	743.00	715.00	703.00	691.00	682.00	681.00	664.00	629.00	608.00	617.00	657.00	680.00	720.00	735.00	743.00	759.00	756.00	744.00	722.00	750.00	777.00	796.00	811.00	817.00	807.00	803.00	795.00	785.00	827.00	847.00	867.00	884.00	893.00	887.00	876.00	866.00	852.00	823.00	814.00	781.00	774.00	774.00	775.00	779.00	779.00	778.00	787.00	796.00	803.00	812.00	832.00	836.00	821.00	801.00	769.00	719.00	678.00	624.00	575.00	551.00	483.00	470.00	455.00	433.00	401.00	397.00	397.00	397.00	397.00	399.00	397.00	401.00	397.00	397.00	398.00	401.00	410.00	431.00	442.00	460.00	486.00	541.00	600.00	645.00	687.00	717.00	756.00	770.00	782.00	797.00	812.00	859.00	869.00	861.00	848.00	827.00	829.00	835.00	847.00	868.00	901.00
515.00	525.00	534.00	539.00	548.00	555.00	553.00	549.00	531.00	525.00	516.00	501.00	486.00	487.00	492.00	499.00	516.00	533.00	543.00	555.00	563.00	569.00	576.00	578.00	582.00	589.00	600.00	604.00	612.00	620.00	627.00	643.00	649.00	657.00	663.00	668.00	678.00	682.00	688.00	696.00	720.00	733.00	742.00	752.00	782.00	798.00	814.00	826.00	827.00	834.00	842.00	856.00	871.00	866.00	838.00	812.00	798.00	786.00	733.00	716.00	702.00	690.00	667.00	650.00	628.00	630.00	633.00	653.00	666.00	664.00	666.00	692.00	708.00	724.00	743.00	758.00	794.00	815.00	821.00	865.00	874.00	873.00	873.00	872.00	870.00	866.00	866.00	866.00	864.00	854.00	846.00	836.00	826.00	807.00	807.00	808.00	806.00	801.00	796.00	804.00	814.00	824.00	839.00	843.00	849.00	850.00	843.00	809.00	788.00	768.00	722.00	681.00	668.00	658.00	647.00	631.00	596.00	573.00	551.00	537.00	579.00	611.00	635.00	655.00	670.00	686.00	690.00	690.00	688.00	672.00	668.00	633.00	626.00	654.00	698.00	716.00	734.00	751.00	785.00	809.00	838.00	862.00	883.00	903.00	912.00	921.00	927.00	923.00	923.00	915.00	887.00	856.00	782.00	764.00	751.00	739.00	712.00	698.00	684.00	672.00	663.00	636.00	604.00	587.00	596.00	648.00	659.00	674.00	689.00	697.00	695.00	689.00	683.00	696.00	753.00	766.00	772.00	773.00	767.00	750.00	737.00	733.00	744.00	814.00	841.00	863.00	884.00	903.00	908.00	900.00	888.00	878.00	860.00	856.00	846.00	843.00	838.00	837.00	835.00	834.00	834.00	834.00	837.00	840.00	843.00	845.00	847.00	840.00	817.00	786.00	732.00	713.00	695.00	680.00	661.00	567.00	553.00	532.00	495.00	429.00	406.00	397.00	397.00	397.00	399.00	395.00	402.00	399.00	395.00	394.00	397.00	406.00	418.00	423.00	438.00	461.00	508.00	557.00	581.00	607.00	632.00	679.00	701.00	726.00	751.00	778.00	830.00	829.00	812.00	792.00	752.00	760.00	786.00	807.00	824.00	847.00
515.00	525.00	534.00	539.00	548.00	555.00	553.00	549.00	531.00	525.00	516.00	501.00	486.00	487.00	492.00	499.00	516.00	533.00	543.00	555.00	563.00	569.00	576.00	578.00	582.00	589.00	600.00	604.00	612.00	620.00	627.00	643.00	649.00	657.00	663.00	668.00	678.00	682.00	688.00	696.00	720.00	733.00	742.00	752.00	782.00	798.00	814.00	826.00	827.00	834.00	842.00	856.00	871.00	866.00	838.00	812.00	798.00	786.00	733.00	716.00	702.00	690.00	667.00	650.00	628.00	630.00	633.00	653.00	666.00	664.00	666.00	692.00	708.00	724.00	743.00	758.00	794.00	815.00	821.00	865.00	874.00	873.00	873.00	872.00	870.00	866.00	866.00	866.00	864.00	854.00	846.00	836.00	826.00	807.00	807.00	808.00	806.00	801.00	796.00	804.00	814.00	824.00	839.00	843.00	849.00	850.00	843.00	809.00	788.00	768.00	722.00	681.00	668.00	658.00	647.00	631.00	596.00	573.00	551.00	537.00	579.00	611.00	635.00	655.00	670.00	686.00	690.00	690.00	688.00	672.00	668.00	633.00	626.00	654.00	698.00	716.00	734.00	751.00	785.00	809.00	838.00	862.00	883.00	903.00	912.00	921.00	927.00	923.00	923.00	915.00	887.00	856.00	782.00	764.00	751.00	739.00	712.00	698.00	684.00	672.00	663.00	636.00	604.00	587.00	596.00	648.00	659.00	674.00	689.00	697.00	695.00	689.00	683.00	696.00	753.00	766.00	772.00	773.00	767.00	750.00	737.00	733.00	744.00	814.00	841.00	863.00	884.00	903.00	908.00	900.00	888.00	878.00	860.00	856.00	846.00	843.00	838.00	837.00	835.00	834.00	834.00	834.00	837.00	840.00	843.00	845.00	847.00	840.00	817.00	786.00	732.00	713.00	695.00	680.00	661.00	567.00	553.00	532.00	495.00	429.00	406.00	397.00	397.00	397.00	399.00	395.00	402.00	399.00	395.00	394.00	397.00	406.00	418.00	423.00	438.00	461.00	508.00	557.00	581.00	607.00	632.00	679.00	701.00	726.00	751.00	778.00	830.00	829.00	812.00	792.00	752.00	760.00	786.00	807.00	824.00	847.00
497.00	495.00	497.00	504.00	518.00	533.00	537.00	537.00	521.00	509.00	490.00	474.00	480.00	513.00	527.00	540.00	566.00	587.00	594.00	601.00	609.00	615.00	617.00	616.00	615.00	616.00	635.00	644.00	651.00	655.00	660.00	670.00	676.00	687.00	698.00	716.00	731.00	739.00	746.00	751.00	766.00	775.00	787.00	799.00	833.00	850.00	861.00	851.00	834.00	814.00	812.00	813.00	820.00	840.00	840.00	828.00	811.00	797.00	756.00	738.00	721.00	706.00	678.00	663.00	631.00	608.00	617.00	632.00	648.00	661.00	672.00	694.00	707.00	721.00	734.00	747.00	777.00	790.00	803.00	821.00	854.00	862.00	863.00	863.00	866.00	865.00	862.00	860.00	861.00	866.00	867.00	869.00	869.00	858.00	856.00	860.00	859.00	853.00	848.00	861.00	874.00	894.00	891.00	880.00	865.00	845.00	828.00	793.00	774.00	751.00	711.00	680.00	656.00	634.00	616.00	607.00	607.00	598.00	582.00	566.00	521.00	554.00	586.00	606.00	624.00	656.00	663.00	664.00	656.00	641.00	630.00	610.00	640.00	674.00	717.00	734.00	751.00	771.00	817.00	844.00	879.00	903.00	922.00	920.00	921.00	927.00	932.00	933.00	932.00	934.00	918.00	885.00	806.00	788.00	774.00	763.00	734.00	721.00	712.00	702.00	691.00	661.00	624.00	609.00	591.00	594.00	623.00	643.00	652.00	657.00	650.00	635.00	630.00	706.00	738.00	736.00	729.00	720.00	711.00	664.00	681.00	716.00	737.00	803.00	830.00	856.00	880.00	900.00	934.00	940.00	935.00	925.00	898.00	888.00	857.00	845.00	830.00	810.00	804.00	798.00	794.00	795.00	798.00	798.00	799.00	807.00	809.00	809.00	806.00	799.00	771.00	763.00	757.00	750.00	741.00	660.00	606.00	578.00	553.00	477.00	438.00	409.00	396.00	396.00	399.00	400.00	402.00	402.00	397.00	394.00	394.00	397.00	414.00	421.00	431.00	447.00	480.00	506.00	514.00	536.00	564.00	619.00	646.00	678.00	722.00	759.00	796.00	785.00	761.00	724.00	635.00	668.00	740.00	778.00	791.00	797.00
497.00	495.00	497.00	504.00	518.00	533.00	537.00	537.00	521.00	509.00	490.00	474.00	480.00	513.00	527.00	540.00	566.00	587.00	594.00	601.00	609.00	615.00	617.00	616.00	615.00	616.00	635.00	644.00	651.00	655.00	660.00	670.00	676.00	687.00	698.00	716.00	731.00	739.00	746.00	751.00	766.00	775.00	787.00	799.00	833.00	850.00	861.00	851.00	834.00	814.00	812.00	813.00	820.00	840.00	840.00	828.00	811.00	797.00	756.00	738.00	721.00	706.00	678.00	663.00	631.00	608.00	617.00	632.00	648.00	661.00	672.00	694.00	707.00	721.00	734.00	747.00	777.00	790.00	803.00	821.00	854.00	862.00	863.00	863.00	866.00	865.00	862.00	860.00	861.00	866.00	867.00	869.00	869.00	858.00	856.00	860.00	859.00	853.00	848.00	861.00	874.00	894.00	891.00	880.00	865.00	845.00	828.00	793.00	774.00	751.00	711.00	680.00	656.00	634.00	616.00	607.00	607.00	598.00	582.00	566.00	521.00	554.00	586.00	606.00	624.00	656.00	663.00	664.00	656.00	641.00	630.00	610.00	640.00	674.00	717.00	734.00	751.00	771.00	817.00	844.00	879.00	903.00	922.00	920.00	921.00	927.00	932.00	933.00	932.00	934.00	918.00	885.00	806.00	788.00	774.00	763.00	734.00	721.00	712.00	702.00	691.00	661.00	624.00	609.00	591.00	594.00	623.00	643.00	652.00	657.00	650.00	635.00	630.00	706.00	738.00	736.00	729.00	720.00	711.00	664.00	681.00	716.00	737.00	803.00	830.00	856.00	880.00	900.00	934.00	940.00	935.00	925.00	898.00	888.00	857.00	845.00	830.00	810.00	804.00	798.00	794.00	795.00	798.00	798.00	799.00	807.00	809.00	809.00	806.00	799.00	771.00	763.00	757.00	750.00	741.00	660.00	606.00	578.00	553.00	477.00	438.00	409.00	396.00	396.00	399.00	400.00	402.00	402.00	397.00	394.00	394.00	397.00	414.00	421.00	431.00	447.00	480.00	506.00	514.00	536.00	564.00	619.00	646.00	678.00	722.00	759.00	796.00	785.00	761.00	724.00	635.00	668.00	740.00	778.00	791.00	797.00
506.00	501.00	497.00	493.00	491.00	503.00	509.00	513.00	496.00	476.00	473.00	488.00	503.00	534.00	553.00	570.00	596.00	628.00	637.00	645.00	651.00	654.00	658.00	658.00	656.00	657.00	671.00	676.00	680.00	681.00	683.00	693.00	698.00	705.00	714.00	727.00	740.00	744.00	747.00	749.00	761.00	771.00	783.00	798.00	827.00	842.00	851.00	829.00	812.00	783.00	776.00	778.00	786.00	807.00	816.00	825.00	830.00	826.00	777.00	755.00	734.00	716.00	682.00	662.00	644.00	618.00	600.00	622.00	642.00	649.00	657.00	673.00	685.00	698.00	711.00	721.00	741.00	756.00	771.00	802.00	840.00	861.00	863.00	862.00	859.00	842.00	828.00	818.00	819.00	841.00	849.00	857.00	863.00	879.00	884.00	890.00	894.00	897.00	899.00	906.00	911.00	903.00	860.00	846.00	835.00	822.00	805.00	771.00	744.00	714.00	678.00	657.00	669.00	680.00	683.00	683.00	664.00	647.00	625.00	599.00	522.00	509.00	538.00	568.00	586.00	619.00	626.00	623.00	612.00	594.00	599.00	651.00	676.00	693.00	733.00	750.00	768.00	791.00	840.00	861.00	877.00	887.00	876.00	865.00	867.00	877.00	899.00	930.00	932.00	934.00	935.00	925.00	862.00	836.00	809.00	789.00	760.00	747.00	734.00	723.00	712.00	682.00	643.00	624.00	609.00	569.00	558.00	584.00	611.00	618.00	607.00	616.00	643.00	701.00	698.00	689.00	677.00	657.00	638.00	677.00	715.00	742.00	761.00	802.00	815.00	824.00	835.00	853.00	895.00	907.00	905.00	892.00	856.00	839.00	810.00	789.00	780.00	744.00	729.00	720.00	713.00	704.00	706.00	711.00	715.00	717.00	731.00	737.00	739.00	740.00	743.00	741.00	745.00	748.00	745.00	708.00	675.00	626.00	590.00	528.00	479.00	436.00	405.00	394.00	397.00	390.00	395.00	400.00	396.00	392.00	395.00	394.00	394.00	399.00	414.00	430.00	453.00	487.00	509.00	529.00	553.00	609.00	639.00	680.00	729.00	760.00	761.00	728.00	675.00	635.00	569.00	612.00	688.00	742.00	765.00	761.00
506.00	501.00	497.00	493.00	491.00	503.00	509.00	513.00	496.00	476.00	473.00	488.00	503.00	534.00	553.00	570.00	596.00	628.00	637.00	645.00	651.00	654.00	658.00	658.00	656.00	657.00	671.00	676.00	680.00	681.00	683.00	693.00	698.00	705.00	714.00	727.00	740.00	744.00	747.00	749.00	761.00	771.00	783.00	798.00	827.00	842.00	851.00	829.00	812.00	783.00	776.00	778.00	786.00	807.00	816.00	825.00	830.00	826.00	777.00	755.00	734.00	716.00	682.00	662.00	644.00	618.00	600.00	622.00	642.00	649.00	657.00	673.00	685.00	698.00	711.00	721.00	741.00	756.00	771.00	802.00	840.00	861.00	863.00	862.00	859.00	842.00	828.00	818.00	819.00	841.00	849.00	857.00	863.00	879.00	884.00	890.00	894.00	897.00	899.00	906.00	911.00	903.00	860.00	846.00	835.00	822.00	805.00	771.00	744.00	714.00	678.00	657.00	669.00	680.00	683.00	683.00	664.00	647.00	625.00	599.00	522.00	509.00	538.00	568.00	586.00	619.00	626.00	623.00	612.00	594.00	599.00	651.00	676.00	693.00	733.00	750.00	768.00	791.00	840.00	861.00	877.00	887.00	876.00	865.00	867.00	877.00	899.00	930.00	932.00	934.00	935.00	925.00	862.00	836.00	809.00	789.00	760.00	747.00	734.00	723.00	712.00	682.00	643.00	624.00	609.00	569.00	558.00	584.00	611.00	618.00	607.00	616.00	643.00	701.00	698.00	689.00	677.00	657.00	638.00	677.00	715.00	742.00	761.00	802.00	815.00	824.00	835.00	853.00	895.00	907.00	905.00	892.00	856.00	839.00	810.00	789.00	780.00	744.00	729.00	720.00	713.00	704.00	706.00	711.00	715.00	717.00	731.00	737.00	739.00	740.00	743.00	741.00	745.00	748.00	745.00	708.00	675.00	626.00	590.00	528.00	479.00	436.00	405.00	394.00	397.00	390.00	395.00	400.00	396.00	392.00	395.00	394.00	394.00	399.00	414.00	430.00	453.00	487.00	509.00	529.00	553.00	609.00	639.00	680.00	729.00	760.00	761.00	728.00	675.00	635.00	569.00	612.00	688.00	742.00	765.00	761.00
520.00	513.00	506.00	500.00	492.00	488.00	488.00	489.00	471.00	468.00	481.00	499.00	517.00	552.00	568.00	585.00	609.00	639.00	648.00	654.00	655.00	651.00	645.00	644.00	643.00	642.00	645.00	648.00	651.00	654.00	657.00	663.00	664.00	666.00	668.00	676.00	686.00	690.00	694.00	698.00	713.00	728.00	742.00	760.00	796.00	800.00	796.00	781.00	772.00	755.00	745.00	738.00	738.00	757.00	767.00	777.00	787.00	797.00	792.00	769.00	743.00	721.00	678.00	661.00	646.00	630.00	609.00	606.00	628.00	638.00	644.00	658.00	670.00	679.00	690.00	703.00	737.00	755.00	775.00	812.00	850.00	855.00	852.00	849.00	838.00	800.00	787.00	783.00	781.00	791.00	800.00	810.00	822.00	869.00	880.00	887.00	895.00	901.00	908.00	908.00	907.00	888.00	838.00	828.00	817.00	803.00	785.00	761.00	750.00	743.00	735.00	740.00	739.00	733.00	726.00	722.00	703.00	680.00	659.00	637.00	559.00	529.00	506.00	520.00	552.00	588.00	583.00	563.00	559.00	614.00	643.00	685.00	706.00	729.00	768.00	782.00	801.00	819.00	843.00	850.00	854.00	852.00	833.00	825.00	828.00	838.00	854.00	881.00	887.00	894.00	901.00	913.00	916.00	894.00	874.00	845.00	788.00	767.00	747.00	732.00	721.00	701.00	664.00	644.00	627.00	599.00	574.00	543.00	552.00	573.00	610.00	635.00	650.00	663.00	651.00	629.00	612.00	615.00	651.00	717.00	736.00	748.00	756.00	774.00	776.00	777.00	783.00	796.00	843.00	868.00	883.00	880.00	848.00	831.00	790.00	763.00	763.00	706.00	678.00	667.00	651.00	620.00	613.00	604.00	605.00	617.00	617.00	612.00	604.00	604.00	638.00	628.00	619.00	640.00	648.00	614.00	593.00	574.00	558.00	526.00	492.00	453.00	421.00	400.00	395.00	389.00	395.00	398.00	395.00	393.00	391.00	390.00	399.00	411.00	426.00	445.00	477.00	497.00	515.00	529.00	549.00	617.00	667.00	715.00	740.00	748.00	678.00	633.00	598.00	573.00	529.00	558.00	626.00	675.00	703.00	670.00
520.00	513.00	506.00	500.00	492.00	488.00	488.00	489.00	471.00	468.00	481.00	499.00	517.00	552.00	568.00	585.00	609.00	639.00	648.00	654.00	655.00	651.00	645.00	644.00	643.00	642.00	645.00	648.00	651.00	654.00	657.00	663.00	664.00	666.00	668.00	676.00	686.00	690.00	694.00	698.00	713.00	728.00	742.00	760.00	796.00	800.00	796.00	781.00	772.00	755.00	745.00	738.00	738.00	757.00	767.00	777.00	787.00	797.00	792.00	769.00	743.00	721.00	678.00	661.00	646.00	630.00	609.00	606.00	628.00	638.00	644.00	658.00	670.00	679.00	690.00	703.00	737.00	755.00	775.00	812.00	850.00	855.00	852.00	849.00	838.00	800.00	787.00	783.00	781.00	791.00	800.00	810.00	822.00	869.00	880.00	887.00	895.00	901.00	908.00	908.00	907.00	888.00	838.00	828.00	817.00	803.00	785.00	761.00	750.00	743.00	735.00	740.00	739.00	733.00	726.00	722.00	703.00	680.00	659.00	637.00	559.00	529.00	506.00	520.00	552.00	588.00	583.00	563.00	559.00	614.00	643.00	685.00	706.00	729.00	768.00	782.00	801.00	819.00	843.00	850.00	854.00	852.00	833.00	825.00	828.00	838.00	854.00	881.00	887.00	894.00	901.00	913.00	916.00	894.00	874.00	845.00	788.00	767.00	747.00	732.00	721.00	701.00	664.00	644.00	627.00	599.00	574.00	543.00	552.00	573.00	610.00	635.00	650.00	663.00	651.00	629.00	612.00	615.00	651.00	717.00	736.00	748.00	756.00	774.00	776.00	777.00	783.00	796.00	843.00	868.00	883.00	880.00	848.00	831.00	790.00	763.00	763.00	706.00	678.00	667.00	651.00	620.00	613.00	604.00	605.00	617.00	617.00	612.00	604.00	604.00	638.00	628.00	619.00	640.00	648.00	614.00	593.00	574.00	558.00	526.00	492.00	453.00	421.00	400.00	395.00	389.00	395.00	398.00	395.00	393.00	391.00	390.00	399.00	411.00	426.00	445.00	477.00	497.00	515.00	529.00	549.00	617.00	667.00	715.00	740.00	748.00	678.00	633.00	598.00	573.00	529.00	558.00	626.00	675.00	703.00	670.00
530.00	517.00	508.00	504.00	491.00	474.00	474.00	479.00	462.00	466.00	483.00	497.00	510.00	541.00	556.00	567.00	585.00	599.00	605.00	608.00	609.00	611.00	605.00	599.00	596.00	597.00	605.00	608.00	613.00	615.00	618.00	625.00	629.00	628.00	626.00	629.00	642.00	650.00	659.00	670.00	696.00	709.00	723.00	740.00	776.00	784.00	784.00	769.00	760.00	732.00	717.00	705.00	695.00	696.00	703.00	711.00	722.00	732.00	758.00	753.00	740.00	724.00	678.00	656.00	638.00	621.00	603.00	605.00	616.00	629.00	644.00	670.00	682.00	694.00	707.00	720.00	754.00	777.00	803.00	832.00	852.00	850.00	846.00	830.00	805.00	762.00	750.00	743.00	741.00	755.00	767.00	782.00	798.00	840.00	854.00	864.00	872.00	877.00	896.00	903.00	905.00	894.00	839.00	826.00	817.00	807.00	804.00	808.00	807.00	806.00	809.00	807.00	805.00	804.00	797.00	784.00	754.00	732.00	707.00	676.00	590.00	562.00	532.00	499.00	512.00	545.00	530.00	559.00	592.00	640.00	662.00	707.00	726.00	748.00	787.00	803.00	818.00	826.00	823.00	815.00	806.00	796.00	783.00	784.00	787.00	791.00	797.00	819.00	834.00	847.00	862.00	878.00	930.00	924.00	903.00	886.00	824.00	796.00	773.00	757.00	744.00	721.00	694.00	671.00	649.00	616.00	600.00	561.00	529.00	546.00	590.00	594.00	599.00	600.00	575.00	589.00	621.00	663.00	688.00	711.00	717.00	719.00	721.00	716.00	732.00	750.00	772.00	794.00	837.00	857.00	868.00	871.00	849.00	835.00	809.00	793.00	777.00	733.00	705.00	685.00	676.00	663.00	650.00	635.00	619.00	588.00	564.00	549.00	537.00	526.00	513.00	504.00	499.00	516.00	534.00	528.00	520.00	506.00	498.00	463.00	436.00	414.00	399.00	392.00	389.00	394.00	393.00	391.00	388.00	389.00	390.00	389.00	394.00	406.00	425.00	437.00	445.00	476.00	499.00	527.00	560.00	663.00	712.00	737.00	737.00	725.00	617.00	583.00	555.00	527.00	503.00	534.00	564.00	573.00	560.00	526.00
545.00	530.00	515.00	504.00	492.00	471.00	468.00	470.00	464.00	471.00	483.00	491.00	498.00	516.00	527.00	538.00	554.00	562.00	566.00	567.00	568.00	568.00	568.00	564.00	558.00	560.00	561.00	561.00	560.00	562.00	563.00	563.00	570.00	578.00	585.00	609.00	631.00	641.00	656.00	673.00	702.00	718.00	736.00	757.00	799.00	811.00	812.00	786.00	770.00	733.00	714.00	699.00	687.00	669.00	664.00	667.00	672.00	680.00	699.00	706.00	711.00	706.00	670.00	649.00	628.00	609.00	592.00	588.00	603.00	621.00	640.00	669.00	681.00	695.00	710.00	727.00	758.00	778.00	799.00	837.00	846.00	829.00	814.00	799.00	775.00	735.00	723.00	713.00	707.00	732.00	745.00	756.00	765.00	782.00	794.00	806.00	817.00	832.00	878.00	895.00	904.00	906.00	875.00	858.00	849.00	851.00	857.00	863.00	862.00	865.00	870.00	871.00	869.00	865.00	857.00	845.00	798.00	765.00	734.00	706.00	613.00	585.00	561.00	528.00	496.00	518.00	546.00	575.00	598.00	645.00	674.00	717.00	738.00	757.00	780.00	789.00	795.00	793.00	777.00	768.00	762.00	753.00	739.00	744.00	754.00	764.00	772.00	797.00	816.00	834.00	849.00	862.00	919.00	930.00	929.00	916.00	845.00	818.00	794.00	773.00	759.00	737.00	713.00	692.00	667.00	629.00	616.00	594.00	547.00	510.00	532.00	545.00	560.00	584.00	628.00	653.00	666.00	667.00	665.00	663.00	659.00	658.00	661.00	714.00	747.00	757.00	779.00	809.00	861.00	888.00	910.00	919.00	890.00	870.00	844.00	830.00	814.00	774.00	760.00	743.00	724.00	692.00	681.00	670.00	661.00	640.00	611.00	598.00	584.00	573.00	551.00	537.00	521.00	503.00	484.00	453.00	456.00	454.00	451.00	432.00	416.00	408.00	403.00	396.00	386.00	384.00	386.00	387.00	391.00	387.00	382.00	385.00	388.00	397.00	402.00	408.00	460.00	494.00	510.00	529.00	552.00	605.00	625.00	635.00	632.00	617.00	559.00	541.00	523.00	487.00	491.00	498.00	491.00	489.00	491.00	517.00
545.00	530.00	515.00	504.00	492.00	471.00	468.00	470.00	464.00	471.00	483.00	491.00	498.00	516.00	527.00	538.00	554.00	562.00	566.00	567.00	568.00	568.00	568.00	564.00	558.00	560.00	561.00	561.00	560.00	562.00	563.00	563.00	570.00	578.00	585.00	609.00	631.00	641.00	656.00	673.00	702.00	718.00	736.00	757.00	799.00	811.00	812.00	786.00	770.00	733.00	714.00	699.00	687.00	669.00	664.00	667.00	672.00	680.00	699.00	706.00	711.00	706.00	670.00	649.00	628.00	609.00	592.00	588.00	603.00	621.00	640.00	669.00	681.00	695.00	710.00	727.00	758.00	778.00	799.00	837.00	846.00	829.00	814.00	799.00	775.00	735.00	723.00	713.00	707.00	732.00	745.00	756.00	765.00	782.00	794.00	806.00	817.00	832.00	878.00	895.00	904.00	906.00	875.00	858.00	849.00	851.00	857.00	863.00	862.00	865.00	870.00	871.00	869.00	865.00	857.00	845.00	798.00	765.00	734.00	706.00	613.00	585.00	561.00	528.00	496.00	518.00	546.00	575.00	598.00	645.00	674.00	717.00	738.00	757.00	780.00	789.00	795.00	793.00	777.00	768.00	762.00	753.00	739.00	744.00	754.00	764.00	772.00	797.00	816.00	834.00	849.00	862.00	919.00	930.00	929.00	916.00	845.00	818.00	794.00	773.00	759.00	737.00	713.00	692.00	667.00	629.00	616.00	594.00	547.00	510.00	532.00	545.00	560.00	584.00	628.00	653.00	666.00	667.00	665.00	663.00	659.00	658.00	661.00	714.00	747.00	757.00	779.00	809.00	861.00	888.00	910.00	919.00	890.00	870.00	844.00	830.00	814.00	774.00	760.00	743.00	724.00	692.00	681.00	670.00	661.00	640.00	611.00	598.00	584.00	573.00	551.00	537.00	521.00	503.00	484.00	453.00	456.00	454.00	451.00	432.00	416.00	408.00	403.00	396.00	386.00	384.00	386.00	387.00	391.00	387.00	382.00	385.00	388.00	397.00	402.00	408.00	460.00	494.00	510.00	529.00	552.00	605.00	625.00	635.00	632.00	617.00	559.00	541.00	523.00	487.00	491.00	498.00	491.00	489.00	491.00	517.00
545.00	530.00	515.00	504.00	492.00	471.00	468.00	470.00	464.00	471.00	483.00	491.00	498.00	516.00	527.00	538.00	554.00	562.00	566.00	567.00	568.00	568.00	568.00	564.00	558.00	560.00	561.00	561.00	560.00	562.00	563.00	563.00	570.00	578.00	585.00	609.00	631.00	641.00	656.00	673.00	702.00	718.00	736.00	757.00	799.00	811.00	812.00	786.00	770.00	733.00	714.00	699.00	687.00	669.00	664.00	667.00	672.00	680.00	699.00	706.00	711.00	706.00	670.00	649.00	628.00	609.00	592.00	588.00	603.00	621.00	640.00	669.00	681.00	695.00	710.00	727.00	758.00	778.00	799.00	837.00	846.00	829.00	814.00	799.00	775.00	735.00	723.00	713.00	707.00	732.00	745.00	756.00	765.00	782.00	794.00	806.00	817.00	832.00	878.00	895.00	904.00	906.00	875.00	858.00	849.00	851.00	857.00	863.00	862.00	865.00	870.00	871.00	869.00	865.00	857.00	845.00	798.00	765.00	734.00	706.00	613.00	585.00	561.00	528.00	496.00	518.00	546.00	575.00	598.00	645.00	674.00	717.00	738.00	757.00	780.00	789.00	795.00	793.00	777.00	768.00	762.00	753.00	739.00	744.00	754.00	764.00	772.00	797.00	816.00	834.00	849.00	862.00	919.00	930.00	929.00	916.00	845.00	818.00	794.00	773.00	759.00	737.00	713.00	692.00	667.00	629.00	616.00	594.00	547.00	510.00	532.00	545.00	560.00	584.00	628.00	653.00	666.00	667.00	665.00	663.00	659.00	658.00	661.00	714.00	747.00	757.00	779.00	809.00	861.00	888.00	910.00	919.00	890.00	870.00	844.00	830.00	814.00	774.00	760.00	743.00	724.00	692.00	681.00	670.00	661.00	640.00	611.00	598.00	584.00	573.00	551.00	537.00	521.00	503.00	484.00	453.00	456.00	454.00	451.00	432.00	416.00	408.00	403.00	396.00	386.00	384.00	386.00	387.00	391.00	387.00	382.00	385.00	388.00	397.00	402.00	408.00	460.00	494.00	510.00	529.00	552.00	605.00	625.00	635.00	632.00	617.00	559.00	541.00	523.00	487.00	491.00	498.00	491.00	489.00	491.00	517.00
546.00	527.00	511.00	498.00	486.00	472.00	469.00	464.00	467.00	474.00	485.00	497.00	501.00	510.00	517.00	521.00	524.00	532.00	536.00	534.00	529.00	525.00	523.00	522.00	521.00	524.00	539.00	549.00	558.00	566.00	573.00	584.00	592.00	604.00	616.00	641.00	670.00	680.00	686.00	692.00	712.00	724.00	738.00	756.00	796.00	824.00	847.00	827.00	798.00	758.00	740.00	721.00	702.00	671.00	658.00	646.00	637.00	635.00	661.00	670.00	677.00	681.00	659.00	641.00	621.00	605.00	592.00	579.00	607.00	618.00	629.00	652.00	661.00	670.00	681.00	696.00	730.00	755.00	780.00	808.00	806.00	797.00	779.00	760.00	744.00	714.00	701.00	689.00	684.00	711.00	718.00	730.00	743.00	769.00	784.00	799.00	811.00	825.00	872.00	884.00	888.00	892.00	887.00	884.00	879.00	874.00	875.00	911.00	920.00	915.00	884.00	859.00	854.00	846.00	833.00	817.00	774.00	745.00	720.00	696.00	619.00	595.00	575.00	554.00	523.00	485.00	517.00	547.00	569.00	616.00	640.00	692.00	715.00	730.00	743.00	746.00	745.00	742.00	732.00	724.00	719.00	715.00	682.00	694.00	723.00	746.00	763.00	806.00	827.00	847.00	868.00	886.00	933.00	954.00	960.00	941.00	874.00	837.00	813.00	793.00	775.00	742.00	715.00	697.00	671.00	624.00	612.00	600.00	572.00	522.00	532.00	577.00	598.00	635.00	636.00	632.00	625.00	618.00	605.00	598.00	618.00	646.00	671.00	753.00	761.00	781.00	824.00	850.00	907.00	941.00	968.00	978.00	939.00	910.00	867.00	853.00	842.00	824.00	811.00	795.00	780.00	751.00	738.00	725.00	713.00	685.00	657.00	646.00	633.00	618.00	584.00	566.00	549.00	528.00	498.00	525.00	528.00	530.00	528.00	512.00	497.00	498.00	496.00	467.00	395.00	380.00	380.00	380.00	384.00	380.00	378.00	379.00	394.00	404.00	415.00	429.00	457.00	476.00	484.00	497.00	509.00	523.00	527.00	527.00	524.00	520.00	482.00	471.00	464.00	458.00	471.00	483.00	493.00	501.00	512.00	532.00
561.00	544.00	526.00	507.00	485.00	470.00	465.00	463.00	471.00	478.00	485.00	487.00	488.00	497.00	503.00	504.00	503.00	500.00	505.00	511.00	517.00	522.00	530.00	533.00	538.00	547.00	567.00	573.00	581.00	592.00	602.00	612.00	618.00	628.00	639.00	665.00	696.00	713.00	727.00	735.00	753.00	764.00	778.00	796.00	835.00	850.00	859.00	853.00	822.00	774.00	756.00	736.00	717.00	682.00	666.00	653.00	639.00	621.00	626.00	632.00	639.00	644.00	642.00	629.00	610.00	598.00	586.00	571.00	595.00	607.00	619.00	636.00	651.00	665.00	677.00	693.00	730.00	751.00	772.00	794.00	772.00	752.00	734.00	721.00	708.00	686.00	674.00	659.00	651.00	686.00	705.00	727.00	743.00	777.00	794.00	811.00	826.00	840.00	867.00	881.00	886.00	894.00	910.00	914.00	914.00	914.00	916.00	910.00	895.00	857.00	807.00	778.00	760.00	747.00	733.00	711.00	686.00	679.00	667.00	653.00	612.00	597.00	584.00	567.00	547.00	489.00	473.00	507.00	540.00	584.00	604.00	661.00	685.00	695.00	700.00	700.00	699.00	698.00	693.00	680.00	666.00	650.00	668.00	738.00	753.00	766.00	783.00	830.00	853.00	873.00	891.00	906.00	944.00	945.00	948.00	937.00	870.00	839.00	812.00	786.00	763.00	729.00	687.00	668.00	650.00	616.00	603.00	591.00	584.00	568.00	482.00	506.00	556.00	582.00	568.00	555.00	539.00	561.00	604.00	662.00	678.00	690.00	710.00	770.00	796.00	829.00	850.00	876.00	947.00	972.00	969.00	947.00	891.00	868.00	833.00	826.00	825.00	839.00	843.00	838.00	830.00	801.00	784.00	769.00	757.00	741.00	711.00	690.00	671.00	659.00	613.00	579.00	554.00	570.00	600.00	631.00	622.00	605.00	587.00	564.00	555.00	547.00	529.00	494.00	415.00	379.00	377.00	377.00	381.00	376.00	374.00	376.00	391.00	398.00	409.00	421.00	443.00	458.00	457.00	456.00	460.00	459.00	452.00	443.00	440.00	439.00	461.00	476.00	484.00	488.00	506.00	507.00	507.00	505.00	506.00	529.00
561.00	544.00	526.00	507.00	485.00	470.00	465.00	463.00	471.00	478.00	485.00	487.00	488.00	497.00	503.00	504.00	503.00	500.00	505.00	511.00	517.00	522.00	530.00	533.00	538.00	547.00	567.00	573.00	581.00	592.00	602.00	612.00	618.00	628.00	639.00	665.00	696.00	713.00	727.00	735.00	753.00	764.00	778.00	796.00	835.00	850.00	859.00	853.00	822.00	774.00	756.00	736.00	717.00	682.00	666.00	653.00	639.00	621.00	626.00	632.00	639.00	644.00	642.00	629.00	610.00	598.00	586.00	571.00	595.00	607.00	619.00	636.00	651.00	665.00	677.00	693.00	730.00	751.00	772.00	794.00	772.00	752.00	734.00	721.00	708.00	686.00	674.00	659.00	651.00	686.00	705.00	727.00	743.00	777.00	794.00	811.00	826.00	840.00	867.00	881.00	886.00	894.00	910.00	914.00	914.00	914.00	916.00	910.00	895.00	857.00	807.00	778.00	760.00	747.00	733.00	711.00	686.00	679.00	667.00	653.00	612.00	597.00	584.00	567.00	547.00	489.00	473.00	507.00	540.00	584.00	604.00	661.00	685.00	695.00	700.00	700.00	699.00	698.00	693.00	680.00	666.00	650.00	668.00	738.00	753.00	766.00	783.00	830.00	853.00	873.00	891.00	906.00	944.00	945.00	948.00	937.00	870.00	839.00	812.00	786.00	763.00	729.00	687.00	668.00	650.00	616.00	603.00	591.00	584.00	568.00	482.00	506.00	556.00	582.00	568.00	555.00	539.00	561.00	604.00	662.00	678.00	690.00	710.00	770.00	796.00	829.00	850.00	876.00	947.00	972.00	969.00	947.00	891.00	868.00	833.00	826.00	825.00	839.00	843.00	838.00	830.00	801.00	784.00	769.00	757.00	741.00	711.00	690.00	671.00	659.00	613.00	579.00	554.00	570.00	600.00	631.00	622.00	605.00	587.00	564.00	555.00	547.00	529.00	494.00	415.00	379.00	377.00	377.00	381.00	376.00	374.00	376.00	391.00	398.00	409.00	421.00	443.00	458.00	457.00	456.00	460.00	459.00	452.00	443.00	440.00	439.00	461.00	476.00	484.00	488.00	506.00	507.00	507.00	505.00	506.00	529.00
566.00	547.00	529.00	510.00	485.00	467.00	465.00	469.00	467.00	477.00	482.00	481.00	481.00	495.00	500.00	502.00	518.00	528.00	532.00	537.00	546.00	556.00	573.00	582.00	590.00	597.00	619.00	625.00	632.00	639.00	644.00	655.00	663.00	672.00	682.00	700.00	722.00	734.00	748.00	764.00	805.00	818.00	825.00	837.00	857.00	860.00	862.00	820.00	791.00	758.00	741.00	721.00	702.00	672.00	653.00	638.00	626.00	615.00	598.00	600.00	601.00	602.00	602.00	599.00	595.00	589.00	580.00	568.00	593.00	608.00	623.00	647.00	662.00	676.00	691.00	706.00	733.00	751.00	768.00	774.00	742.00	725.00	708.00	692.00	678.00	656.00	644.00	627.00	633.00	691.00	704.00	719.00	735.00	779.00	792.00	802.00	806.00	806.00	816.00	837.00	851.00	856.00	893.00	902.00	903.00	907.00	909.00	901.00	884.00	851.00	794.00	744.00	723.00	702.00	680.00	662.00	635.00	621.00	608.00	596.00	563.00	557.00	552.00	544.00	530.00	493.00	469.00	469.00	501.00	552.00	572.00	613.00	632.00	647.00	656.00	652.00	642.00	629.00	599.00	596.00	616.00	653.00	713.00	754.00	775.00	796.00	818.00	852.00	863.00	871.00	878.00	885.00	911.00	917.00	917.00	907.00	858.00	830.00	802.00	775.00	750.00	700.00	653.00	635.00	621.00	595.00	584.00	570.00	554.00	541.00	508.00	475.00	478.00	504.00	530.00	547.00	560.00	570.00	583.00	630.00	662.00	694.00	719.00	781.00	798.00	836.00	862.00	882.00	937.00	941.00	917.00	885.00	826.00	797.00	766.00	758.00	761.00	793.00	807.00	816.00	825.00	834.00	829.00	816.00	801.00	774.00	747.00	734.00	707.00	676.00	656.00	641.00	649.00	684.00	713.00	741.00	726.00	708.00	687.00	630.00	602.00	572.00	536.00	496.00	425.00	380.00	374.00	374.00	374.00	371.00	374.00	376.00	389.00	397.00	406.00	414.00	419.00	413.00	408.00	407.00	413.00	431.00	439.00	447.00	457.00	470.00	510.00	518.00	524.00	535.00	562.00	569.00	572.00	570.00	559.00	531.00
566.00	547.00	529.00	510.00	485.00	467.00	465.00	469.00	467.00	477.00	482.00	481.00	481.00	495.00	500.00	502.00	518.00	528.00	532.00	537.00	546.00	556.00	573.00	582.00	590.00	597.00	619.00	625.00	632.00	639.00	644.00	655.00	663.00	672.00	682.00	700.00	722.00	734.00	748.00	764.00	805.00	818.00	825.00	837.00	857.00	860.00	862.00	820.00	791.00	758.00	741.00	721.00	702.00	672.00	653.00	638.00	626.00	615.00	598.00	600.00	601.00	602.00	602.00	599.00	595.00	589.00	580.00	568.00	593.00	608.00	623.00	647.00	662.00	676.00	691.00	706.00	733.00	751.00	768.00	774.00	742.00	725.00	708.00	692.00	678.00	656.00	644.00	627.00	633.00	691.00	704.00	719.00	735.00	779.00	792.00	802.00	806.00	806.00	816.00	837.00	851.00	856.00	893.00	902.00	903.00	907.00	909.00	901.00	884.00	851.00	794.00	744.00	723.00	702.00	680.00	662.00	635.00	621.00	608.00	596.00	563.00	557.00	552.00	544.00	530.00	493.00	469.00	469.00	501.00	552.00	572.00	613.00	632.00	647.00	656.00	652.00	642.00	629.00	599.00	596.00	616.00	653.00	713.00	754.00	775.00	796.00	818.00	852.00	863.00	871.00	878.00	885.00	911.00	917.00	917.00	907.00	858.00	830.00	802.00	775.00	750.00	700.00	653.00	635.00	621.00	595.00	584.00	570.00	554.00	541.00	508.00	475.00	478.00	504.00	530.00	547.00	560.00	570.00	583.00	630.00	662.00	694.00	719.00	781.00	798.00	836.00	862.00	882.00	937.00	941.00	917.00	885.00	826.00	797.00	766.00	758.00	761.00	793.00	807.00	816.00	825.00	834.00	829.00	816.00	801.00	774.00	747.00	734.00	707.00	676.00	656.00	641.00	649.00	684.00	713.00	741.00	726.00	708.00	687.00	630.00	602.00	572.00	536.00	496.00	425.00	380.00	374.00	374.00	374.00	371.00	374.00	376.00	389.00	397.00	406.00	414.00	419.00	413.00	408.00	407.00	413.00	431.00	439.00	447.00	457.00	470.00	510.00	518.00	524.00	535.00	562.00	569.00	572.00	570.00	559.00	531.00
566.00	552.00	538.00	524.00	493.00	472.00	466.00	466.00	467.00	471.00	480.00	492.00	508.00	542.00	555.00	564.00	581.00	593.00	597.00	599.00	599.00	604.00	614.00	621.00	628.00	636.00	658.00	666.00	677.00	687.00	699.00	718.00	723.00	728.00	735.00	753.00	780.00	791.00	805.00	822.00	842.00	840.00	839.00	840.00	849.00	852.00	847.00	794.00	769.00	731.00	717.00	703.00	689.00	664.00	647.00	630.00	613.00	601.00	592.00	592.00	592.00	588.00	584.00	584.00	581.00	583.00	583.00	567.00	593.00	608.00	624.00	660.00	679.00	697.00	713.00	726.00	744.00	749.00	749.00	728.00	695.00	682.00	671.00	661.00	647.00	615.00	604.00	616.00	642.00	691.00	707.00	723.00	736.00	757.00	763.00	762.00	754.00	750.00	761.00	794.00	813.00	842.00	881.00	891.00	892.00	896.00	898.00	874.00	855.00	828.00	769.00	724.00	701.00	682.00	663.00	644.00	608.00	588.00	577.00	567.00	526.00	515.00	505.00	499.00	495.00	482.00	479.00	462.00	461.00	515.00	535.00	564.00	576.00	589.00	592.00	568.00	548.00	556.00	612.00	647.00	678.00	702.00	740.00	777.00	796.00	815.00	828.00	831.00	824.00	823.00	826.00	830.00	843.00	850.00	857.00	861.00	848.00	829.00	805.00	782.00	762.00	725.00	695.00	677.00	660.00	632.00	618.00	599.00	576.00	548.00	483.00	467.00	495.00	584.00	622.00	634.00	645.00	654.00	657.00	655.00	653.00	662.00	702.00	780.00	781.00	810.00	850.00	866.00	888.00	884.00	869.00	849.00	783.00	778.00	746.00	730.00	724.00	734.00	750.00	768.00	781.00	809.00	825.00	836.00	840.00	821.00	787.00	775.00	762.00	748.00	730.00	730.00	741.00	759.00	778.00	789.00	781.00	744.00	723.00	663.00	613.00	571.00	537.00	503.00	435.00	383.00	373.00	373.00	369.00	370.00	375.00	379.00	385.00	388.00	389.00	389.00	388.00	422.00	444.00	464.00	481.00	502.00	509.00	511.00	513.00	523.00	571.00	578.00	584.00	597.00	645.00	671.00	691.00	702.00	707.00	668.00
566.00	552.00	538.00	524.00	493.00	472.00	466.00	466.00	467.00	471.00	480.00	492.00	508.00	542.00	555.00	564.00	581.00	593.00	597.00	599.00	599.00	604.00	614.00	621.00	628.00	636.00	658.00	666.00	677.00	687.00	699.00	718.00	723.00	728.00	735.00	753.00	780.00	791.00	805.00	822.00	842.00	840.00	839.00	840.00	849.00	852.00	847.00	794.00	769.00	731.00	717.00	703.00	689.00	664.00	647.00	630.00	613.00	601.00	592.00	592.00	592.00	588.00	584.00	584.00	581.00	583.00	583.00	567.00	593.00	608.00	624.00	660.00	679.00	697.00	713.00	726.00	744.00	749.00	749.00	728.00	695.00	682.00	671.00	661.00	647.00	615.00	604.00	616.00	642.00	691.00	707.00	723.00	736.00	757.00	763.00	762.00	754.00	750.00	761.00	794.00	813.00	842.00	881.00	891.00	892.00	896.00	898.00	874.00	855.00	828.00	769.00	724.00	701.00	682.00	663.00	644.00	608.00	588.00	577.00	567.00	526.00	515.00	505.00	499.00	495.00	482.00	479.00	462.00	461.00	515.00	535.00	564.00	576.00	589.00	592.00	568.00	548.00	556.00	612.00	647.00	678.00	702.00	740.00	777.00	796.00	815.00	828.00	831.00	824.00	823.00	826.00	830.00	843.00	850.00	857.00	861.00	848.00	829.00	805.00	782.00	762.00	725.00	695.00	677.00	660.00	632.00	618.00	599.00	576.00	548.00	483.00	467.00	495.00	584.00	622.00	634.00	645.00	654.00	657.00	655.00	653.00	662.00	702.00	780.00	781.00	810.00	850.00	866.00	888.00	884.00	869.00	849.00	783.00	778.00	746.00	730.00	724.00	734.00	750.00	768.00	781.00	809.00	825.00	836.00	840.00	821.00	787.00	775.00	762.00	748.00	730.00	730.00	741.00	759.00	778.00	789.00	781.00	744.00	723.00	663.00	613.00	571.00	537.00	503.00	435.00	383.00	373.00	373.00	369.00	370.00	375.00	379.00	385.00	388.00	389.00	389.00	388.00	422.00	444.00	464.00	481.00	502.00	509.00	511.00	513.00	523.00	571.00	578.00	584.00	597.00	645.00	671.00	691.00	702.00	707.00	668.00
583.00	568.00	557.00	543.00	506.00	474.00	463.00	461.00	459.00	470.00	487.00	506.00	528.00	572.00	591.00	606.00	628.00	631.00	633.00	636.00	637.00	637.00	630.00	630.00	635.00	645.00	669.00	679.00	687.00	693.00	698.00	711.00	720.00	729.00	738.00	771.00	797.00	804.00	808.00	807.00	795.00	786.00	782.00	782.00	805.00	819.00	829.00	808.00	785.00	748.00	730.00	711.00	693.00	666.00	653.00	639.00	622.00	609.00	592.00	590.00	586.00	581.00	577.00	578.00	580.00	581.00	571.00	567.00	599.00	618.00	637.00	677.00	692.00	704.00	713.00	718.00	715.00	705.00	692.00	668.00	651.00	644.00	634.00	624.00	612.00	595.00	614.00	639.00	658.00	685.00	690.00	695.00	700.00	711.00	715.00	716.00	721.00	729.00	748.00	781.00	800.00	825.00	871.00	882.00	884.00	888.00	886.00	841.00	807.00	778.00	741.00	697.00	670.00	652.00	633.00	605.00	581.00	576.00	579.00	580.00	568.00	555.00	540.00	530.00	521.00	504.00	494.00	479.00	461.00	475.00	500.00	535.00	549.00	555.00	518.00	546.00	585.00	617.00	662.00	683.00	703.00	719.00	754.00	789.00	802.00	806.00	799.00	777.00	769.00	766.00	767.00	771.00	786.00	795.00	808.00	821.00	839.00	840.00	835.00	824.00	807.00	771.00	739.00	722.00	702.00	650.00	624.00	598.00	558.00	507.00	451.00	453.00	495.00	592.00	662.00	678.00	681.00	685.00	692.00	712.00	730.00	750.00	768.00	791.00	818.00	842.00	859.00	869.00	872.00	862.00	847.00	826.00	782.00	760.00	713.00	695.00	675.00	659.00	675.00	689.00	716.00	760.00	774.00	793.00	812.00	834.00	832.00	826.00	820.00	812.00	802.00	803.00	805.00	804.00	800.00	786.00	751.00	729.00	709.00	625.00	594.00	565.00	537.00	511.00	457.00	400.00	378.00	370.00	368.00	377.00	380.00	384.00	378.00	372.00	376.00	387.00	416.00	453.00	477.00	498.00	520.00	563.00	576.00	583.00	595.00	607.00	641.00	665.00	686.00	716.00	760.00	781.00	803.00	812.00	817.00	815.00
583.00	568.00	557.00	543.00	506.00	474.00	463.00	461.00	459.00	470.00	487.00	506.00	528.00	572.00	591.00	606.00	628.00	631.00	633.00	636.00	637.00	637.00	630.00	630.00	635.00	645.00	669.00	679.00	687.00	693.00	698.00	711.00	720.00	729.00	738.00	771.00	797.00	804.00	808.00	807.00	795.00	786.00	782.00	782.00	805.00	819.00	829.00	808.00	785.00	748.00	730.00	711.00	693.00	666.00	653.00	639.00	622.00	609.00	592.00	590.00	586.00	581.00	577.00	578.00	580.00	581.00	571.00	567.00	599.00	618.00	637.00	677.00	692.00	704.00	713.00	718.00	715.00	705.00	692.00	668.00	651.00	644.00	634.00	624.00	612.00	595.00	614.00	639.00	658.00	685.00	690.00	695.00	700.00	711.00	715.00	716.00	721.00	729.00	748.00	781.00	800.00	825.00	871.00	882.00	884.00	888.00	886.00	841.00	807.00	778.00	741.00	697.00	670.00	652.00	633.00	605.00	581.00	576.00	579.00	580.00	568.00	555.00	540.00	530.00	521.00	504.00	494.00	479.00	461.00	475.00	500.00	535.00	549.00	555.00	518.00	546.00	585.00	617.00	662.00	683.00	703.00	719.00	754.00	789.00	802.00	806.00	799.00	777.00	769.00	766.00	767.00	771.00	786.00	795.00	808.00	821.00	839.00	840.00	835.00	824.00	807.00	771.00	739.00	722.00	702.00	650.00	624.00	598.00	558.00	507.00	451.00	453.00	495.00	592.00	662.00	678.00	681.00	685.00	692.00	712.00	730.00	750.00	768.00	791.00	818.00	842.00	859.00	869.00	872.00	862.00	847.00	826.00	782.00	760.00	713.00	695.00	675.00	659.00	675.00	689.00	716.00	760.00	774.00	793.00	812.00	834.00	832.00	826.00	820.00	812.00	802.00	803.00	805.00	804.00	800.00	786.00	751.00	729.00	709.00	625.00	594.00	565.00	537.00	511.00	457.00	400.00	378.00	370.00	368.00	377.00	380.00	384.00	378.00	372.00	376.00	387.00	416.00	453.00	477.00	498.00	520.00	563.00	576.00	583.00	595.00	607.00	641.00	665.00	686.00	716.00	760.00	781.00	803.00	812.00	817.00	815.00
583.00	573.00	567.00	549.00	504.00	470.00	459.00	458.00	458.00	473.00	494.00	518.00	548.00	588.00	605.00	617.00	622.00	614.00	607.00	600.00	597.00	597.00	605.00	608.00	612.00	617.00	641.00	649.00	656.00	663.00	671.00	684.00	691.00	702.00	715.00	744.00	756.00	755.00	748.00	740.00	735.00	738.00	740.00	746.00	771.00	790.00	808.00	818.00	805.00	769.00	750.00	731.00	713.00	686.00	676.00	664.00	654.00	644.00	611.00	603.00	595.00	587.00	578.00	585.00	589.00	583.00	569.00	564.00	594.00	607.00	623.00	658.00	669.00	673.00	672.00	666.00	654.00	647.00	640.00	631.00	621.00	616.00	609.00	596.00	584.00	598.00	618.00	632.00	640.00	650.00	653.00	658.00	663.00	677.00	689.00	702.00	714.00	728.00	759.00	792.00	809.00	826.00	867.00	878.00	880.00	876.00	862.00	809.00	783.00	758.00	712.00	676.00	654.00	629.00	615.00	613.00	618.00	621.00	627.00	632.00	623.00	606.00	585.00	563.00	539.00	515.00	505.00	496.00	487.00	456.00	456.00	491.00	502.00	491.00	537.00	570.00	592.00	617.00	661.00	679.00	699.00	719.00	747.00	758.00	755.00	748.00	743.00	730.00	726.00	709.00	683.00	693.00	759.00	779.00	791.00	795.00	793.00	796.00	803.00	810.00	812.00	806.00	772.00	750.00	727.00	676.00	645.00	605.00	555.00	507.00	439.00	458.00	497.00	574.00	620.00	639.00	662.00	678.00	689.00	725.00	753.00	778.00	788.00	822.00	828.00	832.00	834.00	838.00	844.00	839.00	830.00	809.00	784.00	761.00	713.00	694.00	675.00	621.00	629.00	654.00	671.00	713.00	745.00	760.00	769.00	791.00	812.00	822.00	834.00	846.00	853.00	849.00	838.00	821.00	806.00	728.00	714.00	708.00	688.00	620.00	587.00	561.00	539.00	521.00	478.00	403.00	374.00	372.00	368.00	367.00	370.00	372.00	373.00	379.00	384.00	396.00	422.00	465.00	508.00	552.00	586.00	623.00	634.00	645.00	656.00	663.00	651.00	669.00	688.00	710.00	764.00	784.00	807.00	835.00	847.00	849.00
583.00	573.00	567.00	549.00	504.00	470.00	459.00	458.00	458.00	473.00	494.00	518.00	548.00	588.00	605.00	617.00	622.00	614.00	607.00	600.00	597.00	597.00	605.00	608.00	612.00	617.00	641.00	649.00	656.00	663.00	671.00	684.00	691.00	702.00	715.00	744.00	756.00	755.00	748.00	740.00	735.00	738.00	740.00	746.00	771.00	790.00	808.00	818.00	805.00	769.00	750.00	731.00	713.00	686.00	676.00	664.00	654.00	644.00	611.00	603.00	595.00	587.00	578.00	585.00	589.00	583.00	569.00	564.00	594.00	607.00	623.00	658.00	669.00	673.00	672.00	666.00	654.00	647.00	640.00	631.00	621.00	616.00	609.00	596.00	584.00	598.00	618.00	632.00	640.00	650.00	653.00	658.00	663.00	677.00	689.00	702.00	714.00	728.00	759.00	792.00	809.00	826.00	867.00	878.00	880.00	876.00	862.00	809.00	783.00	758.00	712.00	676.00	654.00	629.00	615.00	613.00	618.00	621.00	627.00	632.00	623.00	606.00	585.00	563.00	539.00	515.00	505.00	496.00	487.00	456.00	456.00	491.00	502.00	491.00	537.00	570.00	592.00	617.00	661.00	679.00	699.00	719.00	747.00	758.00	755.00	748.00	743.00	730.00	726.00	709.00	683.00	693.00	759.00	779.00	791.00	795.00	793.00	796.00	803.00	810.00	812.00	806.00	772.00	750.00	727.00	676.00	645.00	605.00	555.00	507.00	439.00	458.00	497.00	574.00	620.00	639.00	662.00	678.00	689.00	725.00	753.00	778.00	788.00	822.00	828.00	832.00	834.00	838.00	844.00	839.00	830.00	809.00	784.00	761.00	713.00	694.00	675.00	621.00	629.00	654.00	671.00	713.00	745.00	760.00	769.00	791.00	812.00	822.00	834.00	846.00	853.00	849.00	838.00	821.00	806.00	728.00	714.00	708.00	688.00	620.00	587.00	561.00	539.00	521.00	478.00	403.00	374.00	372.00	368.00	367.00	370.00	372.00	373.00	379.00	384.00	396.00	422.00	465.00	508.00	552.00	586.00	623.00	634.00	645.00	656.00	663.00	651.00	669.00	688.00	710.00	764.00	784.00	807.00	835.00	847.00	849.00
597.00	578.00	559.00	541.00	506.00	476.00	461.00	458.00	463.00	473.00	491.00	510.00	528.00	557.00	566.00	572.00	574.00	565.00	561.00	559.00	558.00	558.00	566.00	570.00	573.00	576.00	596.00	604.00	610.00	617.00	623.00	643.00	658.00	673.00	685.00	713.00	724.00	717.00	705.00	695.00	693.00	697.00	702.00	709.00	737.00	752.00	768.00	795.00	802.00	795.00	783.00	771.00	756.00	721.00	704.00	692.00	683.00	672.00	636.00	624.00	612.00	600.00	575.00	567.00	567.00	569.00	567.00	559.00	577.00	589.00	597.00	614.00	616.00	612.00	608.00	605.00	604.00	602.00	601.00	599.00	596.00	585.00	576.00	575.00	579.00	596.00	608.00	616.00	617.00	622.00	636.00	650.00	662.00	683.00	696.00	707.00	720.00	740.00	782.00	831.00	845.00	855.00	870.00	858.00	839.00	819.00	800.00	763.00	747.00	730.00	699.00	657.00	640.00	647.00	660.00	667.00	680.00	689.00	695.00	694.00	667.00	647.00	622.00	596.00	570.00	542.00	525.00	510.00	500.00	484.00	471.00	452.00	461.00	473.00	511.00	530.00	549.00	568.00	609.00	633.00	656.00	679.00	710.00	714.00	711.00	706.00	698.00	668.00	638.00	610.00	633.00	689.00	767.00	777.00	779.00	768.00	738.00	740.00	753.00	769.00	782.00	799.00	785.00	762.00	733.00	675.00	646.00	611.00	566.00	518.00	440.00	448.00	481.00	515.00	559.00	586.00	621.00	661.00	683.00	722.00	745.00	761.00	772.00	770.00	770.00	772.00	776.00	781.00	793.00	803.00	809.00	803.00	791.00	766.00	723.00	704.00	683.00	625.00	590.00	596.00	638.00	688.00	709.00	718.00	718.00	737.00	767.00	784.00	802.00	821.00	851.00	847.00	829.00	806.00	782.00	698.00	676.00	652.00	628.00	580.00	559.00	542.00	523.00	493.00	430.00	413.00	402.00	391.00	370.00	368.00	364.00	367.00	373.00	379.00	390.00	401.00	423.00	454.00	486.00	529.00	570.00	612.00	616.00	618.00	620.00	620.00	616.00	635.00	654.00	673.00	730.00	765.00	791.00	809.00	819.00	813.00
605.00	586.00	569.00	550.00	518.00	483.00	464.00	457.00	459.00	466.00	478.00	489.00	503.00	524.00	528.00	528.00	518.00	512.00	513.00	513.00	515.00	520.00	534.00	542.00	548.00	553.00	569.00	578.00	589.00	601.00	617.00	650.00	664.00	680.00	695.00	720.00	719.00	708.00	696.00	683.00	664.00	670.00	679.00	686.00	698.00	707.00	717.00	747.00	764.00	792.00	799.00	800.00	795.00	771.00	757.00	741.00	724.00	707.00	663.00	644.00	625.00	608.00	582.00	565.00	551.00	548.00	556.00	552.00	565.00	571.00	572.00	574.00	575.00	576.00	575.00	573.00	568.00	567.00	564.00	562.00	560.00	559.00	563.00	566.00	571.00	575.00	581.00	585.00	590.00	621.00	632.00	643.00	655.00	690.00	702.00	715.00	731.00	747.00	781.00	829.00	849.00	859.00	862.00	843.00	820.00	794.00	772.00	736.00	725.00	715.00	689.00	684.00	689.00	695.00	698.00	702.00	719.00	731.00	739.00	741.00	699.00	682.00	656.00	628.00	617.00	574.00	545.00	526.00	514.00	511.00	511.00	475.00	455.00	456.00	465.00	476.00	496.00	515.00	548.00	566.00	586.00	605.00	636.00	648.00	647.00	639.00	615.00	555.00	595.00	651.00	688.00	716.00	757.00	746.00	730.00	717.00	663.00	643.00	688.00	729.00	750.00	784.00	786.00	770.00	742.00	673.00	640.00	600.00	557.00	516.00	428.00	458.00	502.00	558.00	622.00	653.00	677.00	697.00	716.00	760.00	777.00	781.00	770.00	731.00	725.00	721.00	725.00	736.00	765.00	778.00	788.00	792.00	779.00	757.00	720.00	702.00	681.00	632.00	605.00	576.00	573.00	642.00	649.00	638.00	628.00	664.00	712.00	744.00	771.00	797.00	839.00	837.00	821.00	798.00	768.00	647.00	606.00	585.00	566.00	525.00	498.00	489.00	485.00	487.00	505.00	498.00	473.00	427.00	369.00	366.00	365.00	367.00	372.00	376.00	383.00	395.00	414.00	433.00	461.00	489.00	509.00	533.00	541.00	544.00	545.00	539.00	578.00	599.00	621.00	645.00	690.00	706.00	717.00	722.00	722.00	713.00
605.00	586.00	569.00	550.00	518.00	483.00	464.00	457.00	459.00	466.00	478.00	489.00	503.00	524.00	528.00	528.00	518.00	512.00	513.00	513.00	515.00	520.00	534.00	542.00	548.00	553.00	569.00	578.00	589.00	601.00	617.00	650.00	664.00	680.00	695.00	720.00	719.00	708.00	696.00	683.00	664.00	670.00	679.00	686.00	698.00	707.00	717.00	747.00	764.00	792.00	799.00	800.00	795.00	771.00	757.00	741.00	724.00	707.00	663.00	644.00	625.00	608.00	582.00	565.00	551.00	548.00	556.00	552.00	565.00	571.00	572.00	574.00	575.00	576.00	575.00	573.00	568.00	567.00	564.00	562.00	560.00	559.00	563.00	566.00	571.00	575.00	581.00	585.00	590.00	621.00	632.00	643.00	655.00	690.00	702.00	715.00	731.00	747.00	781.00	829.00	849.00	859.00	862.00	843.00	820.00	794.00	772.00	736.00	725.00	715.00	689.00	684.00	689.00	695.00	698.00	702.00	719.00	731.00	739.00	741.00	699.00	682.00	656.00	628.00	617.00	574.00	545.00	526.00	514.00	511.00	511.00	475.00	455.00	456.00	465.00	476.00	496.00	515.00	548.00	566.00	586.00	605.00	636.00	648.00	647.00	639.00	615.00	555.00	595.00	651.00	688.00	716.00	757.00	746.00	730.00	717.00	663.00	643.00	688.00	729.00	750.00	784.00	786.00	770.00	742.00	673.00	640.00	600.00	557.00	516.00	428.00	458.00	502.00	558.00	622.00	653.00	677.00	697.00	716.00	760.00	777.00	781.00	770.00	731.00	725.00	721.00	725.00	736.00	765.00	778.00	788.00	792.00	779.00	757.00	720.00	702.00	681.00	632.00	605.00	576.00	573.00	642.00	649.00	638.00	628.00	664.00	712.00	744.00	771.00	797.00	839.00	837.00	821.00	798.00	768.00	647.00	606.00	585.00	566.00	525.00	498.00	489.00	485.00	487.00	505.00	498.00	473.00	427.00	369.00	366.00	365.00	367.00	372.00	376.00	383.00	395.00	414.00	433.00	461.00	489.00	509.00	533.00	541.00	544.00	545.00	539.00	578.00	599.00	621.00	645.00	690.00	706.00	717.00	722.00	722.00	713.00
605.00	586.00	569.00	550.00	518.00	483.00	464.00	457.00	459.00	466.00	478.00	489.00	503.00	524.00	528.00	528.00	518.00	512.00	513.00	513.00	515.00	520.00	534.00	542.00	548.00	553.00	569.00	578.00	589.00	601.00	617.00	650.00	664.00	680.00	695.00	720.00	719.00	708.00	696.00	683.00	664.00	670.00	679.00	686.00	698.00	707.00	717.00	747.00	764.00	792.00	799.00	800.00	795.00	771.00	757.00	741.00	724.00	707.00	663.00	644.00	625.00	608.00	582.00	565.00	551.00	548.00	556.00	552.00	565.00	571.00	572.00	574.00	575.00	576.00	575.00	573.00	568.00	567.00	564.00	562.00	560.00	559.00	563.00	566.00	571.00	575.00	581.00	585.00	590.00	621.00	632.00	643.00	655.00	690.00	702.00	715.00	731.00	747.00	781.00	829.00	849.00	859.00	862.00	843.00	820.00	794.00	772.00	736.00	725.00	715.00	689.00	684.00	689.00	695.00	698.00	702.00	719.00	731.00	739.00	741.00	699.00	682.00	656.00	628.00	617.00	574.00	545.00	526.00	514.00	511.00	511.00	475.00	455.00	456.00	465.00	476.00	496.00	515.00	548.00	566.00	586.00	605.00	636.00	648.00	647.00	639.00	615.00	555.00	595.00	651.00	688.00	716.00	757.00	746.00	730.00	717.00	663.00	643.00	688.00	729.00	750.00	784.00	786.00	770.00	742.00	673.00	640.00	600.00	557.00	516.00	428.00	458.00	502.00	558.00	622.00	653.00	677.00	697.00	716.00	760.00	777.00	781.00	770.00	731.00	725.00	721.00	725.00	736.00	765.00	778.00	788.00	792.00	779.00	757.00	720.00	702.00	681.00	632.00	605.00	576.00	573.00	642.00	649.00	638.00	628.00	664.00	712.00	744.00	771.00	797.00	839.00	837.00	821.00	798.00	768.00	647.00	606.00	585.00	566.00	525.00	498.00	489.00	485.00	487.00	505.00	498.00	473.00	427.00	369.00	366.00	365.00	367.00	372.00	376.00	383.00	395.00	414.00	433.00	461.00	489.00	509.00	533.00	541.00	544.00	545.00	539.00	578.00	599.00	621.00	645.00	690.00	706.00	717.00	722.00	722.00	713.00
607.00	587.00	567.00	550.00	517.00	493.00	481.00	468.00	462.00	457.00	467.00	482.00	492.00	505.00	510.00	512.00	507.00	502.00	511.00	524.00	536.00	542.00	555.00	567.00	579.00	591.00	596.00	602.00	613.00	622.00	633.00	666.00	682.00	701.00	722.00	761.00	755.00	732.00	707.00	686.00	652.00	642.00	645.00	655.00	666.00	672.00	681.00	710.00	727.00	766.00	785.00	797.00	798.00	773.00	760.00	750.00	738.00	721.00	653.00	636.00	622.00	608.00	582.00	567.00	551.00	549.00	549.00	541.00	543.00	542.00	541.00	544.00	546.00	545.00	546.00	549.00	557.00	564.00	574.00	581.00	585.00	586.00	587.00	586.00	581.00	572.00	576.00	580.00	580.00	606.00	615.00	624.00	635.00	663.00	678.00	691.00	703.00	716.00	746.00	774.00	795.00	822.00	859.00	850.00	830.00	806.00	783.00	751.00	736.00	727.00	728.00	734.00	734.00	738.00	746.00	755.00	781.00	788.00	795.00	795.00	746.00	725.00	699.00	678.00	663.00	615.00	587.00	564.00	548.00	537.00	531.00	527.00	513.00	489.00	453.00	445.00	446.00	455.00	477.00	509.00	535.00	548.00	567.00	580.00	570.00	534.00	511.00	605.00	641.00	663.00	682.00	697.00	708.00	696.00	681.00	667.00	598.00	594.00	657.00	707.00	731.00	778.00	786.00	763.00	730.00	667.00	632.00	589.00	546.00	504.00	420.00	440.00	471.00	548.00	625.00	659.00	687.00	711.00	734.00	788.00	803.00	794.00	763.00	704.00	689.00	666.00	646.00	665.00	715.00	732.00	748.00	758.00	753.00	738.00	708.00	692.00	671.00	623.00	596.00	570.00	541.00	535.00	560.00	576.00	598.00	652.00	688.00	725.00	761.00	790.00	834.00	830.00	815.00	798.00	781.00	699.00	673.00	629.00	588.00	547.00	551.00	572.00	584.00	586.00	572.00	537.00	496.00	443.00	373.00	364.00	364.00	365.00	372.00	382.00	393.00	400.00	410.00	426.00	444.00	459.00	465.00	470.00	471.00	470.00	462.00	465.00	546.00	567.00	583.00	600.00	625.00	626.00	627.00	630.00	639.00	654.00
