317.00	315.00	302.00	294.00	300.00	306.00	304.00	310.00	305.00	293.00	295.00	298.00	292.00	290.00	289.00	287.00	287.00	285.00	281.00	281.00	282.00	293.00	331.00	310.00	291.00	309.00	299.00	294.00	301.00	317.00	302.00	300.00	304.00	313.00	307.00	297.00	291.00	288.00	296.00	306.00	306.00	312.00	315.00	314.00	295.00	295.00	296.00	305.00	305.00	312.00	311.00	305.00	309.00	316.00	327.00	348.00	360.00	378.00	380.00	367.00	359.00	365.00	366.00	363.00	365.00	360.00	355.00	353.00	354.00	358.00	345.00	371.00	381.00	337.00	347.00	342.00	339.00	332.00	325.00	334.00	336.00	352.00	359.00	333.00	344.00	348.00	330.00	332.00	325.00	316.00	315.00	331.00	307.00	301.00	297.00	295.00	294.00	303.00	302.00	308.00	315.00	320.00	310.00	319.00	317.00	312.00	297.00	294.00	292.00	285.00	279.00	274.00	278.00	292.00	297.00	310.00	309.00	311.00	305.00	310.00	314.00	305.00	295.00	298.00	306.00	326.00	318.00	316.00	309.00	312.00	308.00	302.00	291.00	291.00	292.00	294.00	296.00	305.00	305.00	321.00	317.00	330.00	344.00	384.00	410.00	390.00	349.00	348.00	339.00	321.00	309.00	305.00	305.00	307.00	316.00	354.00	443.00	457.00	393.00	346.00	344.00	321.00	312.00	311.00	329.00	340.00	344.00	328.00	326.00	349.00	313.00	308.00	293.00	331.00	343.00	315.00	377.00	352.00	344.00	328.00	322.00	334.00	348.00	331.00	335.00	339.00	358.00	350.00	344.00	338.00	331.00	324.00	323.00	313.00	311.00	363.00	336.00	307.00	312.00	321.00	300.00	295.00	292.00	290.00	319.00	310.00	306.00	308.00	366.00	352.00	339.00	330.00	329.00	325.00	322.00	316.00	310.00	305.00	377.00	399.00	374.00	337.00	330.00	385.00	451.00	461.00	431.00	356.00	315.00	317.00	303.00	344.00	384.00	353.00	317.00	335.00	280.00	331.00	281.00	279.00	286.00	286.00	332.00	393.00	281.00	256.00	260.00	248.00	246.00	297.00	295.00	270.00	269.00	267.00	308.00	334.00
308.00	305.00	297.00	295.00	305.00	314.00	313.00	309.00	299.00	294.00	305.00	298.00	292.00	291.00	291.00	289.00	288.00	288.00	286.00	280.00	283.00	288.00	335.00	366.00	304.00	305.00	296.00	292.00	304.00	326.00	308.00	311.00	307.00	311.00	300.00	292.00	296.00	292.00	295.00	308.00	311.00	316.00	311.00	305.00	295.00	300.00	300.00	322.00	307.00	317.00	319.00	311.00	312.00	316.00	325.00	354.00	353.00	376.00	399.00	386.00	358.00	361.00	365.00	361.00	360.00	347.00	356.00	349.00	347.00	354.00	351.00	351.00	381.00	358.00	381.00	366.00	338.00	328.00	327.00	345.00	348.00	351.00	349.00	330.00	340.00	345.00	324.00	322.00	318.00	319.00	314.00	308.00	306.00	298.00	296.00	297.00	301.00	311.00	315.00	319.00	323.00	321.00	309.00	304.00	303.00	329.00	313.00	295.00	291.00	287.00	277.00	275.00	275.00	283.00	288.00	298.00	298.00	298.00	314.00	317.00	317.00	311.00	309.00	308.00	314.00	364.00	336.00	330.00	326.00	319.00	310.00	299.00	297.00	292.00	292.00	291.00	296.00	302.00	305.00	322.00	327.00	375.00	435.00	422.00	373.00	340.00	328.00	329.00	323.00	311.00	306.00	308.00	309.00	305.00	311.00	362.00	468.00	423.00	364.00	325.00	322.00	318.00	319.00	315.00	348.00	432.00	387.00	338.00	315.00	321.00	299.00	299.00	294.00	352.00	397.00	358.00	351.00	380.00	396.00	374.00	360.00	357.00	399.00	375.00	374.00	351.00	367.00	364.00	346.00	336.00	330.00	337.00	326.00	318.00	313.00	363.00	328.00	312.00	313.00	320.00	300.00	309.00	300.00	295.00	304.00	299.00	299.00	317.00	353.00	339.00	337.00	335.00	330.00	319.00	311.00	308.00	305.00	303.00	311.00	359.00	391.00	373.00	308.00	325.00	410.00	412.00	404.00	389.00	341.00	318.00	319.00	298.00	318.00	300.00	289.00	296.00	277.00	313.00	329.00	331.00	408.00	396.00	434.00	418.00	300.00	263.00	276.00	257.00	246.00	262.00	266.00	269.00	272.00	283.00	287.00	300.00
304.00	299.00	293.00	298.00	309.00	314.00	315.00	302.00	295.00	299.00	308.00	301.00	293.00	300.00	297.00	291.00	291.00	289.00	289.00	282.00	285.00	285.00	292.00	321.00	297.00	302.00	294.00	296.00	316.00	316.00	311.00	321.00	319.00	307.00	297.00	300.00	306.00	299.00	291.00	302.00	305.00	309.00	303.00	293.00	301.00	320.00	351.00	360.00	323.00	321.00	321.00	310.00	328.00	339.00	330.00	346.00	350.00	363.00	352.00	377.00	350.00	351.00	350.00	352.00	352.00	341.00	354.00	347.00	341.00	346.00	353.00	354.00	397.00	418.00	432.00	382.00	332.00	338.00	344.00	349.00	349.00	346.00	345.00	326.00	327.00	327.00	336.00	337.00	329.00	328.00	323.00	316.00	310.00	299.00	298.00	308.00	313.00	309.00	320.00	328.00	331.00	321.00	320.00	316.00	301.00	327.00	363.00	315.00	314.00	295.00	285.00	274.00	274.00	275.00	279.00	289.00	299.00	302.00	314.00	323.00	319.00	316.00	314.00	319.00	321.00	325.00	322.00	317.00	333.00	325.00	315.00	306.00	298.00	293.00	292.00	292.00	292.00	308.00	306.00	394.00	409.00	425.00	393.00	380.00	357.00	356.00	325.00	322.00	318.00	311.00	316.00	316.00	310.00	307.00	311.00	344.00	455.00	424.00	352.00	331.00	327.00	321.00	329.00	322.00	345.00	417.00	412.00	384.00	314.00	316.00	298.00	300.00	297.00	310.00	341.00	333.00	322.00	341.00	417.00	455.00	406.00	369.00	452.00	431.00	387.00	366.00	357.00	359.00	355.00	345.00	344.00	335.00	325.00	329.00	318.00	329.00	321.00	315.00	318.00	314.00	308.00	314.00	297.00	292.00	294.00	301.00	305.00	325.00	331.00	346.00	349.00	343.00	323.00	315.00	310.00	314.00	315.00	313.00	297.00	302.00	327.00	382.00	309.00	321.00	411.00	424.00	368.00	337.00	365.00	340.00	367.00	308.00	292.00	290.00	281.00	279.00	279.00	291.00	310.00	386.00	441.00	455.00	415.00	376.00	280.00	277.00	327.00	273.00	246.00	257.00	262.00	267.00	274.00	332.00	309.00	294.00
305.00	304.00	311.00	305.00	315.00	316.00	308.00	299.00	295.00	313.00	310.00	301.00	291.00	308.00	308.00	303.00	298.00	298.00	294.00	289.00	283.00	280.00	290.00	307.00	279.00	302.00	313.00	353.00	379.00	319.00	335.00	337.00	329.00	315.00	352.00	313.00	305.00	294.00	287.00	289.00	291.00	290.00	291.00	300.00	299.00	313.00	365.00	434.00	402.00	341.00	322.00	314.00	335.00	366.00	336.00	325.00	331.00	329.00	332.00	335.00	335.00	345.00	359.00	363.00	352.00	334.00	344.00	351.00	350.00	337.00	343.00	339.00	336.00	344.00	391.00	380.00	368.00	341.00	346.00	337.00	330.00	325.00	336.00	336.00	325.00	327.00	316.00	327.00	310.00	319.00	321.00	311.00	299.00	299.00	301.00	321.00	342.00	342.00	339.00	338.00	322.00	303.00	303.00	304.00	297.00	290.00	321.00	393.00	393.00	344.00	278.00	275.00	276.00	276.00	277.00	289.00	288.00	286.00	304.00	295.00	300.00	309.00	313.00	311.00	309.00	302.00	303.00	310.00	332.00	330.00	322.00	316.00	306.00	307.00	302.00	297.00	295.00	311.00	339.00	327.00	329.00	332.00	332.00	350.00	358.00	344.00	329.00	322.00	318.00	321.00	323.00	322.00	319.00	312.00	320.00	329.00	344.00	434.00	456.00	337.00	326.00	327.00	339.00	343.00	353.00	387.00	363.00	339.00	319.00	307.00	309.00	306.00	302.00	324.00	321.00	315.00	322.00	330.00	340.00	339.00	355.00	411.00	378.00	383.00	382.00	379.00	347.00	335.00	337.00	348.00	344.00	358.00	335.00	339.00	337.00	332.00	324.00	330.00	326.00	331.00	338.00	318.00	306.00	292.00	291.00	304.00	319.00	345.00	411.00	376.00	417.00	355.00	330.00	317.00	320.00	321.00	317.00	316.00	307.00	302.00	295.00	295.00	364.00	310.00	298.00	304.00	355.00	305.00	309.00	327.00	323.00	307.00	291.00	285.00	292.00	290.00	295.00	291.00	292.00	295.00	321.00	338.00	309.00	285.00	286.00	268.00	263.00	273.00	253.00	297.00	363.00	322.00	290.00	291.00	392.00	299.00
314.00	315.00	316.00	312.00	312.00	312.00	314.00	300.00	299.00	312.00	316.00	293.00	293.00	312.00	312.00	309.00	303.00	303.00	302.00	297.00	287.00	285.00	282.00	289.00	281.00	290.00	311.00	329.00	340.00	372.00	355.00	338.00	328.00	318.00	332.00	312.00	299.00	291.00	288.00	288.00	289.00	292.00	300.00	304.00	304.00	329.00	393.00	450.00	443.00	369.00	327.00	319.00	332.00	342.00	342.00	327.00	328.00	331.00	338.00	342.00	345.00	351.00	358.00	357.00	350.00	330.00	331.00	342.00	350.00	340.00	341.00	339.00	330.00	336.00	366.00	369.00	370.00	354.00	354.00	357.00	334.00	324.00	328.00	327.00	315.00	313.00	309.00	318.00	315.00	310.00	310.00	304.00	302.00	306.00	307.00	305.00	314.00	364.00	355.00	336.00	326.00	314.00	310.00	306.00	301.00	298.00	298.00	323.00	323.00	298.00	274.00	279.00	285.00	281.00	277.00	278.00	278.00	282.00	296.00	291.00	301.00	308.00	308.00	297.00	294.00	292.00	303.00	304.00	316.00	319.00	329.00	325.00	318.00	316.00	313.00	309.00	299.00	307.00	319.00	318.00	316.00	322.00	329.00	341.00	346.00	341.00	324.00	326.00	333.00	320.00	327.00	327.00	318.00	311.00	321.00	325.00	330.00	399.00	410.00	331.00	330.00	341.00	345.00	340.00	342.00	347.00	336.00	326.00	309.00	316.00	310.00	301.00	302.00	324.00	332.00	319.00	333.00	333.00	343.00	345.00	358.00	380.00	360.00	365.00	344.00	354.00	344.00	327.00	326.00	337.00	329.00	344.00	332.00	325.00	338.00	331.00	316.00	317.00	318.00	328.00	310.00	309.00	299.00	291.00	285.00	286.00	287.00	322.00	404.00	331.00	358.00	383.00	336.00	323.00	330.00	323.00	309.00	308.00	299.00	298.00	293.00	290.00	365.00	338.00	303.00	293.00	345.00	307.00	306.00	319.00	324.00	297.00	288.00	297.00	312.00	313.00	306.00	300.00	300.00	299.00	317.00	324.00	311.00	291.00	319.00	268.00	259.00	257.00	256.00	291.00	372.00	432.00	406.00	367.00	402.00	325.00
317.00	307.00	319.00	331.00	328.00	320.00	310.00	313.00	320.00	320.00	315.00	293.00	301.00	313.00	320.00	313.00	311.00	309.00	306.00	295.00	288.00	283.00	281.00	283.00	321.00	300.00	290.00	301.00	298.00	374.00	389.00	379.00	395.00	363.00	296.00	292.00	292.00	295.00	298.00	290.00	288.00	291.00	302.00	305.00	309.00	307.00	308.00	350.00	358.00	395.00	356.00	338.00	334.00	327.00	319.00	334.00	350.00	353.00	354.00	355.00	348.00	373.00	339.00	328.00	325.00	325.00	335.00	344.00	353.00	349.00	323.00	322.00	330.00	332.00	356.00	351.00	365.00	358.00	352.00	352.00	343.00	335.00	329.00	319.00	321.00	319.00	325.00	319.00	308.00	310.00	313.00	307.00	318.00	332.00	331.00	314.00	313.00	346.00	334.00	342.00	336.00	308.00	301.00	296.00	297.00	297.00	289.00	278.00	278.00	275.00	277.00	317.00	299.00	284.00	280.00	280.00	282.00	283.00	282.00	280.00	280.00	281.00	284.00	290.00	308.00	304.00	299.00	297.00	301.00	303.00	310.00	329.00	346.00	375.00	359.00	321.00	306.00	302.00	300.00	303.00	309.00	313.00	315.00	317.00	319.00	330.00	343.00	341.00	337.00	328.00	332.00	327.00	323.00	313.00	311.00	319.00	324.00	354.00	425.00	337.00	343.00	370.00	353.00	340.00	332.00	330.00	324.00	364.00	334.00	322.00	307.00	317.00	319.00	316.00	325.00	325.00	338.00	362.00	366.00	408.00	432.00	424.00	402.00	360.00	329.00	323.00	316.00	315.00	315.00	325.00	319.00	344.00	329.00	319.00	314.00	322.00	327.00	314.00	307.00	304.00	315.00	316.00	302.00	304.00	289.00	286.00	281.00	281.00	302.00	291.00	330.00	402.00	347.00	349.00	318.00	308.00	305.00	302.00	304.00	302.00	295.00	291.00	297.00	290.00	299.00	295.00	287.00	305.00	297.00	302.00	298.00	329.00	374.00	376.00	362.00	415.00	456.00	445.00	430.00	423.00	436.00	411.00	420.00	416.00	325.00	257.00	256.00	252.00	254.00	253.00	307.00	354.00	406.00	417.00	354.00	291.00
307.00	303.00	327.00	331.00	327.00	312.00	307.00	317.00	317.00	317.00	308.00	295.00	297.00	310.00	315.00	318.00	304.00	298.00	305.00	296.00	285.00	283.00	282.00	280.00	294.00	292.00	291.00	300.00	296.00	350.00	424.00	419.00	402.00	356.00	300.00	298.00	301.00	301.00	299.00	291.00	288.00	289.00	295.00	298.00	296.00	299.00	303.00	315.00	314.00	330.00	331.00	336.00	339.00	333.00	322.00	337.00	355.00	359.00	361.00	359.00	345.00	374.00	359.00	338.00	325.00	326.00	329.00	337.00	346.00	343.00	324.00	323.00	334.00	344.00	353.00	356.00	348.00	344.00	352.00	334.00	334.00	328.00	323.00	326.00	325.00	336.00	331.00	324.00	309.00	312.00	310.00	304.00	319.00	327.00	330.00	321.00	316.00	351.00	339.00	373.00	370.00	315.00	304.00	302.00	304.00	298.00	287.00	282.00	286.00	283.00	279.00	299.00	294.00	288.00	293.00	287.00	280.00	281.00	290.00	286.00	284.00	281.00	285.00	291.00	302.00	310.00	311.00	304.00	309.00	300.00	308.00	315.00	329.00	349.00	347.00	323.00	312.00	312.00	306.00	306.00	306.00	310.00	313.00	321.00	323.00	326.00	345.00	334.00	330.00	332.00	329.00	326.00	323.00	316.00	317.00	323.00	348.00	411.00	426.00	375.00	425.00	425.00	372.00	349.00	347.00	335.00	326.00	325.00	320.00	310.00	316.00	352.00	333.00	358.00	338.00	331.00	334.00	356.00	361.00	356.00	396.00	420.00	366.00	358.00	343.00	326.00	317.00	310.00	310.00	313.00	321.00	315.00	316.00	318.00	310.00	314.00	320.00	335.00	309.00	299.00	314.00	298.00	290.00	297.00	295.00	290.00	286.00	282.00	279.00	292.00	353.00	430.00	419.00	341.00	316.00	316.00	312.00	311.00	307.00	304.00	298.00	291.00	283.00	283.00	295.00	289.00	286.00	287.00	287.00	294.00	301.00	343.00	356.00	301.00	317.00	327.00	364.00	376.00	395.00	424.00	444.00	443.00	435.00	423.00	288.00	258.00	292.00	305.00	262.00	247.00	266.00	304.00	364.00	378.00	337.00	275.00
324.00	314.00	333.00	329.00	314.00	305.00	316.00	325.00	320.00	308.00	312.00	305.00	315.00	312.00	311.00	304.00	289.00	284.00	283.00	282.00	280.00	282.00	281.00	279.00	286.00	291.00	294.00	293.00	293.00	296.00	313.00	341.00	340.00	314.00	319.00	304.00	318.00	346.00	292.00	293.00	286.00	288.00	287.00	293.00	312.00	312.00	301.00	303.00	335.00	366.00	360.00	379.00	328.00	333.00	324.00	317.00	349.00	346.00	348.00	348.00	345.00	321.00	323.00	395.00	387.00	314.00	329.00	342.00	347.00	332.00	316.00	328.00	336.00	331.00	342.00	350.00	355.00	341.00	339.00	340.00	335.00	335.00	339.00	334.00	333.00	330.00	315.00	315.00	317.00	315.00	308.00	316.00	310.00	320.00	329.00	335.00	333.00	323.00	322.00	316.00	321.00	346.00	316.00	312.00	308.00	302.00	286.00	302.00	305.00	306.00	292.00	289.00	306.00	346.00	345.00	302.00	287.00	292.00	290.00	299.00	292.00	284.00	295.00	307.00	310.00	309.00	311.00	315.00	316.00	307.00	310.00	309.00	313.00	322.00	326.00	325.00	328.00	320.00	310.00	342.00	346.00	375.00	350.00	374.00	342.00	332.00	341.00	347.00	350.00	341.00	328.00	327.00	329.00	332.00	320.00	318.00	331.00	383.00	439.00	404.00	367.00	350.00	345.00	342.00	324.00	318.00	322.00	356.00	329.00	312.00	311.00	320.00	323.00	344.00	344.00	371.00	351.00	339.00	350.00	360.00	355.00	354.00	336.00	345.00	336.00	327.00	316.00	307.00	308.00	320.00	341.00	319.00	313.00	302.00	308.00	299.00	308.00	313.00	308.00	324.00	293.00	289.00	291.00	282.00	287.00	292.00	290.00	288.00	285.00	298.00	383.00	386.00	306.00	364.00	400.00	387.00	323.00	303.00	301.00	294.00	290.00	290.00	287.00	283.00	278.00	283.00	292.00	298.00	293.00	291.00	300.00	331.00	311.00	284.00	274.00	272.00	271.00	268.00	275.00	283.00	273.00	272.00	273.00	269.00	262.00	320.00	279.00	260.00	255.00	255.00	248.00	247.00	247.00	247.00	248.00	248.00
321.00	314.00	333.00	315.00	313.00	317.00	318.00	331.00	318.00	307.00	319.00	310.00	314.00	322.00	315.00	308.00	285.00	281.00	282.00	280.00	279.00	279.00	281.00	284.00	283.00	300.00	302.00	313.00	325.00	299.00	300.00	310.00	314.00	312.00	340.00	313.00	312.00	328.00	300.00	298.00	288.00	291.00	288.00	291.00	319.00	311.00	297.00	298.00	306.00	316.00	341.00	384.00	323.00	318.00	319.00	322.00	363.00	340.00	335.00	339.00	338.00	328.00	317.00	328.00	371.00	315.00	332.00	341.00	344.00	335.00	316.00	327.00	335.00	330.00	342.00	343.00	345.00	346.00	341.00	328.00	342.00	338.00	345.00	328.00	324.00	321.00	317.00	321.00	319.00	310.00	308.00	321.00	310.00	320.00	332.00	336.00	325.00	315.00	322.00	317.00	311.00	322.00	314.00	303.00	297.00	294.00	287.00	307.00	312.00	311.00	332.00	298.00	306.00	376.00	351.00	303.00	289.00	297.00	298.00	297.00	296.00	287.00	294.00	304.00	298.00	301.00	306.00	317.00	320.00	314.00	320.00	318.00	308.00	309.00	313.00	317.00	340.00	318.00	314.00	339.00	362.00	422.00	382.00	486.00	457.00	402.00	346.00	369.00	443.00	360.00	329.00	333.00	333.00	327.00	323.00	323.00	335.00	415.00	453.00	371.00	350.00	342.00	335.00	331.00	323.00	325.00	340.00	364.00	322.00	311.00	310.00	313.00	317.00	329.00	337.00	341.00	332.00	332.00	347.00	348.00	356.00	344.00	328.00	334.00	330.00	324.00	310.00	310.00	305.00	302.00	310.00	329.00	307.00	298.00	297.00	301.00	296.00	295.00	296.00	304.00	292.00	286.00	281.00	278.00	280.00	283.00	286.00	289.00	286.00	280.00	345.00	390.00	298.00	303.00	339.00	382.00	322.00	305.00	300.00	298.00	295.00	287.00	286.00	280.00	280.00	291.00	300.00	321.00	299.00	296.00	305.00	326.00	347.00	285.00	276.00	275.00	274.00	268.00	268.00	267.00	265.00	263.00	263.00	263.00	261.00	293.00	264.00	262.00	261.00	248.00	247.00	253.00	253.00	262.00	282.00	261.00
329.00	325.00	329.00	324.00	319.00	319.00	327.00	326.00	311.00	316.00	327.00	316.00	311.00	318.00	309.00	304.00	285.00	280.00	280.00	279.00	275.00	279.00	281.00	285.00	287.00	297.00	299.00	318.00	353.00	315.00	308.00	305.00	309.00	315.00	325.00	320.00	333.00	343.00	308.00	297.00	291.00	296.00	291.00	292.00	297.00	300.00	292.00	292.00	297.00	306.00	319.00	333.00	331.00	328.00	331.00	311.00	402.00	379.00	336.00	328.00	327.00	323.00	315.00	310.00	315.00	317.00	328.00	334.00	333.00	329.00	316.00	324.00	326.00	320.00	334.00	342.00	334.00	342.00	339.00	325.00	341.00	359.00	357.00	331.00	332.00	331.00	326.00	328.00	317.00	311.00	313.00	324.00	313.00	324.00	334.00	330.00	322.00	308.00	318.00	314.00	311.00	304.00	310.00	304.00	299.00	294.00	286.00	304.00	305.00	303.00	316.00	303.00	302.00	343.00	380.00	295.00	290.00	291.00	305.00	296.00	301.00	292.00	289.00	295.00	295.00	345.00	366.00	326.00	327.00	324.00	328.00	333.00	316.00	313.00	308.00	326.00	374.00	336.00	318.00	322.00	322.00	342.00	332.00	377.00	416.00	416.00	363.00	418.00	467.00	409.00	333.00	337.00	332.00	321.00	324.00	328.00	325.00	386.00	407.00	356.00	345.00	343.00	344.00	334.00	329.00	338.00	390.00	406.00	326.00	328.00	313.00	313.00	317.00	324.00	329.00	328.00	327.00	337.00	337.00	341.00	351.00	341.00	337.00	326.00	321.00	316.00	319.00	318.00	311.00	304.00	303.00	320.00	315.00	308.00	294.00	305.00	304.00	296.00	292.00	290.00	291.00	290.00	277.00	280.00	280.00	279.00	278.00	281.00	284.00	277.00	278.00	294.00	303.00	322.00	372.00	325.00	309.00	309.00	303.00	289.00	292.00	287.00	282.00	277.00	282.00	289.00	298.00	312.00	312.00	299.00	318.00	361.00	363.00	293.00	284.00	284.00	284.00	269.00	286.00	321.00	299.00	266.00	261.00	261.00	262.00	264.00	263.00	263.00	263.00	251.00	249.00	250.00	263.00	265.00	289.00	257.00
334.00	328.00	320.00	328.00	321.00	321.00	329.00	322.00	313.00	323.00	332.00	319.00	311.00	314.00	299.00	296.00	284.00	281.00	281.00	280.00	278.00	277.00	282.00	291.00	296.00	288.00	301.00	313.00	314.00	320.00	308.00	299.00	323.00	354.00	333.00	317.00	321.00	329.00	300.00	292.00	298.00	303.00	297.00	287.00	287.00	290.00	290.00	301.00	300.00	316.00	321.00	318.00	370.00	337.00	332.00	309.00	324.00	373.00	386.00	339.00	318.00	313.00	309.00	305.00	308.00	318.00	329.00	331.00	323.00	316.00	316.00	319.00	316.00	314.00	351.00	350.00	328.00	329.00	323.00	323.00	332.00	398.00	399.00	342.00	339.00	332.00	331.00	333.00	314.00	314.00	318.00	359.00	319.00	327.00	336.00	336.00	329.00	304.00	302.00	302.00	302.00	300.00	305.00	304.00	289.00	288.00	288.00	294.00	300.00	300.00	319.00	308.00	301.00	308.00	323.00	304.00	297.00	290.00	308.00	298.00	303.00	296.00	287.00	289.00	291.00	320.00	335.00	314.00	328.00	323.00	319.00	318.00	319.00	321.00	315.00	317.00	337.00	371.00	333.00	317.00	316.00	326.00	330.00	334.00	348.00	358.00	396.00	371.00	399.00	384.00	341.00	338.00	330.00	325.00	335.00	336.00	327.00	332.00	344.00	363.00	374.00	352.00	348.00	341.00	352.00	404.00	434.00	368.00	382.00	361.00	314.00	311.00	316.00	319.00	320.00	322.00	328.00	349.00	350.00	365.00	355.00	357.00	341.00	328.00	325.00	324.00	331.00	330.00	335.00	321.00	315.00	333.00	337.00	310.00	299.00	290.00	288.00	288.00	293.00	288.00	286.00	284.00	281.00	288.00	287.00	282.00	277.00	275.00	279.00	279.00	276.00	273.00	292.00	311.00	348.00	296.00	291.00	316.00	290.00	280.00	284.00	286.00	277.00	276.00	286.00	287.00	286.00	294.00	314.00	309.00	300.00	415.00	392.00	311.00	286.00	277.00	302.00	297.00	302.00	301.00	274.00	264.00	260.00	260.00	265.00	263.00	263.00	265.00	261.00	254.00	250.00	255.00	264.00	271.00	338.00	277.00
352.00	329.00	313.00	308.00	305.00	306.00	312.00	326.00	328.00	323.00	321.00	325.00	328.00	312.00	300.00	292.00	280.00	279.00	278.00	279.00	275.00	282.00	297.00	299.00	305.00	301.00	292.00	290.00	288.00	293.00	295.00	305.00	305.00	302.00	345.00	318.00	309.00	304.00	296.00	299.00	330.00	317.00	293.00	299.00	289.00	289.00	295.00	334.00	322.00	318.00	311.00	321.00	363.00	338.00	320.00	310.00	300.00	330.00	397.00	361.00	355.00	329.00	316.00	307.00	306.00	316.00	308.00	311.00	307.00	311.00	313.00	319.00	324.00	322.00	317.00	319.00	317.00	324.00	334.00	326.00	334.00	360.00	360.00	396.00	374.00	353.00	332.00	325.00	320.00	357.00	323.00	328.00	338.00	330.00	331.00	323.00	319.00	314.00	315.00	306.00	300.00	303.00	305.00	302.00	292.00	300.00	302.00	304.00	327.00	322.00	323.00	319.00	317.00	316.00	306.00	297.00	291.00	292.00	312.00	300.00	301.00	301.00	294.00	299.00	296.00	300.00	294.00	293.00	327.00	316.00	305.00	312.00	318.00	326.00	335.00	325.00	319.00	327.00	333.00	332.00	322.00	338.00	343.00	342.00	345.00	348.00	359.00	352.00	350.00	339.00	333.00	332.00	331.00	333.00	344.00	342.00	332.00	328.00	332.00	340.00	346.00	355.00	363.00	369.00	417.00	443.00	414.00	343.00	328.00	328.00	319.00	329.00	333.00	332.00	325.00	325.00	323.00	330.00	338.00	342.00	340.00	361.00	345.00	361.00	374.00	399.00	400.00	403.00	364.00	327.00	348.00	292.00	297.00	303.00	294.00	286.00	290.00	288.00	292.00	289.00	284.00	286.00	294.00	290.00	276.00	276.00	276.00	275.00	275.00	275.00	273.00	275.00	272.00	289.00	286.00	287.00	278.00	279.00	269.00	272.00	269.00	272.00	281.00	275.00	271.00	276.00	300.00	300.00	300.00	317.00	357.00	309.00	306.00	312.00	283.00	279.00	292.00	300.00	335.00	336.00	357.00	312.00	278.00	290.00	278.00	267.00	261.00	263.00	260.00	255.00	251.00	260.00	263.00	264.00	248.00	246.00
329.00	337.00	314.00	315.00	310.00	307.00	304.00	321.00	324.00	320.00	310.00	311.00	317.00	303.00	301.00	290.00	280.00	278.00	280.00	280.00	279.00	283.00	295.00	299.00	306.00	299.00	299.00	298.00	290.00	298.00	297.00	308.00	315.00	314.00	317.00	318.00	321.00	319.00	305.00	305.00	331.00	306.00	295.00	307.00	291.00	291.00	295.00	308.00	317.00	320.00	309.00	321.00	345.00	319.00	307.00	303.00	298.00	313.00	334.00	336.00	349.00	313.00	306.00	305.00	304.00	305.00	305.00	306.00	310.00	320.00	327.00	327.00	329.00	327.00	318.00	321.00	320.00	328.00	339.00	334.00	332.00	341.00	342.00	352.00	375.00	363.00	331.00	334.00	321.00	348.00	338.00	329.00	344.00	333.00	322.00	311.00	307.00	317.00	309.00	309.00	309.00	311.00	309.00	301.00	291.00	303.00	308.00	293.00	305.00	311.00	321.00	313.00	304.00	302.00	301.00	302.00	296.00	298.00	317.00	301.00	303.00	307.00	297.00	303.00	305.00	309.00	301.00	294.00	313.00	307.00	306.00	319.00	323.00	318.00	328.00	325.00	325.00	335.00	342.00	337.00	328.00	330.00	342.00	346.00	352.00	360.00	367.00	359.00	350.00	346.00	362.00	342.00	334.00	341.00	349.00	344.00	332.00	331.00	339.00	347.00	345.00	352.00	357.00	371.00	375.00	402.00	399.00	355.00	363.00	348.00	321.00	335.00	343.00	338.00	328.00	332.00	331.00	329.00	329.00	333.00	339.00	365.00	339.00	348.00	386.00	437.00	398.00	406.00	351.00	317.00	304.00	290.00	298.00	294.00	290.00	296.00	297.00	294.00	316.00	306.00	318.00	303.00	289.00	282.00	281.00	282.00	277.00	277.00	284.00	277.00	280.00	280.00	274.00	274.00	274.00	281.00	279.00	270.00	270.00	270.00	269.00	279.00	276.00	271.00	276.00	290.00	316.00	308.00	309.00	313.00	349.00	303.00	300.00	339.00	292.00	288.00	310.00	310.00	359.00	394.00	371.00	315.00	314.00	321.00	263.00	265.00	263.00	257.00	256.00	259.00	255.00	262.00	266.00	260.00	247.00	250.00
315.00	338.00	321.00	319.00	315.00	310.00	303.00	310.00	309.00	305.00	311.00	305.00	310.00	298.00	298.00	291.00	285.00	282.00	280.00	281.00	279.00	287.00	292.00	296.00	308.00	303.00	305.00	301.00	291.00	305.00	303.00	304.00	316.00	319.00	301.00	331.00	351.00	323.00	307.00	311.00	319.00	300.00	301.00	312.00	290.00	290.00	292.00	308.00	322.00	320.00	307.00	304.00	316.00	342.00	312.00	296.00	297.00	306.00	307.00	306.00	298.00	303.00	304.00	307.00	307.00	310.00	315.00	311.00	309.00	312.00	325.00	331.00	336.00	329.00	321.00	332.00	324.00	332.00	344.00	338.00	334.00	334.00	335.00	353.00	386.00	420.00	340.00	339.00	323.00	342.00	345.00	336.00	334.00	323.00	325.00	317.00	309.00	318.00	315.00	318.00	319.00	309.00	305.00	297.00	291.00	303.00	304.00	290.00	294.00	303.00	313.00	307.00	310.00	305.00	309.00	302.00	298.00	302.00	320.00	304.00	309.00	306.00	295.00	309.00	313.00	316.00	310.00	299.00	302.00	303.00	306.00	318.00	335.00	325.00	331.00	331.00	327.00	344.00	349.00	360.00	332.00	329.00	337.00	340.00	345.00	357.00	380.00	366.00	352.00	353.00	407.00	357.00	341.00	347.00	352.00	339.00	332.00	332.00	342.00	368.00	359.00	356.00	362.00	389.00	355.00	377.00	380.00	367.00	347.00	330.00	326.00	338.00	350.00	342.00	331.00	337.00	340.00	338.00	333.00	347.00	354.00	388.00	361.00	331.00	333.00	362.00	338.00	377.00	378.00	331.00	296.00	299.00	307.00	296.00	296.00	348.00	350.00	322.00	382.00	397.00	335.00	295.00	286.00	284.00	288.00	285.00	285.00	329.00	348.00	295.00	329.00	293.00	280.00	279.00	273.00	275.00	274.00	270.00	273.00	272.00	269.00	270.00	276.00	271.00	282.00	295.00	313.00	329.00	329.00	340.00	345.00	316.00	306.00	337.00	294.00	283.00	327.00	370.00	423.00	422.00	310.00	302.00	289.00	270.00	262.00	263.00	260.00	265.00	272.00	262.00	257.00	258.00	270.00	254.00	247.00	251.00
315.00	317.00	344.00	315.00	312.00	307.00	304.00	296.00	302.00	314.00	320.00	303.00	301.00	294.00	300.00	298.00	288.00	283.00	283.00	281.00	287.00	290.00	288.00	290.00	308.00	304.00	305.00	297.00	291.00	311.00	311.00	303.00	308.00	322.00	300.00	319.00	355.00	327.00	313.00	311.00	304.00	298.00	311.00	315.00	292.00	291.00	291.00	305.00	317.00	318.00	311.00	302.00	310.00	315.00	304.00	295.00	298.00	299.00	299.00	302.00	302.00	303.00	310.00	313.00	312.00	314.00	324.00	323.00	312.00	323.00	327.00	338.00	339.00	327.00	329.00	341.00	326.00	330.00	343.00	340.00	335.00	343.00	342.00	368.00	385.00	394.00	354.00	334.00	323.00	323.00	335.00	336.00	320.00	318.00	316.00	314.00	313.00	332.00	316.00	312.00	314.00	302.00	294.00	291.00	296.00	307.00	300.00	290.00	304.00	314.00	315.00	315.00	317.00	311.00	315.00	304.00	306.00	312.00	323.00	305.00	311.00	306.00	297.00	315.00	321.00	321.00	315.00	305.00	301.00	331.00	334.00	331.00	345.00	332.00	331.00	339.00	327.00	346.00	358.00	340.00	333.00	336.00	332.00	343.00	346.00	347.00	375.00	367.00	350.00	353.00	430.00	349.00	339.00	350.00	356.00	346.00	336.00	336.00	336.00	423.00	423.00	404.00	392.00	426.00	351.00	356.00	349.00	353.00	324.00	322.00	325.00	330.00	340.00	343.00	335.00	337.00	346.00	344.00	336.00	342.00	353.00	424.00	378.00	362.00	323.00	322.00	319.00	337.00	316.00	300.00	304.00	309.00	349.00	307.00	312.00	398.00	420.00	369.00	390.00	393.00	297.00	291.00	296.00	290.00	290.00	291.00	283.00	323.00	323.00	302.00	320.00	322.00	286.00	283.00	276.00	269.00	270.00	268.00	277.00	273.00	268.00	274.00	277.00	271.00	277.00	291.00	303.00	299.00	367.00	401.00	345.00	320.00	316.00	333.00	310.00	286.00	327.00	367.00	386.00	347.00	280.00	270.00	268.00	263.00	261.00	259.00	263.00	318.00	289.00	260.00	256.00	256.00	282.00	263.00	249.00	247.00
306.00	305.00	310.00	305.00	300.00	301.00	297.00	294.00	297.00	305.00	313.00	312.00	303.00	296.00	295.00	295.00	290.00	288.00	288.00	283.00	288.00	290.00	286.00	298.00	314.00	307.00	300.00	292.00	292.00	298.00	308.00	315.00	313.00	326.00	308.00	310.00	355.00	330.00	317.00	320.00	326.00	320.00	321.00	307.00	295.00	293.00	292.00	297.00	301.00	311.00	311.00	301.00	292.00	292.00	293.00	304.00	301.00	304.00	313.00	316.00	314.00	306.00	310.00	314.00	314.00	318.00	334.00	332.00	319.00	332.00	348.00	350.00	350.00	344.00	333.00	361.00	345.00	337.00	341.00	347.00	343.00	347.00	358.00	351.00	352.00	361.00	352.00	364.00	332.00	333.00	358.00	382.00	332.00	339.00	359.00	324.00	333.00	313.00	301.00	296.00	296.00	298.00	303.00	314.00	312.00	309.00	297.00	308.00	295.00	293.00	314.00	319.00	317.00	318.00	322.00	308.00	325.00	333.00	328.00	311.00	315.00	313.00	321.00	332.00	326.00	316.00	307.00	299.00	304.00	303.00	324.00	328.00	330.00	343.00	355.00	390.00	416.00	349.00	378.00	357.00	354.00	344.00	337.00	343.00	362.00	378.00	363.00	373.00	366.00	371.00	405.00	378.00	356.00	362.00	362.00	358.00	343.00	342.00	343.00	389.00	395.00	387.00	378.00	378.00	347.00	338.00	337.00	336.00	336.00	327.00	336.00	335.00	330.00	346.00	370.00	355.00	359.00	341.00	337.00	344.00	356.00	360.00	322.00	316.00	315.00	317.00	308.00	307.00	305.00	317.00	319.00	305.00	329.00	315.00	309.00	322.00	315.00	308.00	321.00	309.00	319.00	299.00	291.00	287.00	291.00	293.00	286.00	287.00	332.00	307.00	285.00	278.00	277.00	274.00	275.00	273.00	273.00	277.00	277.00	275.00	271.00	267.00	273.00	269.00	271.00	276.00	279.00	312.00	376.00	414.00	360.00	321.00	321.00	384.00	348.00	307.00	291.00	297.00	309.00	326.00	361.00	289.00	270.00	267.00	266.00	274.00	262.00	277.00	270.00	258.00	257.00	259.00	319.00	276.00	247.00	249.00
310.00	302.00	301.00	299.00	301.00	297.00	296.00	294.00	301.00	309.00	304.00	314.00	313.00	303.00	303.00	304.00	293.00	285.00	285.00	286.00	287.00	295.00	289.00	295.00	305.00	298.00	295.00	291.00	293.00	305.00	301.00	311.00	318.00	326.00	310.00	304.00	310.00	312.00	314.00	311.00	335.00	361.00	331.00	303.00	296.00	292.00	292.00	295.00	305.00	304.00	298.00	295.00	292.00	294.00	294.00	299.00	309.00	312.00	314.00	318.00	312.00	307.00	316.00	322.00	322.00	324.00	333.00	336.00	329.00	329.00	346.00	349.00	349.00	343.00	321.00	331.00	372.00	363.00	368.00	354.00	348.00	350.00	362.00	363.00	356.00	356.00	366.00	376.00	344.00	341.00	375.00	414.00	357.00	373.00	353.00	332.00	354.00	298.00	297.00	303.00	299.00	310.00	313.00	317.00	315.00	306.00	300.00	310.00	298.00	297.00	298.00	304.00	307.00	311.00	320.00	316.00	314.00	361.00	324.00	316.00	317.00	321.00	325.00	322.00	310.00	305.00	300.00	299.00	312.00	309.00	308.00	315.00	322.00	332.00	346.00	397.00	395.00	360.00	357.00	399.00	372.00	345.00	340.00	343.00	351.00	382.00	372.00	376.00	373.00	379.00	369.00	377.00	367.00	387.00	385.00	377.00	347.00	348.00	348.00	359.00	369.00	382.00	380.00	367.00	341.00	341.00	341.00	354.00	341.00	329.00	344.00	339.00	335.00	349.00	384.00	362.00	363.00	344.00	343.00	369.00	365.00	346.00	322.00	326.00	323.00	317.00	319.00	313.00	305.00	312.00	314.00	308.00	334.00	324.00	319.00	330.00	322.00	310.00	304.00	301.00	291.00	289.00	286.00	286.00	303.00	301.00	293.00	294.00	316.00	316.00	289.00	279.00	275.00	280.00	283.00	279.00	273.00	277.00	287.00	284.00	275.00	268.00	271.00	268.00	271.00	276.00	277.00	325.00	410.00	456.00	387.00	324.00	342.00	416.00	385.00	323.00	301.00	303.00	309.00	322.00	358.00	349.00	304.00	285.00	265.00	299.00	291.00	367.00	338.00	259.00	256.00	258.00	295.00	286.00	248.00	247.00
306.00	311.00	315.00	315.00	314.00	306.00	296.00	298.00	308.00	310.00	299.00	303.00	309.00	297.00	293.00	290.00	295.00	292.00	289.00	289.00	280.00	285.00	305.00	296.00	297.00	300.00	299.00	296.00	295.00	309.00	312.00	311.00	326.00	331.00	310.00	312.00	317.00	332.00	334.00	317.00	317.00	331.00	340.00	309.00	293.00	293.00	293.00	292.00	292.00	292.00	292.00	292.00	295.00	297.00	296.00	295.00	303.00	323.00	340.00	317.00	313.00	323.00	321.00	327.00	326.00	325.00	329.00	338.00	336.00	330.00	322.00	329.00	347.00	361.00	326.00	313.00	316.00	318.00	328.00	344.00	380.00	387.00	363.00	362.00	368.00	363.00	341.00	336.00	344.00	377.00	431.00	387.00	316.00	320.00	316.00	308.00	318.00	299.00	301.00	308.00	305.00	322.00	324.00	318.00	306.00	301.00	313.00	311.00	304.00	298.00	303.00	310.00	331.00	336.00	353.00	421.00	416.00	349.00	322.00	331.00	328.00	340.00	350.00	322.00	314.00	306.00	315.00	315.00	316.00	324.00	322.00	317.00	329.00	331.00	323.00	322.00	323.00	338.00	344.00	350.00	352.00	382.00	359.00	351.00	350.00	361.00	371.00	363.00	360.00	355.00	362.00	371.00	381.00	420.00	456.00	372.00	356.00	363.00	355.00	351.00	364.00	385.00	388.00	369.00	352.00	346.00	351.00	347.00	340.00	337.00	351.00	347.00	344.00	352.00	365.00	366.00	356.00	358.00	356.00	359.00	361.00	341.00	332.00	336.00	334.00	325.00	326.00	324.00	311.00	318.00	324.00	318.00	324.00	340.00	333.00	350.00	319.00	313.00	316.00	299.00	295.00	300.00	330.00	304.00	301.00	298.00	297.00	290.00	288.00	287.00	283.00	278.00	290.00	292.00	286.00	283.00	276.00	275.00	293.00	284.00	277.00	271.00	270.00	274.00	282.00	287.00	286.00	290.00	298.00	356.00	342.00	326.00	364.00	400.00	388.00	356.00	361.00	323.00	307.00	331.00	293.00	324.00	306.00	311.00	325.00	389.00	443.00	405.00	308.00	258.00	265.00	271.00	266.00	258.00	263.00	251.00
315.00	318.00	316.00	307.00	308.00	305.00	295.00	302.00	302.00	304.00	297.00	300.00	308.00	302.00	298.00	289.00	293.00	292.00	289.00	289.00	281.00	280.00	300.00	305.00	305.00	311.00	307.00	301.00	296.00	302.00	314.00	321.00	328.00	330.00	310.00	331.00	335.00	344.00	336.00	321.00	324.00	333.00	339.00	317.00	300.00	292.00	294.00	295.00	293.00	292.00	294.00	298.00	304.00	305.00	304.00	294.00	295.00	296.00	319.00	312.00	311.00	349.00	335.00	329.00	323.00	330.00	333.00	343.00	338.00	323.00	313.00	314.00	347.00	371.00	349.00	313.00	312.00	314.00	327.00	330.00	337.00	363.00	371.00	352.00	368.00	365.00	348.00	336.00	345.00	364.00	408.00	365.00	313.00	310.00	308.00	305.00	305.00	303.00	321.00	327.00	322.00	328.00	326.00	319.00	311.00	301.00	314.00	308.00	303.00	309.00	309.00	301.00	310.00	353.00	363.00	361.00	434.00	384.00	332.00	336.00	345.00	376.00	370.00	317.00	310.00	311.00	322.00	318.00	313.00	322.00	326.00	324.00	324.00	320.00	314.00	319.00	325.00	339.00	338.00	336.00	355.00	423.00	374.00	358.00	359.00	363.00	373.00	356.00	349.00	351.00	366.00	401.00	416.00	427.00	458.00	378.00	387.00	371.00	359.00	359.00	367.00	375.00	370.00	358.00	361.00	359.00	356.00	350.00	346.00	344.00	359.00	349.00	342.00	357.00	358.00	359.00	350.00	363.00	368.00	397.00	354.00	336.00	339.00	346.00	350.00	338.00	334.00	330.00	317.00	315.00	324.00	328.00	324.00	367.00	368.00	389.00	327.00	305.00	298.00	299.00	308.00	316.00	352.00	310.00	307.00	297.00	293.00	297.00	296.00	282.00	278.00	282.00	293.00	297.00	289.00	279.00	275.00	279.00	287.00	282.00	281.00	274.00	272.00	276.00	282.00	283.00	279.00	288.00	295.00	351.00	384.00	326.00	337.00	378.00	422.00	423.00	330.00	303.00	294.00	293.00	284.00	285.00	276.00	293.00	287.00	372.00	403.00	321.00	284.00	269.00	318.00	299.00	310.00	264.00	268.00	256.00
310.00	304.00	309.00	304.00	299.00	293.00	299.00	289.00	289.00	297.00	297.00	294.00	296.00	288.00	286.00	278.00	283.00	287.00	288.00	286.00	281.00	279.00	289.00	288.00	312.00	320.00	318.00	314.00	304.00	317.00	324.00	326.00	326.00	348.00	320.00	346.00	350.00	346.00	329.00	320.00	325.00	323.00	318.00	336.00	296.00	297.00	302.00	310.00	305.00	295.00	302.00	316.00	322.00	319.00	316.00	299.00	296.00	296.00	295.00	296.00	306.00	307.00	299.00	302.00	327.00	325.00	311.00	318.00	309.00	315.00	318.00	317.00	308.00	303.00	310.00	316.00	323.00	316.00	316.00	321.00	327.00	334.00	333.00	342.00	353.00	347.00	343.00	342.00	328.00	329.00	351.00	354.00	318.00	321.00	322.00	317.00	302.00	300.00	307.00	351.00	321.00	328.00	326.00	322.00	313.00	306.00	321.00	308.00	316.00	321.00	311.00	302.00	305.00	303.00	305.00	316.00	325.00	337.00	320.00	329.00	337.00	349.00	340.00	314.00	318.00	329.00	332.00	329.00	313.00	316.00	325.00	329.00	314.00	305.00	307.00	313.00	315.00	319.00	326.00	348.00	375.00	385.00	367.00	359.00	356.00	360.00	374.00	380.00	394.00	340.00	352.00	384.00	408.00	378.00	407.00	458.00	409.00	378.00	373.00	379.00	372.00	376.00	376.00	371.00	378.00	382.00	356.00	361.00	413.00	375.00	349.00	353.00	357.00	351.00	361.00	355.00	361.00	424.00	493.00	463.00	384.00	350.00	440.00	447.00	389.00	371.00	336.00	330.00	321.00	325.00	331.00	375.00	356.00	349.00	347.00	313.00	320.00	307.00	305.00	333.00	320.00	333.00	322.00	320.00	361.00	341.00	308.00	305.00	296.00	290.00	281.00	290.00	302.00	292.00	284.00	277.00	276.00	283.00	284.00	287.00	282.00	275.00	271.00	272.00	272.00	273.00	271.00	279.00	284.00	291.00	313.00	339.00	348.00	380.00	381.00	379.00	300.00	295.00	295.00	292.00	276.00	275.00	274.00	276.00	269.00	282.00	305.00	281.00	276.00	339.00	308.00	284.00	278.00	281.00	261.00	256.00
319.00	313.00	299.00	300.00	296.00	299.00	304.00	287.00	285.00	284.00	290.00	292.00	292.00	287.00	283.00	282.00	280.00	281.00	281.00	281.00	281.00	289.00	290.00	292.00	296.00	318.00	321.00	316.00	308.00	307.00	318.00	321.00	316.00	351.00	325.00	344.00	354.00	345.00	322.00	323.00	329.00	320.00	312.00	342.00	295.00	301.00	309.00	315.00	306.00	298.00	302.00	318.00	325.00	321.00	316.00	297.00	301.00	300.00	296.00	301.00	309.00	301.00	297.00	298.00	299.00	321.00	309.00	305.00	303.00	303.00	305.00	306.00	302.00	304.00	316.00	323.00	329.00	327.00	321.00	321.00	333.00	361.00	351.00	347.00	353.00	345.00	339.00	347.00	334.00	324.00	326.00	319.00	325.00	328.00	327.00	317.00	303.00	306.00	301.00	310.00	314.00	325.00	325.00	320.00	315.00	306.00	321.00	322.00	322.00	320.00	306.00	310.00	312.00	305.00	309.00	310.00	312.00	314.00	320.00	322.00	326.00	335.00	332.00	319.00	336.00	336.00	335.00	326.00	325.00	325.00	327.00	328.00	315.00	305.00	311.00	328.00	337.00	325.00	326.00	349.00	378.00	377.00	364.00	356.00	352.00	353.00	361.00	350.00	367.00	342.00	347.00	353.00	356.00	360.00	402.00	386.00	377.00	381.00	397.00	387.00	384.00	388.00	391.00	396.00	428.00	384.00	356.00	362.00	405.00	372.00	351.00	354.00	381.00	372.00	377.00	364.00	389.00	394.00	459.00	437.00	375.00	375.00	497.00	476.00	423.00	415.00	332.00	324.00	330.00	337.00	342.00	328.00	323.00	320.00	315.00	310.00	308.00	309.00	310.00	308.00	327.00	351.00	349.00	352.00	357.00	346.00	307.00	294.00	285.00	285.00	294.00	305.00	295.00	286.00	276.00	276.00	280.00	285.00	294.00	294.00	287.00	277.00	268.00	264.00	271.00	268.00	272.00	278.00	283.00	291.00	322.00	336.00	327.00	355.00	363.00	396.00	308.00	320.00	300.00	292.00	280.00	276.00	274.00	275.00	269.00	328.00	321.00	297.00	293.00	395.00	344.00	299.00	289.00	336.00	265.00	260.00
320.00	312.00	309.00	316.00	312.00	307.00	310.00	287.00	284.00	282.00	282.00	288.00	289.00	282.00	285.00	287.00	287.00	285.00	283.00	281.00	283.00	293.00	300.00	303.00	295.00	316.00	322.00	321.00	314.00	302.00	305.00	309.00	320.00	377.00	340.00	345.00	348.00	340.00	332.00	335.00	340.00	333.00	312.00	303.00	296.00	301.00	311.00	316.00	301.00	309.00	314.00	319.00	320.00	315.00	312.00	298.00	308.00	303.00	298.00	296.00	298.00	297.00	297.00	297.00	300.00	302.00	303.00	300.00	300.00	301.00	301.00	301.00	305.00	310.00	318.00	325.00	334.00	333.00	330.00	321.00	321.00	327.00	338.00	342.00	344.00	350.00	336.00	330.00	332.00	321.00	319.00	324.00	333.00	334.00	329.00	313.00	310.00	308.00	302.00	308.00	312.00	322.00	313.00	311.00	308.00	310.00	314.00	328.00	325.00	319.00	309.00	316.00	310.00	308.00	315.00	308.00	314.00	320.00	328.00	324.00	330.00	345.00	335.00	332.00	376.00	363.00	340.00	324.00	329.00	331.00	329.00	327.00	316.00	306.00	305.00	334.00	382.00	351.00	333.00	369.00	377.00	371.00	374.00	373.00	363.00	348.00	358.00	349.00	344.00	338.00	344.00	346.00	349.00	367.00	391.00	370.00	367.00	406.00	442.00	403.00	458.00	428.00	391.00	453.00	479.00	439.00	367.00	360.00	410.00	387.00	357.00	355.00	381.00	413.00	375.00	366.00	380.00	434.00	442.00	452.00	435.00	468.00	511.00	459.00	386.00	358.00	331.00	328.00	338.00	347.00	346.00	327.00	324.00	319.00	313.00	314.00	313.00	321.00	321.00	316.00	336.00	327.00	317.00	311.00	313.00	303.00	295.00	286.00	286.00	292.00	313.00	351.00	284.00	279.00	277.00	280.00	289.00	298.00	300.00	292.00	284.00	276.00	266.00	264.00	268.00	263.00	268.00	277.00	283.00	307.00	419.00	321.00	317.00	379.00	365.00	418.00	367.00	340.00	311.00	348.00	305.00	278.00	271.00	270.00	266.00	314.00	377.00	369.00	376.00	428.00	389.00	344.00	366.00	420.00	286.00	275.00
312.00	314.00	305.00	319.00	306.00	298.00	303.00	285.00	283.00	283.00	282.00	286.00	285.00	291.00	290.00	296.00	296.00	291.00	287.00	284.00	283.00	288.00	298.00	305.00	303.00	304.00	316.00	321.00	321.00	307.00	303.00	302.00	320.00	350.00	342.00	344.00	341.00	336.00	339.00	340.00	349.00	334.00	311.00	303.00	300.00	310.00	314.00	314.00	305.00	318.00	321.00	311.00	307.00	304.00	304.00	299.00	313.00	308.00	300.00	296.00	294.00	298.00	301.00	304.00	305.00	303.00	301.00	303.00	305.00	307.00	305.00	305.00	306.00	316.00	318.00	324.00	338.00	340.00	336.00	328.00	327.00	322.00	326.00	333.00	339.00	350.00	342.00	333.00	323.00	326.00	331.00	333.00	332.00	337.00	326.00	310.00	311.00	302.00	302.00	324.00	336.00	329.00	319.00	312.00	317.00	318.00	311.00	330.00	325.00	318.00	314.00	318.00	312.00	315.00	318.00	309.00	313.00	319.00	328.00	345.00	372.00	362.00	342.00	351.00	344.00	342.00	335.00	328.00	330.00	334.00	333.00	322.00	310.00	303.00	300.00	316.00	377.00	360.00	332.00	351.00	351.00	349.00	369.00	363.00	350.00	340.00	364.00	351.00	340.00	329.00	338.00	341.00	347.00	378.00	413.00	366.00	361.00	430.00	464.00	385.00	423.00	424.00	386.00	470.00	491.00	437.00	379.00	364.00	403.00	394.00	367.00	359.00	378.00	383.00	372.00	378.00	413.00	472.00	395.00	429.00	489.00	522.00	525.00	478.00	396.00	342.00	336.00	334.00	344.00	354.00	342.00	328.00	320.00	316.00	315.00	318.00	318.00	328.00	330.00	326.00	323.00	318.00	303.00	302.00	304.00	300.00	290.00	287.00	295.00	296.00	303.00	358.00	299.00	278.00	284.00	289.00	297.00	308.00	292.00	283.00	280.00	274.00	267.00	266.00	265.00	264.00	269.00	276.00	290.00	357.00	466.00	314.00	322.00	427.00	377.00	392.00	428.00	385.00	369.00	409.00	326.00	282.00	271.00	268.00	264.00	293.00	403.00	376.00	364.00	424.00	427.00	427.00	419.00	422.00	358.00	311.00
301.00	305.00	294.00	289.00	292.00	293.00	286.00	282.00	282.00	283.00	287.00	285.00	282.00	283.00	294.00	306.00	313.00	309.00	304.00	294.00	285.00	285.00	305.00	330.00	314.00	303.00	301.00	315.00	324.00	323.00	314.00	316.00	336.00	334.00	337.00	343.00	347.00	351.00	340.00	330.00	309.00	305.00	303.00	300.00	304.00	310.00	315.00	351.00	319.00	326.00	323.00	319.00	319.00	311.00	301.00	317.00	306.00	301.00	299.00	297.00	302.00	294.00	306.00	314.00	315.00	318.00	317.00	308.00	314.00	321.00	312.00	306.00	307.00	305.00	315.00	322.00	340.00	347.00	345.00	343.00	340.00	335.00	326.00	343.00	348.00	354.00	348.00	352.00	346.00	341.00	333.00	332.00	329.00	319.00	313.00	320.00	317.00	307.00	305.00	307.00	363.00	331.00	322.00	324.00	326.00	327.00	318.00	329.00	327.00	323.00	311.00	319.00	322.00	328.00	327.00	316.00	318.00	319.00	322.00	372.00	342.00	325.00	323.00	357.00	369.00	326.00	311.00	308.00	322.00	313.00	315.00	316.00	308.00	301.00	296.00	304.00	310.00	315.00	339.00	306.00	310.00	339.00	371.00	421.00	392.00	382.00	341.00	332.00	334.00	329.00	337.00	343.00	346.00	343.00	340.00	351.00	365.00	430.00	473.00	408.00	378.00	365.00	386.00	455.00	522.00	497.00	457.00	376.00	381.00	378.00	432.00	441.00	467.00	381.00	383.00	380.00	378.00	374.00	379.00	404.00	480.00	411.00	471.00	459.00	402.00	406.00	362.00	341.00	364.00	355.00	342.00	338.00	326.00	329.00	337.00	330.00	334.00	347.00	330.00	321.00	312.00	309.00	310.00	312.00	297.00	290.00	288.00	290.00	293.00	357.00	398.00	380.00	331.00	288.00	282.00	286.00	300.00	298.00	301.00	290.00	283.00	280.00	267.00	266.00	265.00	265.00	266.00	272.00	277.00	298.00	397.00	308.00	292.00	385.00	420.00	445.00	470.00	437.00	357.00	320.00	303.00	299.00	288.00	274.00	264.00	369.00	356.00	288.00	275.00	305.00	326.00	332.00	283.00	279.00	264.00	260.00
295.00	306.00	299.00	295.00	295.00	293.00	286.00	280.00	280.00	288.00	289.00	293.00	297.00	298.00	304.00	307.00	317.00	314.00	308.00	298.00	284.00	285.00	297.00	339.00	320.00	304.00	303.00	318.00	327.00	328.00	320.00	310.00	312.00	316.00	339.00	346.00	351.00	355.00	335.00	317.00	313.00	323.00	322.00	302.00	311.00	314.00	319.00	363.00	347.00	339.00	334.00	327.00	312.00	304.00	302.00	345.00	307.00	306.00	301.00	297.00	298.00	311.00	318.00	325.00	317.00	320.00	327.00	314.00	317.00	326.00	311.00	311.00	312.00	306.00	320.00	323.00	332.00	343.00	354.00	352.00	346.00	341.00	330.00	336.00	346.00	358.00	358.00	361.00	351.00	342.00	342.00	340.00	328.00	318.00	320.00	327.00	328.00	313.00	309.00	306.00	326.00	370.00	329.00	329.00	332.00	330.00	319.00	328.00	328.00	326.00	313.00	317.00	321.00	332.00	332.00	321.00	326.00	326.00	324.00	333.00	323.00	320.00	335.00	378.00	343.00	323.00	317.00	306.00	318.00	307.00	307.00	309.00	309.00	302.00	295.00	294.00	299.00	302.00	305.00	301.00	310.00	346.00	365.00	397.00	402.00	400.00	350.00	335.00	326.00	324.00	333.00	337.00	338.00	336.00	336.00	377.00	416.00	487.00	508.00	394.00	380.00	367.00	368.00	469.00	522.00	498.00	444.00	378.00	377.00	384.00	497.00	501.00	483.00	379.00	380.00	416.00	379.00	371.00	380.00	416.00	451.00	379.00	412.00	454.00	443.00	412.00	350.00	350.00	354.00	350.00	349.00	334.00	328.00	329.00	343.00	337.00	332.00	326.00	320.00	315.00	310.00	309.00	318.00	313.00	295.00	296.00	295.00	302.00	296.00	360.00	390.00	372.00	334.00	290.00	282.00	287.00	296.00	293.00	301.00	284.00	278.00	278.00	268.00	262.00	266.00	267.00	265.00	270.00	279.00	292.00	390.00	308.00	283.00	324.00	391.00	439.00	462.00	415.00	329.00	296.00	283.00	277.00	270.00	267.00	262.00	311.00	297.00	271.00	271.00	299.00	320.00	318.00	278.00	265.00	258.00	255.00
295.00	307.00	292.00	290.00	283.00	283.00	281.00	283.00	283.00	288.00	288.00	297.00	305.00	312.00	308.00	318.00	317.00	313.00	309.00	302.00	283.00	286.00	296.00	353.00	320.00	313.00	304.00	315.00	329.00	331.00	326.00	314.00	310.00	315.00	343.00	348.00	351.00	352.00	334.00	330.00	333.00	326.00	314.00	305.00	315.00	327.00	356.00	406.00	362.00	342.00	331.00	320.00	311.00	317.00	312.00	336.00	312.00	311.00	305.00	298.00	298.00	303.00	311.00	322.00	322.00	325.00	352.00	347.00	336.00	328.00	311.00	318.00	318.00	312.00	323.00	332.00	330.00	330.00	345.00	361.00	353.00	346.00	338.00	330.00	341.00	351.00	352.00	362.00	354.00	347.00	342.00	335.00	319.00	322.00	330.00	332.00	331.00	311.00	307.00	306.00	314.00	343.00	333.00	329.00	332.00	325.00	319.00	330.00	329.00	328.00	315.00	316.00	325.00	346.00	334.00	328.00	332.00	329.00	325.00	320.00	317.00	321.00	336.00	381.00	345.00	336.00	341.00	346.00	307.00	302.00	299.00	303.00	315.00	307.00	299.00	290.00	294.00	297.00	298.00	309.00	356.00	379.00	351.00	356.00	354.00	354.00	345.00	337.00	329.00	320.00	327.00	329.00	328.00	330.00	336.00	424.00	469.00	509.00	499.00	377.00	368.00	361.00	359.00	457.00	490.00	494.00	466.00	388.00	389.00	405.00	471.00	452.00	421.00	372.00	399.00	447.00	381.00	397.00	434.00	439.00	411.00	366.00	374.00	386.00	378.00	361.00	363.00	383.00	427.00	370.00	363.00	337.00	342.00	341.00	349.00	327.00	323.00	321.00	320.00	313.00	315.00	313.00	318.00	306.00	314.00	316.00	298.00	303.00	298.00	323.00	315.00	310.00	304.00	286.00	291.00	295.00	298.00	292.00	287.00	282.00	280.00	278.00	270.00	264.00	265.00	266.00	266.00	270.00	276.00	284.00	348.00	307.00	281.00	386.00	414.00	406.00	457.00	416.00	337.00	323.00	294.00	314.00	295.00	267.00	262.00	267.00	265.00	264.00	272.00	334.00	292.00	285.00	275.00	259.00	259.00	259.00
293.00	295.00	289.00	285.00	282.00	279.00	282.00	281.00	285.00	289.00	290.00	301.00	308.00	316.00	311.00	321.00	315.00	299.00	298.00	294.00	285.00	283.00	298.00	327.00	319.00	319.00	312.00	304.00	313.00	329.00	331.00	323.00	316.00	313.00	343.00	346.00	346.00	344.00	341.00	340.00	341.00	332.00	315.00	315.00	313.00	324.00	345.00	356.00	339.00	327.00	318.00	311.00	324.00	324.00	319.00	307.00	303.00	306.00	302.00	299.00	297.00	301.00	300.00	301.00	319.00	336.00	356.00	356.00	328.00	318.00	322.00	325.00	324.00	318.00	322.00	337.00	340.00	342.00	340.00	363.00	356.00	351.00	344.00	332.00	331.00	337.00	351.00	358.00	343.00	338.00	331.00	325.00	326.00	329.00	335.00	333.00	328.00	310.00	313.00	316.00	319.00	325.00	325.00	324.00	326.00	325.00	326.00	333.00	331.00	329.00	322.00	328.00	331.00	344.00	331.00	333.00	329.00	330.00	328.00	313.00	316.00	320.00	322.00	368.00	352.00	330.00	325.00	357.00	297.00	296.00	295.00	299.00	317.00	308.00	299.00	293.00	290.00	297.00	299.00	323.00	376.00	389.00	362.00	329.00	324.00	325.00	332.00	335.00	333.00	324.00	321.00	324.00	323.00	328.00	335.00	395.00	476.00	472.00	480.00	403.00	367.00	362.00	352.00	387.00	422.00	478.00	461.00	387.00	383.00	418.00	426.00	389.00	375.00	368.00	402.00	392.00	363.00	439.00	493.00	479.00	466.00	365.00	385.00	392.00	411.00	392.00	443.00	428.00	447.00	440.00	420.00	364.00	412.00	355.00	345.00	338.00	332.00	338.00	329.00	317.00	317.00	334.00	317.00	306.00	351.00	363.00	303.00	306.00	304.00	313.00	306.00	296.00	289.00	294.00	315.00	314.00	309.00	302.00	286.00	280.00	279.00	275.00	267.00	265.00	266.00	264.00	267.00	265.00	268.00	274.00	313.00	283.00	276.00	372.00	378.00	320.00	390.00	416.00	421.00	357.00	373.00	345.00	292.00	270.00	262.00	261.00	258.00	262.00	271.00	345.00	300.00	271.00	256.00	255.00	259.00	260.00
307.00	300.00	287.00	283.00	280.00	283.00	291.00	290.00	294.00	293.00	289.00	296.00	299.00	324.00	329.00	316.00	306.00	302.00	294.00	295.00	285.00	284.00	286.00	296.00	351.00	332.00	320.00	309.00	321.00	329.00	336.00	337.00	332.00	325.00	323.00	325.00	324.00	327.00	336.00	341.00	344.00	342.00	337.00	316.00	319.00	339.00	342.00	320.00	322.00	321.00	316.00	318.00	331.00	323.00	315.00	316.00	313.00	307.00	307.00	301.00	299.00	313.00	309.00	301.00	300.00	305.00	316.00	328.00	331.00	330.00	345.00	363.00	349.00	324.00	315.00	318.00	330.00	344.00	346.00	345.00	343.00	342.00	348.00	354.00	349.00	344.00	342.00	355.00	343.00	346.00	346.00	333.00	345.00	358.00	347.00	337.00	320.00	323.00	397.00	412.00	409.00	376.00	357.00	346.00	347.00	337.00	331.00	341.00	336.00	330.00	326.00	335.00	342.00	340.00	332.00	318.00	316.00	322.00	320.00	310.00	318.00	317.00	320.00	320.00	324.00	316.00	308.00	308.00	323.00	303.00	296.00	289.00	299.00	301.00	302.00	295.00	289.00	291.00	297.00	308.00	323.00	402.00	339.00	323.00	312.00	311.00	357.00	403.00	336.00	331.00	319.00	318.00	321.00	324.00	333.00	335.00	363.00	481.00	506.00	367.00	353.00	346.00	344.00	375.00	463.00	471.00	414.00	382.00	370.00	370.00	364.00	364.00	374.00	368.00	378.00	365.00	357.00	415.00	408.00	421.00	371.00	373.00	493.00	424.00	387.00	410.00	354.00	388.00	444.00	452.00	402.00	476.00	449.00	425.00	375.00	335.00	331.00	324.00	323.00	335.00	321.00	319.00	323.00	316.00	385.00	404.00	393.00	319.00	306.00	313.00	301.00	293.00	288.00	298.00	322.00	314.00	309.00	299.00	287.00	282.00	276.00	274.00	269.00	266.00	264.00	265.00	265.00	265.00	267.00	269.00	271.00	270.00	277.00	331.00	357.00	301.00	315.00	355.00	426.00	427.00	291.00	283.00	284.00	291.00	263.00	263.00	262.00	258.00	313.00	411.00	367.00	280.00	265.00	260.00	250.00	248.00
309.00	298.00	286.00	283.00	280.00	282.00	289.00	296.00	298.00	297.00	298.00	294.00	307.00	327.00	330.00	326.00	317.00	310.00	305.00	299.00	285.00	285.00	286.00	297.00	356.00	323.00	315.00	316.00	314.00	320.00	336.00	343.00	335.00	330.00	322.00	321.00	329.00	333.00	340.00	344.00	346.00	347.00	337.00	326.00	324.00	346.00	358.00	327.00	336.00	334.00	325.00	328.00	327.00	317.00	310.00	322.00	306.00	304.00	304.00	306.00	301.00	314.00	309.00	300.00	300.00	314.00	312.00	328.00	332.00	343.00	342.00	357.00	340.00	331.00	320.00	324.00	323.00	323.00	330.00	332.00	333.00	333.00	341.00	360.00	359.00	355.00	338.00	346.00	351.00	352.00	342.00	336.00	350.00	371.00	354.00	337.00	324.00	319.00	437.00	505.00	509.00	512.00	488.00	449.00	421.00	355.00	333.00	352.00	334.00	333.00	326.00	337.00	344.00	340.00	329.00	311.00	317.00	324.00	316.00	307.00	309.00	308.00	311.00	323.00	327.00	322.00	316.00	306.00	310.00	306.00	302.00	289.00	290.00	298.00	300.00	294.00	287.00	294.00	298.00	324.00	336.00	371.00	324.00	315.00	309.00	311.00	376.00	367.00	379.00	346.00	319.00	317.00	318.00	320.00	326.00	335.00	380.00	446.00	404.00	362.00	350.00	341.00	349.00	400.00	494.00	487.00	432.00	426.00	370.00	366.00	363.00	359.00	366.00	373.00	370.00	356.00	352.00	353.00	361.00	386.00	363.00	385.00	413.00	366.00	350.00	347.00	353.00	420.00	479.00	473.00	455.00	450.00	398.00	374.00	343.00	332.00	328.00	327.00	338.00	348.00	330.00	330.00	333.00	349.00	408.00	428.00	346.00	310.00	300.00	314.00	301.00	290.00	299.00	315.00	326.00	302.00	293.00	289.00	281.00	280.00	276.00	276.00	270.00	266.00	263.00	266.00	265.00	262.00	271.00	276.00	281.00	274.00	277.00	330.00	315.00	303.00	295.00	324.00	394.00	414.00	333.00	346.00	327.00	298.00	259.00	258.00	260.00	258.00	269.00	337.00	374.00	300.00	269.00	262.00	248.00	248.00
303.00	295.00	282.00	284.00	282.00	281.00	286.00	294.00	296.00	298.00	299.00	299.00	309.00	326.00	326.00	322.00	310.00	310.00	309.00	299.00	284.00	285.00	286.00	297.00	348.00	330.00	325.00	329.00	330.00	332.00	345.00	346.00	339.00	333.00	331.00	327.00	330.00	333.00	342.00	345.00	347.00	348.00	335.00	328.00	353.00	365.00	345.00	338.00	344.00	337.00	332.00	333.00	329.00	316.00	313.00	319.00	306.00	318.00	312.00	307.00	301.00	316.00	314.00	308.00	299.00	313.00	319.00	328.00	330.00	321.00	319.00	332.00	338.00	334.00	328.00	329.00	328.00	324.00	327.00	334.00	336.00	333.00	339.00	360.00	367.00	366.00	348.00	341.00	358.00	347.00	339.00	341.00	355.00	357.00	349.00	336.00	328.00	315.00	360.00	478.00	517.00	517.00	516.00	514.00	507.00	474.00	349.00	408.00	363.00	344.00	329.00	344.00	345.00	335.00	327.00	310.00	317.00	325.00	314.00	305.00	300.00	303.00	309.00	330.00	334.00	342.00	334.00	306.00	294.00	292.00	292.00	286.00	285.00	293.00	299.00	291.00	286.00	296.00	315.00	370.00	388.00	354.00	319.00	307.00	305.00	308.00	323.00	326.00	370.00	357.00	319.00	313.00	315.00	317.00	319.00	338.00	352.00	347.00	358.00	349.00	343.00	338.00	344.00	393.00	498.00	508.00	483.00	476.00	388.00	380.00	410.00	382.00	358.00	369.00	367.00	351.00	363.00	343.00	353.00	359.00	354.00	362.00	371.00	363.00	350.00	340.00	361.00	409.00	461.00	434.00	466.00	454.00	431.00	406.00	355.00	335.00	338.00	352.00	354.00	359.00	368.00	367.00	336.00	369.00	332.00	351.00	321.00	302.00	295.00	293.00	296.00	294.00	308.00	330.00	306.00	302.00	292.00	285.00	283.00	279.00	277.00	280.00	273.00	267.00	264.00	266.00	263.00	281.00	276.00	287.00	282.00	285.00	282.00	373.00	307.00	288.00	286.00	301.00	329.00	423.00	402.00	373.00	315.00	274.00	273.00	258.00	257.00	259.00	260.00	287.00	339.00	293.00	267.00	259.00	248.00	249.00
286.00	287.00	288.00	287.00	287.00	286.00	282.00	287.00	296.00	297.00	296.00	292.00	305.00	316.00	313.00	312.00	310.00	303.00	293.00	288.00	286.00	287.00	287.00	288.00	335.00	326.00	312.00	322.00	325.00	338.00	341.00	340.00	340.00	335.00	346.00	341.00	339.00	338.00	339.00	336.00	327.00	332.00	335.00	350.00	358.00	347.00	342.00	334.00	330.00	334.00	337.00	331.00	312.00	319.00	333.00	334.00	352.00	328.00	311.00	306.00	300.00	322.00	326.00	314.00	305.00	301.00	312.00	332.00	318.00	304.00	317.00	329.00	336.00	339.00	342.00	345.00	340.00	338.00	339.00	349.00	349.00	340.00	341.00	360.00	367.00	371.00	351.00	343.00	362.00	357.00	353.00	354.00	351.00	350.00	341.00	333.00	325.00	317.00	319.00	395.00	486.00	470.00	470.00	473.00	497.00	492.00	490.00	515.00	516.00	466.00	366.00	347.00	331.00	323.00	318.00	310.00	306.00	315.00	317.00	304.00	302.00	298.00	297.00	298.00	297.00	300.00	296.00	293.00	289.00	286.00	289.00	293.00	285.00	286.00	288.00	286.00	285.00	293.00	293.00	304.00	332.00	299.00	298.00	306.00	305.00	301.00	329.00	363.00	406.00	400.00	328.00	322.00	315.00	311.00	310.00	317.00	323.00	337.00	378.00	363.00	348.00	343.00	333.00	344.00	420.00	484.00	510.00	488.00	388.00	383.00	367.00	396.00	388.00	368.00	349.00	393.00	450.00	358.00	334.00	339.00	351.00	349.00	356.00	345.00	346.00	337.00	385.00	370.00	353.00	351.00	385.00	374.00	371.00	366.00	397.00	391.00	391.00	414.00	464.00	424.00	340.00	330.00	337.00	316.00	319.00	315.00	301.00	301.00	350.00	308.00	313.00	309.00	308.00	307.00	298.00	296.00	291.00	295.00	291.00	292.00	290.00	287.00	273.00	265.00	263.00	264.00	262.00	266.00	269.00	287.00	292.00	297.00	297.00	416.00	308.00	279.00	291.00	310.00	384.00	445.00	448.00	405.00	354.00	320.00	349.00	271.00	257.00	257.00	257.00	254.00	254.00	253.00	255.00	254.00	249.00	253.00
287.00	286.00	291.00	289.00	283.00	281.00	282.00	299.00	308.00	316.00	318.00	298.00	301.00	304.00	296.00	295.00	296.00	296.00	294.00	289.00	293.00	288.00	287.00	288.00	301.00	325.00	306.00	309.00	310.00	319.00	321.00	314.00	316.00	311.00	330.00	329.00	318.00	323.00	310.00	310.00	311.00	315.00	319.00	326.00	342.00	340.00	354.00	377.00	348.00	339.00	337.00	328.00	324.00	334.00	344.00	347.00	323.00	311.00	307.00	303.00	300.00	323.00	324.00	314.00	307.00	311.00	308.00	301.00	300.00	311.00	319.00	321.00	325.00	337.00	396.00	360.00	348.00	348.00	351.00	344.00	340.00	345.00	344.00	342.00	363.00	372.00	359.00	354.00	358.00	361.00	352.00	342.00	330.00	327.00	328.00	336.00	336.00	320.00	329.00	339.00	426.00	457.00	434.00	443.00	454.00	435.00	480.00	517.00	534.00	533.00	505.00	473.00	383.00	326.00	326.00	317.00	308.00	304.00	305.00	301.00	300.00	301.00	299.00	300.00	299.00	299.00	297.00	291.00	296.00	299.00	300.00	296.00	284.00	284.00	282.00	281.00	280.00	282.00	283.00	298.00	311.00	303.00	297.00	293.00	294.00	305.00	330.00	371.00	379.00	370.00	317.00	321.00	315.00	311.00	307.00	315.00	337.00	335.00	329.00	368.00	326.00	329.00	367.00	419.00	352.00	365.00	460.00	502.00	463.00	389.00	353.00	367.00	406.00	356.00	340.00	372.00	379.00	353.00	325.00	375.00	395.00	336.00	366.00	343.00	330.00	332.00	338.00	338.00	339.00	345.00	374.00	365.00	351.00	351.00	372.00	379.00	349.00	334.00	330.00	336.00	329.00	321.00	314.00	311.00	304.00	306.00	318.00	411.00	398.00	322.00	317.00	310.00	319.00	306.00	330.00	311.00	307.00	292.00	289.00	289.00	282.00	279.00	270.00	267.00	265.00	265.00	262.00	268.00	272.00	274.00	275.00	297.00	304.00	457.00	414.00	315.00	272.00	278.00	316.00	374.00	339.00	316.00	287.00	277.00	283.00	277.00	256.00	258.00	255.00	256.00	255.00	250.00	248.00	248.00	254.00	252.00
287.00	286.00	291.00	289.00	283.00	281.00	282.00	299.00	308.00	316.00	318.00	298.00	301.00	304.00	296.00	295.00	296.00	296.00	294.00	289.00	293.00	288.00	287.00	288.00	301.00	325.00	306.00	309.00	310.00	319.00	321.00	314.00	316.00	311.00	330.00	329.00	318.00	323.00	310.00	310.00	311.00	315.00	319.00	326.00	342.00	340.00	354.00	377.00	348.00	339.00	337.00	328.00	324.00	334.00	344.00	347.00	323.00	311.00	307.00	303.00	300.00	323.00	324.00	314.00	307.00	311.00	308.00	301.00	300.00	311.00	319.00	321.00	325.00	337.00	396.00	360.00	348.00	348.00	351.00	344.00	340.00	345.00	344.00	342.00	363.00	372.00	359.00	354.00	358.00	361.00	352.00	342.00	330.00	327.00	328.00	336.00	336.00	320.00	329.00	339.00	426.00	457.00	434.00	443.00	454.00	435.00	480.00	517.00	534.00	533.00	505.00	473.00	383.00	326.00	326.00	317.00	308.00	304.00	305.00	301.00	300.00	301.00	299.00	300.00	299.00	299.00	297.00	291.00	296.00	299.00	300.00	296.00	284.00	284.00	282.00	281.00	280.00	282.00	283.00	298.00	311.00	303.00	297.00	293.00	294.00	305.00	330.00	371.00	379.00	370.00	317.00	321.00	315.00	311.00	307.00	315.00	337.00	335.00	329.00	368.00	326.00	329.00	367.00	419.00	352.00	365.00	460.00	502.00	463.00	389.00	353.00	367.00	406.00	356.00	340.00	372.00	379.00	353.00	325.00	375.00	395.00	336.00	366.00	343.00	330.00	332.00	338.00	338.00	339.00	345.00	374.00	365.00	351.00	351.00	372.00	379.00	349.00	334.00	330.00	336.00	329.00	321.00	314.00	311.00	304.00	306.00	318.00	411.00	398.00	322.00	317.00	310.00	319.00	306.00	330.00	311.00	307.00	292.00	289.00	289.00	282.00	279.00	270.00	267.00	265.00	265.00	262.00	268.00	272.00	274.00	275.00	297.00	304.00	457.00	414.00	315.00	272.00	278.00	316.00	374.00	339.00	316.00	287.00	277.00	283.00	277.00	256.00	258.00	255.00	256.00	255.00	250.00	248.00	248.00	254.00	252.00
288.00	286.00	286.00	286.00	280.00	281.00	283.00	293.00	308.00	318.00	322.00	302.00	296.00	302.00	297.00	300.00	306.00	303.00	296.00	289.00	301.00	294.00	288.00	287.00	291.00	312.00	300.00	308.00	313.00	307.00	322.00	314.00	301.00	303.00	330.00	314.00	307.00	306.00	317.00	324.00	322.00	324.00	321.00	320.00	326.00	329.00	339.00	373.00	345.00	335.00	329.00	329.00	326.00	339.00	346.00	340.00	326.00	316.00	311.00	306.00	300.00	312.00	308.00	316.00	322.00	315.00	308.00	303.00	301.00	316.00	331.00	334.00	338.00	351.00	384.00	346.00	339.00	346.00	341.00	330.00	338.00	345.00	348.00	344.00	354.00	357.00	362.00	360.00	355.00	361.00	359.00	347.00	330.00	335.00	340.00	339.00	333.00	320.00	324.00	333.00	368.00	438.00	399.00	413.00	429.00	416.00	455.00	508.00	531.00	537.00	529.00	513.00	479.00	385.00	345.00	319.00	308.00	312.00	312.00	306.00	308.00	304.00	303.00	308.00	307.00	304.00	297.00	299.00	301.00	299.00	294.00	287.00	290.00	290.00	284.00	284.00	281.00	279.00	280.00	295.00	306.00	305.00	298.00	293.00	293.00	305.00	312.00	319.00	329.00	322.00	311.00	319.00	320.00	316.00	309.00	313.00	325.00	328.00	326.00	323.00	318.00	340.00	444.00	472.00	422.00	424.00	431.00	483.00	475.00	400.00	350.00	349.00	348.00	351.00	343.00	335.00	334.00	327.00	322.00	340.00	350.00	324.00	348.00	357.00	338.00	328.00	333.00	341.00	357.00	352.00	373.00	372.00	355.00	347.00	343.00	339.00	336.00	332.00	333.00	326.00	331.00	325.00	323.00	320.00	306.00	313.00	354.00	416.00	421.00	322.00	313.00	311.00	319.00	314.00	331.00	353.00	308.00	289.00	280.00	282.00	281.00	278.00	270.00	265.00	262.00	265.00	262.00	264.00	270.00	271.00	275.00	294.00	294.00	423.00	464.00	376.00	270.00	292.00	327.00	301.00	278.00	275.00	272.00	264.00	264.00	265.00	257.00	250.00	257.00	251.00	248.00	248.00	248.00	251.00	251.00	248.00
289.00	289.00	283.00	281.00	284.00	283.00	283.00	303.00	304.00	317.00	322.00	310.00	299.00	308.00	298.00	306.00	312.00	305.00	295.00	290.00	309.00	306.00	296.00	289.00	287.00	296.00	294.00	311.00	312.00	294.00	298.00	303.00	305.00	316.00	322.00	317.00	307.00	301.00	330.00	334.00	335.00	336.00	334.00	330.00	329.00	341.00	360.00	375.00	349.00	341.00	337.00	333.00	330.00	342.00	344.00	334.00	326.00	321.00	314.00	306.00	299.00	303.00	300.00	310.00	328.00	313.00	314.00	308.00	301.00	305.00	337.00	352.00	349.00	336.00	342.00	337.00	331.00	337.00	327.00	329.00	331.00	339.00	347.00	346.00	347.00	349.00	358.00	363.00	353.00	361.00	362.00	352.00	336.00	344.00	347.00	334.00	330.00	324.00	322.00	335.00	387.00	445.00	414.00	388.00	425.00	398.00	433.00	492.00	518.00	532.00	536.00	520.00	505.00	480.00	387.00	315.00	316.00	321.00	309.00	310.00	311.00	307.00	308.00	313.00	310.00	302.00	300.00	305.00	294.00	288.00	284.00	281.00	295.00	295.00	295.00	294.00	290.00	281.00	282.00	294.00	308.00	305.00	298.00	294.00	289.00	292.00	297.00	300.00	305.00	307.00	309.00	313.00	324.00	320.00	311.00	309.00	324.00	329.00	322.00	322.00	329.00	350.00	432.00	494.00	494.00	487.00	487.00	497.00	497.00	433.00	357.00	371.00	384.00	342.00	336.00	334.00	331.00	328.00	321.00	320.00	321.00	320.00	381.00	404.00	377.00	336.00	338.00	351.00	349.00	338.00	348.00	368.00	369.00	362.00	348.00	341.00	344.00	342.00	333.00	323.00	325.00	326.00	329.00	322.00	307.00	330.00	365.00	397.00	362.00	322.00	319.00	322.00	341.00	360.00	337.00	309.00	288.00	282.00	277.00	274.00	273.00	275.00	264.00	265.00	263.00	264.00	263.00	272.00	274.00	274.00	274.00	282.00	291.00	357.00	429.00	444.00	271.00	270.00	342.00	302.00	272.00	270.00	269.00	263.00	259.00	255.00	255.00	254.00	254.00	248.00	248.00	249.00	253.00	252.00	250.00	256.00
284.00	283.00	285.00	291.00	290.00	289.00	306.00	321.00	322.00	325.00	329.00	322.00	304.00	314.00	304.00	310.00	315.00	307.00	298.00	293.00	320.00	319.00	314.00	309.00	291.00	289.00	289.00	289.00	293.00	298.00	312.00	318.00	317.00	313.00	323.00	309.00	299.00	304.00	323.00	323.00	317.00	314.00	326.00	375.00	333.00	337.00	353.00	347.00	346.00	350.00	351.00	343.00	349.00	337.00	329.00	326.00	321.00	315.00	312.00	304.00	301.00	313.00	318.00	321.00	325.00	333.00	319.00	313.00	305.00	301.00	303.00	314.00	318.00	313.00	328.00	328.00	314.00	316.00	321.00	338.00	341.00	335.00	340.00	350.00	353.00	356.00	354.00	360.00	356.00	363.00	363.00	352.00	348.00	353.00	341.00	339.00	345.00	334.00	325.00	332.00	356.00	391.00	377.00	364.00	374.00	365.00	392.00	437.00	463.00	486.00	534.00	512.00	395.00	334.00	329.00	319.00	327.00	327.00	314.00	340.00	322.00	317.00	318.00	314.00	303.00	308.00	312.00	308.00	290.00	296.00	294.00	285.00	295.00	303.00	309.00	302.00	292.00	282.00	280.00	285.00	289.00	297.00	292.00	284.00	287.00	295.00	301.00	305.00	308.00	298.00	379.00	379.00	338.00	330.00	313.00	302.00	310.00	319.00	317.00	308.00	380.00	377.00	452.00	489.00	509.00	520.00	504.00	500.00	501.00	424.00	363.00	361.00	444.00	360.00	361.00	353.00	353.00	348.00	352.00	372.00	339.00	310.00	359.00	369.00	322.00	322.00	320.00	323.00	327.00	334.00	368.00	422.00	433.00	420.00	411.00	380.00	431.00	404.00	369.00	331.00	320.00	315.00	312.00	310.00	313.00	342.00	384.00	352.00	330.00	333.00	326.00	318.00	349.00	311.00	295.00	292.00	293.00	291.00	281.00	279.00	275.00	267.00	264.00	264.00	261.00	263.00	262.00	274.00	272.00	270.00	285.00	290.00	334.00	377.00	313.00	381.00	269.00	267.00	273.00	351.00	377.00	341.00	324.00	295.00	261.00	263.00	252.00	248.00	248.00	250.00	254.00	250.00	249.00	265.00	253.00	252.00
285.00	286.00	288.00	298.00	298.00	289.00	301.00	318.00	323.00	327.00	328.00	322.00	305.00	320.00	318.00	317.00	308.00	300.00	296.00	293.00	318.00	327.00	320.00	314.00	298.00	288.00	290.00	290.00	288.00	302.00	311.00	317.00	323.00	322.00	319.00	310.00	298.00	303.00	307.00	308.00	312.00	321.00	329.00	364.00	358.00	354.00	351.00	347.00	364.00	378.00	358.00	347.00	333.00	329.00	320.00	321.00	318.00	308.00	304.00	304.00	310.00	309.00	323.00	328.00	332.00	330.00	314.00	305.00	303.00	304.00	305.00	304.00	305.00	310.00	318.00	316.00	318.00	324.00	322.00	332.00	339.00	341.00	337.00	347.00	354.00	359.00	353.00	361.00	357.00	359.00	362.00	364.00	351.00	344.00	340.00	347.00	354.00	337.00	326.00	328.00	340.00	372.00	362.00	361.00	351.00	358.00	398.00	420.00	445.00	467.00	529.00	511.00	400.00	331.00	323.00	321.00	322.00	328.00	322.00	419.00	361.00	368.00	329.00	317.00	308.00	309.00	308.00	304.00	295.00	297.00	295.00	287.00	299.00	302.00	302.00	297.00	292.00	287.00	281.00	282.00	287.00	291.00	282.00	284.00	295.00	301.00	299.00	296.00	295.00	298.00	367.00	361.00	332.00	322.00	317.00	302.00	303.00	309.00	317.00	303.00	312.00	330.00	407.00	429.00	491.00	506.00	470.00	459.00	486.00	386.00	342.00	336.00	386.00	351.00	380.00	398.00	381.00	402.00	402.00	368.00	321.00	303.00	328.00	323.00	311.00	317.00	325.00	331.00	329.00	325.00	344.00	390.00	379.00	389.00	373.00	370.00	385.00	364.00	347.00	332.00	352.00	335.00	329.00	321.00	321.00	328.00	338.00	318.00	314.00	329.00	323.00	308.00	315.00	344.00	334.00	313.00	298.00	289.00	275.00	274.00	273.00	269.00	266.00	264.00	264.00	263.00	262.00	274.00	271.00	270.00	277.00	283.00	362.00	426.00	333.00	312.00	273.00	269.00	266.00	280.00	372.00	407.00	371.00	304.00	252.00	255.00	248.00	248.00	250.00	252.00	251.00	253.00	251.00	277.00	253.00	254.00
289.00	298.00	298.00	305.00	303.00	295.00	291.00	300.00	304.00	311.00	322.00	322.00	307.00	325.00	321.00	313.00	301.00	301.00	298.00	295.00	316.00	325.00	321.00	315.00	293.00	294.00	291.00	291.00	290.00	298.00	300.00	307.00	319.00	312.00	301.00	299.00	299.00	300.00	301.00	309.00	320.00	328.00	351.00	331.00	388.00	357.00	336.00	377.00	400.00	379.00	345.00	340.00	320.00	315.00	313.00	309.00	308.00	308.00	304.00	312.00	318.00	309.00	314.00	323.00	329.00	324.00	316.00	319.00	312.00	303.00	310.00	307.00	305.00	304.00	310.00	309.00	320.00	328.00	328.00	340.00	365.00	350.00	346.00	361.00	355.00	361.00	354.00	359.00	365.00	368.00	364.00	366.00	357.00	350.00	352.00	359.00	359.00	338.00	328.00	330.00	337.00	369.00	365.00	351.00	349.00	358.00	403.00	428.00	447.00	467.00	519.00	508.00	444.00	361.00	327.00	330.00	321.00	317.00	330.00	440.00	476.00	431.00	351.00	315.00	308.00	307.00	302.00	294.00	300.00	299.00	293.00	288.00	302.00	303.00	304.00	299.00	295.00	285.00	283.00	281.00	281.00	283.00	283.00	298.00	301.00	301.00	291.00	289.00	291.00	299.00	323.00	349.00	339.00	313.00	333.00	307.00	304.00	301.00	304.00	305.00	302.00	313.00	337.00	341.00	418.00	471.00	389.00	388.00	447.00	357.00	329.00	325.00	336.00	351.00	381.00	417.00	446.00	427.00	386.00	339.00	328.00	306.00	302.00	311.00	307.00	318.00	339.00	359.00	331.00	320.00	334.00	352.00	343.00	373.00	368.00	349.00	345.00	345.00	358.00	351.00	405.00	422.00	333.00	316.00	323.00	300.00	309.00	319.00	310.00	320.00	322.00	311.00	298.00	295.00	309.00	307.00	293.00	284.00	275.00	271.00	270.00	277.00	269.00	264.00	263.00	264.00	262.00	270.00	268.00	266.00	268.00	284.00	385.00	445.00	405.00	336.00	278.00	267.00	269.00	265.00	353.00	397.00	295.00	265.00	251.00	248.00	248.00	251.00	251.00	254.00	259.00	254.00	251.00	254.00	255.00	256.00
292.00	299.00	306.00	331.00	307.00	300.00	298.00	302.00	314.00	315.00	329.00	317.00	307.00	322.00	310.00	304.00	308.00	312.00	306.00	298.00	321.00	325.00	323.00	312.00	291.00	302.00	302.00	291.00	289.00	292.00	295.00	299.00	306.00	296.00	300.00	308.00	312.00	314.00	309.00	304.00	312.00	323.00	341.00	327.00	403.00	363.00	332.00	381.00	412.00	365.00	339.00	327.00	317.00	311.00	321.00	317.00	309.00	311.00	308.00	318.00	324.00	318.00	311.00	312.00	316.00	331.00	331.00	327.00	311.00	309.00	313.00	310.00	306.00	303.00	307.00	310.00	323.00	333.00	331.00	389.00	384.00	361.00	373.00	393.00	368.00	364.00	359.00	360.00	369.00	371.00	371.00	370.00	361.00	354.00	356.00	355.00	355.00	340.00	329.00	330.00	332.00	345.00	359.00	349.00	347.00	353.00	382.00	399.00	420.00	457.00	507.00	518.00	503.00	415.00	336.00	332.00	323.00	319.00	341.00	461.00	502.00	466.00	337.00	308.00	302.00	300.00	297.00	297.00	302.00	297.00	291.00	296.00	304.00	309.00	317.00	301.00	294.00	278.00	278.00	279.00	279.00	281.00	300.00	308.00	302.00	296.00	287.00	292.00	297.00	310.00	313.00	312.00	306.00	306.00	314.00	315.00	309.00	302.00	297.00	304.00	299.00	304.00	310.00	327.00	444.00	420.00	362.00	366.00	448.00	356.00	322.00	321.00	325.00	335.00	355.00	400.00	476.00	442.00	392.00	387.00	383.00	365.00	299.00	303.00	308.00	314.00	335.00	332.00	319.00	315.00	323.00	343.00	329.00	356.00	390.00	377.00	349.00	374.00	401.00	349.00	424.00	442.00	316.00	308.00	309.00	297.00	307.00	316.00	309.00	315.00	315.00	314.00	309.00	289.00	292.00	291.00	287.00	281.00	279.00	276.00	276.00	278.00	269.00	263.00	261.00	264.00	261.00	267.00	264.00	265.00	269.00	295.00	340.00	376.00	445.00	397.00	284.00	267.00	269.00	263.00	330.00	380.00	319.00	261.00	252.00	248.00	252.00	254.00	251.00	254.00	257.00	260.00	257.00	256.00	283.00	259.00
298.00	297.00	340.00	365.00	339.00	310.00	309.00	317.00	333.00	332.00	322.00	324.00	315.00	322.00	325.00	324.00	326.00	321.00	309.00	299.00	321.00	328.00	320.00	305.00	303.00	308.00	296.00	298.00	299.00	291.00	290.00	289.00	292.00	298.00	315.00	320.00	323.00	328.00	330.00	329.00	321.00	317.00	318.00	335.00	368.00	344.00	323.00	338.00	356.00	373.00	348.00	335.00	313.00	320.00	335.00	335.00	318.00	311.00	315.00	318.00	329.00	329.00	321.00	316.00	328.00	340.00	344.00	341.00	328.00	318.00	318.00	316.00	307.00	309.00	315.00	319.00	320.00	327.00	335.00	335.00	341.00	343.00	350.00	369.00	346.00	338.00	369.00	363.00	367.00	366.00	358.00	357.00	366.00	355.00	351.00	341.00	340.00	334.00	336.00	344.00	341.00	336.00	340.00	343.00	348.00	354.00	370.00	410.00	426.00	438.00	496.00	509.00	430.00	343.00	338.00	326.00	323.00	315.00	332.00	334.00	376.00	459.00	419.00	314.00	308.00	303.00	309.00	320.00	291.00	295.00	303.00	303.00	300.00	305.00	298.00	290.00	288.00	294.00	292.00	283.00	281.00	277.00	279.00	290.00	292.00	285.00	297.00	302.00	301.00	306.00	307.00	300.00	297.00	302.00	308.00	330.00	321.00	313.00	305.00	298.00	303.00	308.00	308.00	327.00	458.00	427.00	338.00	347.00	414.00	335.00	316.00	327.00	363.00	340.00	363.00	349.00	344.00	380.00	382.00	366.00	328.00	311.00	308.00	299.00	313.00	323.00	352.00	325.00	315.00	308.00	306.00	337.00	318.00	335.00	387.00	403.00	412.00	395.00	362.00	374.00	389.00	329.00	302.00	300.00	299.00	292.00	295.00	297.00	300.00	303.00	296.00	312.00	303.00	296.00	287.00	291.00	287.00	280.00	289.00	286.00	282.00	279.00	264.00	263.00	261.00	261.00	263.00	262.00	272.00	274.00	294.00	314.00	283.00	299.00	325.00	385.00	356.00	283.00	271.00	266.00	261.00	261.00	261.00	255.00	248.00	270.00	299.00	270.00	264.00	265.00	264.00	260.00	265.00	256.00	292.00	292.00
298.00	303.00	323.00	372.00	325.00	311.00	333.00	331.00	331.00	327.00	322.00	323.00	318.00	333.00	331.00	336.00	328.00	321.00	308.00	298.00	323.00	324.00	316.00	301.00	304.00	315.00	302.00	308.00	309.00	293.00	291.00	291.00	293.00	301.00	312.00	309.00	317.00	325.00	334.00	330.00	320.00	320.00	334.00	329.00	357.00	336.00	321.00	343.00	349.00	349.00	339.00	326.00	320.00	320.00	341.00	340.00	325.00	314.00	321.00	320.00	326.00	333.00	324.00	316.00	319.00	346.00	348.00	342.00	331.00	325.00	316.00	311.00	308.00	310.00	315.00	324.00	325.00	322.00	330.00	345.00	354.00	339.00	350.00	349.00	336.00	335.00	351.00	350.00	357.00	360.00	361.00	351.00	364.00	352.00	344.00	344.00	351.00	336.00	338.00	349.00	353.00	342.00	342.00	350.00	352.00	354.00	364.00	382.00	421.00	455.00	490.00	510.00	417.00	330.00	321.00	328.00	327.00	318.00	326.00	329.00	342.00	370.00	400.00	314.00	308.00	308.00	321.00	322.00	291.00	301.00	308.00	306.00	299.00	298.00	291.00	288.00	297.00	298.00	294.00	283.00	284.00	278.00	276.00	281.00	285.00	279.00	303.00	306.00	300.00	297.00	304.00	297.00	295.00	304.00	310.00	315.00	317.00	313.00	308.00	297.00	299.00	298.00	305.00	327.00	375.00	388.00	332.00	347.00	406.00	331.00	311.00	340.00	355.00	338.00	355.00	330.00	335.00	335.00	330.00	331.00	325.00	318.00	301.00	295.00	301.00	303.00	324.00	312.00	310.00	304.00	303.00	314.00	312.00	322.00	371.00	397.00	403.00	373.00	371.00	410.00	321.00	310.00	300.00	299.00	307.00	293.00	293.00	300.00	311.00	294.00	303.00	323.00	294.00	301.00	296.00	299.00	294.00	288.00	289.00	283.00	279.00	274.00	268.00	264.00	263.00	263.00	261.00	260.00	258.00	262.00	263.00	309.00	279.00	287.00	294.00	372.00	365.00	280.00	267.00	266.00	259.00	258.00	257.00	258.00	248.00	288.00	365.00	338.00	297.00	270.00	265.00	261.00	262.00	261.00	272.00	272.00
291.00	327.00	317.00	360.00	320.00	311.00	333.00	368.00	337.00	328.00	332.00	322.00	322.00	333.00	330.00	337.00	328.00	319.00	305.00	301.00	323.00	319.00	311.00	297.00	307.00	319.00	307.00	311.00	316.00	297.00	291.00	292.00	293.00	296.00	300.00	296.00	301.00	314.00	328.00	323.00	311.00	321.00	363.00	321.00	346.00	324.00	321.00	344.00	341.00	335.00	328.00	330.00	328.00	320.00	341.00	344.00	329.00	317.00	327.00	329.00	320.00	336.00	331.00	327.00	325.00	345.00	347.00	339.00	326.00	321.00	309.00	313.00	317.00	313.00	312.00	322.00	317.00	322.00	321.00	335.00	351.00	330.00	350.00	346.00	333.00	333.00	341.00	341.00	347.00	354.00	356.00	348.00	356.00	357.00	353.00	356.00	363.00	343.00	341.00	344.00	359.00	354.00	347.00	355.00	359.00	357.00	349.00	371.00	407.00	413.00	477.00	495.00	444.00	362.00	334.00	321.00	323.00	317.00	318.00	332.00	341.00	347.00	334.00	311.00	306.00	313.00	320.00	318.00	294.00	300.00	306.00	305.00	294.00	291.00	291.00	297.00	302.00	300.00	295.00	283.00	283.00	277.00	276.00	275.00	277.00	275.00	311.00	306.00	296.00	301.00	305.00	299.00	292.00	303.00	310.00	303.00	308.00	314.00	312.00	293.00	294.00	296.00	306.00	312.00	305.00	318.00	315.00	358.00	398.00	325.00	312.00	342.00	324.00	350.00	343.00	325.00	330.00	334.00	320.00	310.00	306.00	314.00	297.00	295.00	292.00	298.00	317.00	305.00	301.00	298.00	301.00	307.00	313.00	333.00	389.00	387.00	420.00	390.00	415.00	448.00	327.00	305.00	298.00	296.00	302.00	294.00	289.00	297.00	343.00	289.00	296.00	309.00	299.00	296.00	303.00	303.00	297.00	292.00	291.00	283.00	283.00	281.00	268.00	265.00	267.00	266.00	263.00	260.00	261.00	264.00	264.00	286.00	274.00	284.00	290.00	310.00	343.00	310.00	272.00	263.00	259.00	257.00	254.00	256.00	248.00	270.00	359.00	397.00	344.00	271.00	263.00	262.00	264.00	267.00	274.00	276.00
286.00	329.00	350.00	346.00	310.00	309.00	322.00	364.00	344.00	330.00	335.00	335.00	331.00	318.00	314.00	321.00	314.00	308.00	302.00	304.00	317.00	311.00	303.00	295.00	300.00	321.00	308.00	317.00	321.00	300.00	296.00	292.00	292.00	290.00	298.00	299.00	297.00	304.00	317.00	311.00	304.00	325.00	351.00	313.00	317.00	311.00	319.00	335.00	341.00	332.00	337.00	341.00	333.00	323.00	339.00	347.00	330.00	318.00	332.00	336.00	323.00	342.00	340.00	336.00	331.00	339.00	343.00	338.00	325.00	316.00	315.00	318.00	319.00	316.00	310.00	310.00	311.00	317.00	313.00	312.00	320.00	323.00	337.00	340.00	335.00	333.00	334.00	336.00	341.00	346.00	347.00	340.00	352.00	361.00	359.00	359.00	359.00	357.00	356.00	344.00	355.00	354.00	352.00	359.00	360.00	359.00	343.00	397.00	415.00	427.00	480.00	448.00	396.00	350.00	329.00	313.00	311.00	311.00	319.00	331.00	336.00	335.00	328.00	310.00	310.00	316.00	320.00	318.00	296.00	297.00	306.00	306.00	293.00	291.00	292.00	298.00	300.00	299.00	292.00	286.00	283.00	279.00	278.00	274.00	275.00	275.00	308.00	303.00	291.00	301.00	305.00	298.00	291.00	297.00	303.00	296.00	302.00	317.00	334.00	298.00	294.00	295.00	301.00	304.00	302.00	307.00	310.00	339.00	337.00	312.00	320.00	327.00	312.00	332.00	319.00	328.00	338.00	389.00	374.00	323.00	309.00	299.00	294.00	291.00	290.00	297.00	316.00	310.00	304.00	297.00	305.00	314.00	315.00	378.00	407.00	376.00	408.00	431.00	446.00	424.00	323.00	312.00	294.00	294.00	292.00	289.00	286.00	299.00	296.00	285.00	291.00	303.00	303.00	289.00	292.00	296.00	297.00	297.00	291.00	282.00	284.00	282.00	265.00	268.00	268.00	266.00	263.00	261.00	285.00	270.00	265.00	276.00	272.00	278.00	281.00	293.00	295.00	286.00	274.00	273.00	262.00	260.00	256.00	254.00	248.00	267.00	358.00	398.00	357.00	272.00	264.00	262.00	263.00	267.00	273.00	274.00
285.00	288.00	331.00	300.00	304.00	319.00	375.00	418.00	369.00	352.00	360.00	342.00	336.00	317.00	325.00	327.00	320.00	312.00	305.00	312.00	324.00	329.00	322.00	312.00	309.00	324.00	320.00	323.00	322.00	300.00	295.00	296.00	295.00	292.00	304.00	314.00	321.00	316.00	305.00	311.00	302.00	301.00	311.00	317.00	314.00	316.00	317.00	325.00	328.00	330.00	334.00	346.00	332.00	346.00	352.00	350.00	329.00	325.00	335.00	333.00	345.00	352.00	342.00	334.00	339.00	337.00	329.00	333.00	347.00	341.00	323.00	316.00	310.00	319.00	326.00	322.00	309.00	318.00	323.00	317.00	315.00	317.00	324.00	327.00	326.00	322.00	324.00	327.00	338.00	345.00	343.00	340.00	348.00	356.00	356.00	340.00	342.00	354.00	361.00	358.00	353.00	362.00	349.00	348.00	355.00	352.00	338.00	331.00	328.00	330.00	324.00	326.00	322.00	318.00	327.00	314.00	309.00	304.00	322.00	319.00	316.00	323.00	332.00	316.00	311.00	316.00	323.00	322.00	320.00	321.00	326.00	317.00	299.00	299.00	297.00	291.00	288.00	280.00	278.00	280.00	285.00	281.00	276.00	272.00	273.00	274.00	277.00	278.00	285.00	284.00	287.00	283.00	289.00	294.00	295.00	335.00	336.00	320.00	312.00	299.00	299.00	299.00	297.00	294.00	288.00	290.00	293.00	295.00	322.00	303.00	301.00	312.00	355.00	333.00	308.00	313.00	329.00	329.00	334.00	364.00	400.00	356.00	303.00	303.00	301.00	293.00	287.00	291.00	295.00	295.00	301.00	399.00	386.00	382.00	343.00	383.00	354.00	359.00	367.00	317.00	306.00	305.00	310.00	296.00	288.00	302.00	288.00	286.00	282.00	280.00	280.00	279.00	290.00	299.00	297.00	289.00	278.00	281.00	277.00	274.00	275.00	277.00	281.00	278.00	273.00	270.00	264.00	259.00	260.00	262.00	283.00	277.00	270.00	268.00	279.00	280.00	270.00	267.00	267.00	259.00	293.00	278.00	251.00	249.00	248.00	250.00	275.00	278.00	257.00	259.00	260.00	261.00	261.00	262.00	268.00	269.00
285.00	284.00	319.00	294.00	305.00	329.00	390.00	452.00	444.00	420.00	376.00	349.00	342.00	335.00	331.00	329.00	318.00	306.00	308.00	314.00	336.00	338.00	327.00	318.00	308.00	319.00	307.00	310.00	308.00	295.00	304.00	309.00	308.00	297.00	292.00	308.00	320.00	319.00	307.00	316.00	306.00	303.00	305.00	324.00	319.00	324.00	320.00	337.00	343.00	347.00	347.00	346.00	339.00	353.00	359.00	353.00	330.00	328.00	342.00	342.00	345.00	348.00	336.00	341.00	347.00	344.00	333.00	332.00	339.00	341.00	330.00	321.00	314.00	323.00	328.00	324.00	313.00	321.00	326.00	322.00	318.00	316.00	316.00	321.00	320.00	323.00	329.00	329.00	338.00	348.00	344.00	346.00	354.00	350.00	350.00	343.00	337.00	352.00	359.00	349.00	342.00	360.00	351.00	341.00	352.00	355.00	345.00	334.00	327.00	324.00	319.00	316.00	314.00	315.00	328.00	318.00	310.00	303.00	317.00	309.00	314.00	326.00	332.00	322.00	313.00	317.00	324.00	327.00	325.00	323.00	320.00	316.00	305.00	307.00	303.00	296.00	291.00	283.00	283.00	282.00	288.00	282.00	279.00	274.00	272.00	274.00	283.00	284.00	287.00	283.00	279.00	287.00	295.00	299.00	299.00	308.00	317.00	309.00	311.00	305.00	306.00	305.00	306.00	301.00	288.00	288.00	289.00	294.00	339.00	300.00	298.00	300.00	312.00	309.00	305.00	308.00	366.00	365.00	333.00	341.00	381.00	357.00	340.00	335.00	302.00	291.00	287.00	291.00	292.00	298.00	310.00	386.00	345.00	338.00	333.00	346.00	338.00	370.00	361.00	314.00	319.00	315.00	299.00	291.00	297.00	289.00	282.00	285.00	287.00	286.00	284.00	279.00	273.00	295.00	293.00	288.00	278.00	278.00	280.00	278.00	281.00	280.00	283.00	280.00	275.00	270.00	265.00	259.00	261.00	263.00	265.00	274.00	267.00	269.00	274.00	274.00	269.00	265.00	261.00	260.00	259.00	252.00	245.00	250.00	248.00	250.00	257.00	259.00	260.00	263.00	268.00	270.00	270.00	272.00	265.00	267.00
286.00	286.00	295.00	293.00	304.00	320.00	357.00	397.00	433.00	447.00	416.00	344.00	334.00	330.00	328.00	321.00	311.00	302.00	316.00	316.00	341.00	341.00	330.00	320.00	313.00	311.00	307.00	300.00	301.00	301.00	307.00	313.00	312.00	304.00	294.00	304.00	315.00	323.00	311.00	318.00	306.00	308.00	304.00	326.00	337.00	333.00	328.00	341.00	348.00	352.00	351.00	348.00	347.00	358.00	364.00	348.00	343.00	333.00	337.00	351.00	353.00	340.00	344.00	349.00	351.00	346.00	334.00	335.00	341.00	343.00	329.00	316.00	323.00	330.00	335.00	331.00	317.00	324.00	328.00	328.00	322.00	317.00	317.00	320.00	320.00	324.00	337.00	335.00	345.00	350.00	346.00	349.00	357.00	348.00	340.00	338.00	333.00	351.00	351.00	355.00	342.00	354.00	347.00	337.00	347.00	349.00	349.00	337.00	337.00	321.00	320.00	320.00	315.00	310.00	316.00	319.00	312.00	304.00	310.00	309.00	317.00	322.00	325.00	324.00	316.00	315.00	321.00	328.00	321.00	320.00	318.00	310.00	301.00	303.00	312.00	298.00	291.00	289.00	288.00	288.00	289.00	278.00	280.00	275.00	272.00	273.00	286.00	289.00	290.00	278.00	282.00	291.00	297.00	300.00	298.00	291.00	299.00	300.00	307.00	312.00	311.00	311.00	314.00	307.00	291.00	288.00	287.00	293.00	302.00	294.00	308.00	312.00	327.00	314.00	300.00	310.00	362.00	397.00	337.00	341.00	384.00	385.00	331.00	316.00	301.00	290.00	286.00	291.00	296.00	302.00	329.00	431.00	398.00	374.00	336.00	333.00	334.00	368.00	345.00	321.00	340.00	324.00	295.00	297.00	306.00	295.00	291.00	298.00	295.00	286.00	283.00	279.00	270.00	280.00	285.00	287.00	288.00	287.00	289.00	286.00	283.00	276.00	280.00	278.00	274.00	269.00	263.00	257.00	260.00	260.00	263.00	270.00	263.00	263.00	263.00	259.00	269.00	270.00	266.00	262.00	254.00	251.00	250.00	251.00	249.00	259.00	265.00	266.00	268.00	266.00	274.00	279.00	281.00	282.00	271.00	268.00
287.00	286.00	297.00	303.00	302.00	305.00	311.00	336.00	390.00	438.00	444.00	341.00	326.00	319.00	316.00	312.00	306.00	308.00	319.00	324.00	344.00	341.00	332.00	321.00	312.00	313.00	307.00	303.00	313.00	310.00	305.00	316.00	314.00	306.00	292.00	293.00	295.00	316.00	331.00	318.00	310.00	314.00	307.00	362.00	345.00	341.00	337.00	341.00	352.00	355.00	354.00	343.00	355.00	362.00	367.00	354.00	350.00	348.00	341.00	349.00	353.00	351.00	353.00	353.00	353.00	342.00	337.00	343.00	345.00	343.00	320.00	318.00	326.00	335.00	340.00	337.00	319.00	327.00	331.00	333.00	329.00	320.00	319.00	326.00	322.00	323.00	340.00	343.00	345.00	351.00	351.00	350.00	357.00	357.00	351.00	343.00	339.00	335.00	344.00	348.00	336.00	344.00	338.00	331.00	337.00	338.00	336.00	369.00	343.00	316.00	316.00	317.00	316.00	311.00	309.00	316.00	312.00	305.00	301.00	309.00	317.00	317.00	321.00	321.00	321.00	322.00	325.00	329.00	318.00	315.00	311.00	310.00	304.00	297.00	308.00	296.00	289.00	296.00	294.00	296.00	291.00	281.00	279.00	278.00	273.00	273.00	282.00	288.00	287.00	277.00	287.00	290.00	293.00	295.00	290.00	285.00	289.00	294.00	303.00	309.00	315.00	311.00	307.00	313.00	296.00	288.00	286.00	289.00	292.00	295.00	308.00	357.00	336.00	304.00	301.00	341.00	375.00	401.00	328.00	326.00	380.00	415.00	311.00	299.00	289.00	287.00	287.00	289.00	291.00	297.00	321.00	381.00	379.00	417.00	344.00	332.00	353.00	349.00	332.00	361.00	380.00	323.00	297.00	336.00	328.00	291.00	300.00	302.00	295.00	287.00	281.00	278.00	273.00	268.00	275.00	284.00	287.00	293.00	291.00	286.00	283.00	273.00	266.00	272.00	268.00	263.00	260.00	258.00	259.00	260.00	258.00	264.00	260.00	253.00	256.00	258.00	270.00	271.00	272.00	266.00	256.00	253.00	252.00	249.00	248.00	262.00	267.00	271.00	274.00	276.00	286.00	292.00	291.00	291.00	276.00	270.00
283.00	283.00	300.00	303.00	305.00	315.00	350.00	396.00	417.00	431.00	420.00	345.00	342.00	333.00	326.00	311.00	355.00	358.00	333.00	332.00	346.00	342.00	333.00	319.00	323.00	325.00	322.00	323.00	322.00	313.00	314.00	313.00	309.00	301.00	293.00	292.00	297.00	320.00	404.00	355.00	322.00	320.00	309.00	324.00	323.00	336.00	340.00	334.00	354.00	359.00	355.00	344.00	354.00	356.00	357.00	355.00	333.00	337.00	332.00	342.00	352.00	354.00	357.00	354.00	349.00	351.00	352.00	350.00	344.00	333.00	325.00	319.00	327.00	336.00	326.00	323.00	330.00	335.00	338.00	335.00	328.00	324.00	323.00	335.00	330.00	325.00	329.00	333.00	341.00	349.00	361.00	367.00	362.00	353.00	349.00	346.00	342.00	326.00	326.00	328.00	333.00	342.00	337.00	328.00	320.00	322.00	364.00	327.00	328.00	336.00	325.00	319.00	315.00	311.00	308.00	304.00	301.00	301.00	298.00	302.00	316.00	305.00	299.00	317.00	312.00	317.00	327.00	330.00	329.00	319.00	318.00	313.00	305.00	300.00	296.00	290.00	293.00	319.00	307.00	307.00	304.00	287.00	280.00	279.00	277.00	274.00	272.00	276.00	280.00	275.00	284.00	281.00	277.00	276.00	281.00	291.00	287.00	285.00	288.00	324.00	324.00	311.00	302.00	297.00	299.00	288.00	287.00	289.00	291.00	297.00	348.00	336.00	308.00	293.00	316.00	308.00	301.00	405.00	341.00	306.00	333.00	307.00	336.00	342.00	323.00	298.00	286.00	293.00	308.00	300.00	301.00	356.00	408.00	372.00	325.00	346.00	334.00	368.00	409.00	385.00	305.00	304.00	314.00	346.00	305.00	302.00	307.00	310.00	314.00	297.00	286.00	283.00	273.00	272.00	270.00	267.00	273.00	278.00	276.00	272.00	265.00	262.00	260.00	260.00	260.00	259.00	261.00	263.00	271.00	300.00	261.00	258.00	259.00	257.00	257.00	255.00	256.00	260.00	272.00	258.00	250.00	248.00	248.00	248.00	252.00	256.00	259.00	261.00	276.00	297.00	287.00	283.00	300.00	317.00	282.00	276.00
287.00	283.00	291.00	300.00	304.00	309.00	336.00	416.00	431.00	437.00	432.00	355.00	345.00	337.00	326.00	318.00	344.00	367.00	353.00	338.00	337.00	339.00	330.00	314.00	332.00	334.00	329.00	322.00	318.00	301.00	304.00	301.00	297.00	294.00	297.00	292.00	293.00	297.00	405.00	374.00	338.00	321.00	311.00	312.00	316.00	327.00	336.00	335.00	351.00	357.00	355.00	351.00	352.00	351.00	345.00	348.00	333.00	328.00	327.00	338.00	347.00	341.00	353.00	348.00	341.00	354.00	355.00	350.00	340.00	337.00	329.00	324.00	335.00	340.00	327.00	317.00	333.00	339.00	341.00	337.00	328.00	329.00	327.00	353.00	335.00	326.00	339.00	342.00	351.00	351.00	365.00	385.00	369.00	362.00	364.00	360.00	353.00	331.00	324.00	326.00	332.00	326.00	330.00	324.00	318.00	319.00	371.00	332.00	323.00	333.00	333.00	322.00	315.00	309.00	307.00	307.00	306.00	301.00	295.00	297.00	302.00	297.00	296.00	306.00	310.00	316.00	325.00	339.00	342.00	339.00	322.00	315.00	303.00	303.00	301.00	297.00	295.00	347.00	359.00	308.00	309.00	288.00	281.00	278.00	275.00	273.00	272.00	275.00	278.00	272.00	279.00	275.00	278.00	281.00	288.00	295.00	292.00	290.00	290.00	310.00	317.00	313.00	301.00	293.00	288.00	285.00	285.00	287.00	286.00	292.00	301.00	312.00	326.00	293.00	298.00	297.00	296.00	392.00	383.00	314.00	302.00	306.00	299.00	316.00	294.00	291.00	291.00	313.00	327.00	309.00	320.00	427.00	378.00	333.00	317.00	325.00	353.00	385.00	365.00	329.00	307.00	306.00	381.00	332.00	305.00	305.00	307.00	308.00	312.00	293.00	287.00	283.00	276.00	275.00	270.00	265.00	265.00	268.00	265.00	264.00	264.00	266.00	260.00	262.00	262.00	260.00	264.00	269.00	275.00	318.00	313.00	258.00	259.00	256.00	253.00	251.00	250.00	248.00	250.00	252.00	248.00	248.00	248.00	250.00	253.00	258.00	256.00	256.00	257.00	268.00	270.00	270.00	283.00	329.00	288.00	291.00
286.00	284.00	292.00	297.00	299.00	298.00	311.00	421.00	443.00	423.00	416.00	377.00	330.00	340.00	325.00	329.00	323.00	341.00	360.00	331.00	320.00	324.00	318.00	318.00	337.00	337.00	325.00	312.00	306.00	308.00	306.00	304.00	302.00	293.00	304.00	294.00	293.00	294.00	402.00	393.00	342.00	318.00	315.00	314.00	322.00	326.00	338.00	338.00	350.00	359.00	358.00	361.00	351.00	345.00	335.00	343.00	332.00	324.00	323.00	335.00	335.00	333.00	344.00	344.00	332.00	352.00	350.00	346.00	346.00	338.00	334.00	329.00	339.00	338.00	324.00	320.00	334.00	339.00	343.00	336.00	330.00	333.00	332.00	386.00	346.00	330.00	348.00	350.00	364.00	368.00	365.00	390.00	366.00	360.00	382.00	363.00	357.00	336.00	326.00	319.00	316.00	317.00	318.00	316.00	315.00	313.00	337.00	328.00	324.00	320.00	325.00	316.00	310.00	305.00	307.00	320.00	317.00	308.00	297.00	293.00	295.00	299.00	294.00	299.00	317.00	326.00	349.00	372.00	356.00	348.00	330.00	321.00	311.00	311.00	305.00	300.00	302.00	321.00	345.00	320.00	304.00	287.00	281.00	276.00	275.00	271.00	273.00	274.00	277.00	271.00	272.00	276.00	282.00	289.00	296.00	296.00	292.00	296.00	300.00	302.00	315.00	314.00	307.00	300.00	295.00	291.00	286.00	284.00	285.00	282.00	278.00	291.00	328.00	290.00	288.00	289.00	295.00	392.00	333.00	297.00	304.00	318.00	291.00	292.00	287.00	283.00	301.00	297.00	295.00	302.00	341.00	379.00	392.00	342.00	311.00	320.00	378.00	364.00	336.00	325.00	308.00	309.00	348.00	314.00	296.00	298.00	297.00	294.00	305.00	300.00	292.00	281.00	282.00	278.00	270.00	270.00	269.00	266.00	263.00	266.00	267.00	265.00	266.00	268.00	265.00	265.00	265.00	273.00	289.00	367.00	367.00	265.00	264.00	251.00	250.00	250.00	249.00	249.00	248.00	248.00	249.00	250.00	252.00	254.00	254.00	254.00	257.00	257.00	258.00	259.00	263.00	270.00	279.00	298.00	383.00	411.00
284.00	284.00	291.00	292.00	294.00	292.00	296.00	375.00	433.00	406.00	374.00	382.00	337.00	343.00	334.00	338.00	328.00	332.00	340.00	333.00	328.00	320.00	314.00	321.00	341.00	334.00	323.00	315.00	307.00	317.00	317.00	313.00	309.00	299.00	308.00	301.00	295.00	292.00	402.00	391.00	331.00	317.00	321.00	320.00	327.00	335.00	343.00	348.00	362.00	367.00	370.00	377.00	344.00	337.00	327.00	343.00	336.00	326.00	320.00	324.00	326.00	328.00	334.00	340.00	327.00	342.00	338.00	342.00	345.00	342.00	331.00	334.00	340.00	332.00	331.00	324.00	329.00	336.00	343.00	335.00	336.00	338.00	341.00	364.00	354.00	332.00	347.00	354.00	385.00	404.00	392.00	398.00	355.00	352.00	348.00	343.00	341.00	340.00	333.00	324.00	316.00	315.00	310.00	313.00	311.00	317.00	363.00	328.00	318.00	319.00	314.00	309.00	316.00	310.00	323.00	366.00	353.00	315.00	293.00	289.00	287.00	294.00	291.00	304.00	315.00	343.00	335.00	321.00	338.00	321.00	331.00	330.00	324.00	315.00	305.00	304.00	309.00	315.00	318.00	306.00	295.00	286.00	281.00	279.00	277.00	275.00	271.00	272.00	272.00	272.00	272.00	276.00	285.00	292.00	298.00	293.00	294.00	302.00	305.00	300.00	311.00	322.00	320.00	307.00	307.00	298.00	292.00	289.00	286.00	278.00	279.00	284.00	308.00	293.00	283.00	284.00	298.00	318.00	293.00	287.00	317.00	359.00	294.00	286.00	285.00	281.00	284.00	287.00	288.00	303.00	334.00	346.00	330.00	319.00	305.00	321.00	332.00	333.00	325.00	315.00	308.00	317.00	337.00	303.00	296.00	295.00	292.00	287.00	293.00	289.00	287.00	283.00	285.00	277.00	276.00	274.00	271.00	269.00	262.00	266.00	264.00	264.00	275.00	275.00	271.00	266.00	265.00	286.00	299.00	354.00	367.00	270.00	263.00	249.00	251.00	248.00	248.00	248.00	250.00	252.00	253.00	255.00	253.00	254.00	258.00	258.00	258.00	260.00	260.00	258.00	258.00	263.00	270.00	285.00	470.00	483.00
290.00	291.00	285.00	292.00	300.00	307.00	307.00	299.00	315.00	354.00	333.00	316.00	332.00	348.00	350.00	349.00	339.00	336.00	340.00	338.00	347.00	334.00	329.00	335.00	333.00	338.00	331.00	323.00	324.00	328.00	324.00	311.00	303.00	298.00	313.00	306.00	297.00	294.00	314.00	346.00	385.00	356.00	331.00	363.00	356.00	332.00	336.00	341.00	363.00	380.00	374.00	359.00	342.00	345.00	338.00	316.00	317.00	321.00	324.00	316.00	316.00	336.00	325.00	319.00	327.00	330.00	331.00	338.00	343.00	341.00	345.00	348.00	346.00	339.00	327.00	325.00	346.00	345.00	348.00	354.00	350.00	349.00	346.00	345.00	338.00	334.00	338.00	345.00	378.00	395.00	430.00	438.00	395.00	353.00	347.00	357.00	351.00	334.00	330.00	332.00	331.00	320.00	311.00	309.00	308.00	310.00	332.00	331.00	327.00	315.00	310.00	307.00	309.00	311.00	315.00	358.00	332.00	313.00	292.00	291.00	291.00	294.00	293.00	291.00	295.00	292.00	285.00	286.00	311.00	305.00	298.00	303.00	295.00	298.00	293.00	301.00	312.00	308.00	304.00	297.00	291.00	284.00	282.00	279.00	276.00	274.00	278.00	276.00	272.00	272.00	273.00	282.00	286.00	289.00	287.00	304.00	314.00	314.00	311.00	314.00	320.00	326.00	314.00	305.00	303.00	299.00	296.00	293.00	284.00	282.00	277.00	275.00	281.00	282.00	284.00	330.00	382.00	383.00	307.00	279.00	294.00	307.00	282.00	280.00	283.00	279.00	293.00	288.00	287.00	288.00	293.00	313.00	299.00	298.00	339.00	354.00	337.00	326.00	319.00	318.00	313.00	327.00	369.00	344.00	308.00	309.00	302.00	295.00	287.00	289.00	284.00	277.00	279.00	283.00	281.00	278.00	275.00	273.00	269.00	266.00	264.00	263.00	284.00	286.00	279.00	274.00	270.00	272.00	279.00	290.00	367.00	265.00	256.00	249.00	248.00	248.00	255.00	254.00	255.00	257.00	268.00	260.00	275.00	275.00	264.00	264.00	267.00	269.00	266.00	261.00	261.00	259.00	258.00	268.00	357.00	300.00
295.00	292.00	285.00	286.00	294.00	306.00	313.00	299.00	296.00	316.00	325.00	310.00	331.00	337.00	346.00	347.00	340.00	331.00	329.00	342.00	350.00	335.00	338.00	344.00	333.00	339.00	327.00	320.00	319.00	321.00	318.00	301.00	302.00	309.00	312.00	305.00	296.00	294.00	345.00	376.00	396.00	338.00	314.00	407.00	395.00	360.00	338.00	312.00	331.00	365.00	376.00	348.00	361.00	350.00	333.00	322.00	313.00	312.00	319.00	316.00	313.00	330.00	321.00	319.00	330.00	323.00	323.00	328.00	330.00	331.00	349.00	353.00	351.00	344.00	330.00	329.00	349.00	346.00	354.00	358.00	356.00	352.00	348.00	341.00	335.00	336.00	346.00	349.00	362.00	408.00	451.00	452.00	377.00	357.00	357.00	356.00	348.00	349.00	342.00	340.00	333.00	317.00	312.00	307.00	304.00	309.00	312.00	328.00	327.00	309.00	310.00	306.00	302.00	302.00	305.00	309.00	314.00	305.00	289.00	289.00	294.00	297.00	295.00	295.00	294.00	288.00	285.00	290.00	309.00	304.00	296.00	294.00	295.00	291.00	290.00	292.00	304.00	298.00	295.00	290.00	286.00	281.00	277.00	277.00	279.00	280.00	280.00	274.00	271.00	269.00	272.00	287.00	287.00	282.00	281.00	312.00	320.00	309.00	309.00	315.00	317.00	314.00	305.00	301.00	294.00	293.00	289.00	288.00	285.00	283.00	276.00	275.00	279.00	279.00	280.00	310.00	316.00	314.00	295.00	278.00	279.00	288.00	279.00	281.00	282.00	281.00	295.00	292.00	293.00	292.00	291.00	293.00	296.00	300.00	310.00	352.00	328.00	326.00	325.00	319.00	313.00	314.00	314.00	326.00	298.00	300.00	296.00	290.00	290.00	294.00	289.00	283.00	275.00	274.00	274.00	272.00	270.00	271.00	266.00	264.00	263.00	264.00	288.00	292.00	287.00	284.00	280.00	272.00	275.00	285.00	312.00	260.00	256.00	249.00	248.00	255.00	262.00	260.00	259.00	261.00	271.00	264.00	270.00	278.00	271.00	269.00	270.00	273.00	269.00	263.00	261.00	260.00	261.00	259.00	287.00	281.00
