7.00	5.00	5.00	5.00	5.00	5.00	5.00	5.00	5.00	5.00	6.00	8.00	5.00	5.00	5.00	5.00	5.00	5.00	5.00	5.00	5.00	5.00	5.00	5.00	5.00	5.00	5.00	5.00	5.00	5.00	5.00	5.00	5.00	5.00	5.00	5.00	5.00	5.00	5.00	5.00	5.00	5.00	5.00	5.00	5.00	5.00	5.00	5.00	5.00	5.00	5.00	5.00	5.00	5.00	5.00	5.00	5.00	5.00	5.00	5.00	5.00	5.00	5.00	5.00	5.00	5.00	5.00	5.00	5.00	5.00	5.00	5.00	5.00	5.00	5.00	5.00	5.00	5.00	5.00	5.00	5.00	5.00	5.00	5.00	5.00	5.00	5.00	5.00	5.00	5.00	5.00	5.00	5.00	5.00	5.00	5.00	5.00	5.00	5.00	5.00	5.00	5.00	5.00	5.00	5.00	5.00	5.00	5.00	5.00	5.00	5.00	5.00	5.00	5.00	5.00	5.00	5.00	5.00	5.00	5.00	5.00	5.00	5.00	5.00	5.00	5.00	5.00	5.00	5.00	5.00	5.00	5.00	5.00	5.00	5.00	5.00	5.00	5.00	5.00	5.00	5.00	5.00	5.00	5.00	5.00	5.00	5.00	5.00	5.00	5.00	5.00	5.00	5.00	5.00	5.00	5.00	5.00	5.00	5.00	5.00	5.00	5.00	5.00	5.00	5.00	5.00	5.00	5.00	5.00	5.00	5.00	5.00	5.00	5.00	5.00	5.00	5.00	5.00	5.00	5.00	5.00	5.00	5.00	5.00	5.00	5.00	5.00	5.00	5.00	3.00	3.00	4.00	5.00	5.00	5.00	5.00	5.00	5.00	4.00	3.00	3.00	3.00	3.00	3.00	8.00	13.00	12.00	16.00	25.00	24.00	26.00	31.00	36.00	41.00	49.00	57.00	67.00	73.00	83.00	89.00	103.00	108.00	115.00	136.00	146.00	158.00	161.00	168.00	173.00	171.00	165.00	141.00	113.00	104.00	99.00	97.00	116.00	125.00	134.00	145.00	158.00	199.00	207.00	207.00	201.00	164.00	146.00	140.00	135.00	126.00	103.00	94.00	78.00	73.00	67.00	63.00
7.00	5.00	5.00	5.00	5.00	5.00	5.00	5.00	5.00	5.00	6.00	8.00	5.00	5.00	5.00	5.00	5.00	5.00	5.00	5.00	5.00	5.00	5.00	5.00	5.00	5.00	5.00	5.00	5.00	5.00	5.00	5.00	5.00	5.00	5.00	5.00	5.00	5.00	5.00	5.00	5.00	5.00	5.00	5.00	5.00	5.00	5.00	5.00	5.00	5.00	5.00	5.00	5.00	5.00	5.00	5.00	5.00	5.00	5.00	5.00	5.00	5.00	5.00	5.00	5.00	5.00	5.00	5.00	5.00	5.00	5.00	5.00	5.00	5.00	5.00	5.00	5.00	5.00	5.00	5.00	5.00	5.00	5.00	5.00	5.00	5.00	5.00	5.00	5.00	5.00	5.00	5.00	5.00	5.00	5.00	5.00	5.00	5.00	5.00	5.00	5.00	5.00	5.00	5.00	5.00	5.00	5.00	5.00	5.00	5.00	5.00	5.00	5.00	5.00	5.00	5.00	5.00	5.00	5.00	5.00	5.00	5.00	5.00	5.00	5.00	5.00	5.00	5.00	5.00	5.00	5.00	5.00	5.00	5.00	5.00	5.00	5.00	5.00	5.00	5.00	5.00	5.00	5.00	5.00	5.00	5.00	5.00	5.00	5.00	5.00	5.00	5.00	5.00	5.00	5.00	5.00	5.00	5.00	5.00	5.00	5.00	5.00	5.00	5.00	5.00	5.00	5.00	5.00	5.00	5.00	5.00	5.00	5.00	5.00	5.00	5.00	5.00	5.00	5.00	5.00	5.00	5.00	5.00	5.00	5.00	5.00	5.00	5.00	5.00	3.00	3.00	4.00	5.00	5.00	5.00	5.00	5.00	5.00	4.00	3.00	3.00	3.00	3.00	3.00	8.00	13.00	12.00	16.00	25.00	24.00	26.00	31.00	36.00	41.00	49.00	57.00	67.00	73.00	83.00	89.00	103.00	108.00	115.00	136.00	146.00	158.00	161.00	168.00	173.00	171.00	165.00	141.00	113.00	104.00	99.00	97.00	116.00	125.00	134.00	145.00	158.00	199.00	207.00	207.00	201.00	164.00	146.00	140.00	135.00	126.00	103.00	94.00	78.00	73.00	67.00	63.00
5.00	5.00	5.00	5.00	5.00	5.00	5.00	11.00	27.00	22.00	15.00	10.00	8.00	9.00	12.00	18.00	19.00	5.00	5.00	5.00	5.00	5.00	5.00	5.00	5.00	5.00	14.00	17.00	12.00	9.00	6.00	5.00	5.00	5.00	5.00	5.00	5.00	5.00	5.00	5.00	5.00	5.00	5.00	5.00	5.00	5.00	5.00	5.00	5.00	5.00	5.00	5.00	5.00	5.00	5.00	5.00	5.00	5.00	5.00	5.00	5.00	5.00	5.00	5.00	5.00	5.00	5.00	5.00	5.00	5.00	5.00	5.00	5.00	5.00	5.00	5.00	5.00	5.00	5.00	5.00	5.00	5.00	5.00	5.00	5.00	5.00	5.00	5.00	5.00	5.00	5.00	5.00	5.00	5.00	5.00	5.00	5.00	5.00	5.00	5.00	5.00	5.00	5.00	5.00	5.00	5.00	5.00	5.00	5.00	5.00	5.00	5.00	5.00	5.00	5.00	5.00	5.00	5.00	5.00	5.00	5.00	5.00	5.00	5.00	5.00	5.00	5.00	5.00	5.00	5.00	5.00	5.00	5.00	5.00	5.00	5.00	5.00	5.00	5.00	5.00	5.00	5.00	5.00	5.00	5.00	5.00	5.00	5.00	5.00	5.00	5.00	5.00	5.00	5.00	5.00	5.00	5.00	5.00	5.00	5.00	5.00	5.00	5.00	5.00	5.00	5.00	5.00	5.00	5.00	5.00	5.00	5.00	5.00	5.00	5.00	5.00	5.00	5.00	5.00	5.00	5.00	5.00	5.00	5.00	5.00	5.00	5.00	5.00	4.00	3.00	3.00	5.00	5.00	5.00	5.00	5.00	5.00	5.00	3.00	3.00	3.00	3.00	3.00	5.00	17.00	20.00	17.00	14.00	14.00	23.00	34.00	41.00	49.00	54.00	64.00	70.00	74.00	79.00	86.00	88.00	93.00	97.00	105.00	119.00	129.00	142.00	148.00	157.00	166.00	173.00	174.00	151.00	130.00	132.00	127.00	116.00	132.00	139.00	147.00	161.00	176.00	220.00	227.00	231.00	230.00	212.00	199.00	189.00	182.00	171.00	118.00	98.00	77.00	72.00	65.00	64.00
5.00	5.00	5.00	5.00	5.00	5.00	5.00	11.00	27.00	22.00	15.00	10.00	8.00	9.00	12.00	18.00	19.00	5.00	5.00	5.00	5.00	5.00	5.00	5.00	5.00	5.00	14.00	17.00	12.00	9.00	6.00	5.00	5.00	5.00	5.00	5.00	5.00	5.00	5.00	5.00	5.00	5.00	5.00	5.00	5.00	5.00	5.00	5.00	5.00	5.00	5.00	5.00	5.00	5.00	5.00	5.00	5.00	5.00	5.00	5.00	5.00	5.00	5.00	5.00	5.00	5.00	5.00	5.00	5.00	5.00	5.00	5.00	5.00	5.00	5.00	5.00	5.00	5.00	5.00	5.00	5.00	5.00	5.00	5.00	5.00	5.00	5.00	5.00	5.00	5.00	5.00	5.00	5.00	5.00	5.00	5.00	5.00	5.00	5.00	5.00	5.00	5.00	5.00	5.00	5.00	5.00	5.00	5.00	5.00	5.00	5.00	5.00	5.00	5.00	5.00	5.00	5.00	5.00	5.00	5.00	5.00	5.00	5.00	5.00	5.00	5.00	5.00	5.00	5.00	5.00	5.00	5.00	5.00	5.00	5.00	5.00	5.00	5.00	5.00	5.00	5.00	5.00	5.00	5.00	5.00	5.00	5.00	5.00	5.00	5.00	5.00	5.00	5.00	5.00	5.00	5.00	5.00	5.00	5.00	5.00	5.00	5.00	5.00	5.00	5.00	5.00	5.00	5.00	5.00	5.00	5.00	5.00	5.00	5.00	5.00	5.00	5.00	5.00	5.00	5.00	5.00	5.00	5.00	5.00	5.00	5.00	5.00	5.00	4.00	3.00	3.00	5.00	5.00	5.00	5.00	5.00	5.00	5.00	3.00	3.00	3.00	3.00	3.00	5.00	17.00	20.00	17.00	14.00	14.00	23.00	34.00	41.00	49.00	54.00	64.00	70.00	74.00	79.00	86.00	88.00	93.00	97.00	105.00	119.00	129.00	142.00	148.00	157.00	166.00	173.00	174.00	151.00	130.00	132.00	127.00	116.00	132.00	139.00	147.00	161.00	176.00	220.00	227.00	231.00	230.00	212.00	199.00	189.00	182.00	171.00	118.00	98.00	77.00	72.00	65.00	64.00
5.00	5.00	5.00	5.00	5.00	5.00	5.00	11.00	27.00	22.00	15.00	10.00	8.00	9.00	12.00	18.00	19.00	5.00	5.00	5.00	5.00	5.00	5.00	5.00	5.00	5.00	14.00	17.00	12.00	9.00	6.00	5.00	5.00	5.00	5.00	5.00	5.00	5.00	5.00	5.00	5.00	5.00	5.00	5.00	5.00	5.00	5.00	5.00	5.00	5.00	5.00	5.00	5.00	5.00	5.00	5.00	5.00	5.00	5.00	5.00	5.00	5.00	5.00	5.00	5.00	5.00	5.00	5.00	5.00	5.00	5.00	5.00	5.00	5.00	5.00	5.00	5.00	5.00	5.00	5.00	5.00	5.00	5.00	5.00	5.00	5.00	5.00	5.00	5.00	5.00	5.00	5.00	5.00	5.00	5.00	5.00	5.00	5.00	5.00	5.00	5.00	5.00	5.00	5.00	5.00	5.00	5.00	5.00	5.00	5.00	5.00	5.00	5.00	5.00	5.00	5.00	5.00	5.00	5.00	5.00	5.00	5.00	5.00	5.00	5.00	5.00	5.00	5.00	5.00	5.00	5.00	5.00	5.00	5.00	5.00	5.00	5.00	5.00	5.00	5.00	5.00	5.00	5.00	5.00	5.00	5.00	5.00	5.00	5.00	5.00	5.00	5.00	5.00	5.00	5.00	5.00	5.00	5.00	5.00	5.00	5.00	5.00	5.00	5.00	5.00	5.00	5.00	5.00	5.00	5.00	5.00	5.00	5.00	5.00	5.00	5.00	5.00	5.00	5.00	5.00	5.00	5.00	5.00	5.00	5.00	5.00	5.00	5.00	4.00	3.00	3.00	5.00	5.00	5.00	5.00	5.00	5.00	5.00	3.00	3.00	3.00	3.00	3.00	5.00	17.00	20.00	17.00	14.00	14.00	23.00	34.00	41.00	49.00	54.00	64.00	70.00	74.00	79.00	86.00	88.00	93.00	97.00	105.00	119.00	129.00	142.00	148.00	157.00	166.00	173.00	174.00	151.00	130.00	132.00	127.00	116.00	132.00	139.00	147.00	161.00	176.00	220.00	227.00	231.00	230.00	212.00	199.00	189.00	182.00	171.00	118.00	98.00	77.00	72.00	65.00	64.00
5.00	5.00	5.00	5.00	5.00	5.00	5.00	6.00	33.00	34.00	26.00	20.00	24.00	26.00	28.00	28.00	20.00	5.00	5.00	5.00	5.00	5.00	5.00	5.00	5.00	8.00	26.00	33.00	35.00	35.00	29.00	6.00	5.00	5.00	5.00	5.00	5.00	5.00	5.00	5.00	5.00	5.00	5.00	5.00	5.00	5.00	5.00	5.00	5.00	5.00	5.00	5.00	5.00	5.00	5.00	5.00	5.00	5.00	5.00	5.00	5.00	5.00	5.00	5.00	5.00	5.00	5.00	5.00	5.00	5.00	5.00	5.00	5.00	5.00	5.00	5.00	5.00	5.00	5.00	5.00	5.00	5.00	5.00	5.00	5.00	5.00	5.00	5.00	5.00	5.00	5.00	5.00	5.00	5.00	5.00	5.00	5.00	5.00	5.00	5.00	5.00	5.00	5.00	5.00	5.00	5.00	5.00	5.00	5.00	5.00	5.00	5.00	5.00	5.00	5.00	5.00	5.00	5.00	5.00	5.00	5.00	5.00	5.00	5.00	5.00	5.00	5.00	5.00	5.00	5.00	5.00	5.00	5.00	5.00	5.00	5.00	5.00	5.00	5.00	5.00	5.00	5.00	5.00	5.00	5.00	5.00	5.00	5.00	5.00	5.00	5.00	5.00	5.00	5.00	5.00	5.00	5.00	5.00	5.00	5.00	5.00	5.00	5.00	5.00	5.00	5.00	5.00	5.00	5.00	5.00	5.00	5.00	5.00	5.00	5.00	5.00	5.00	5.00	5.00	5.00	5.00	5.00	5.00	5.00	5.00	5.00	5.00	5.00	5.00	3.00	4.00	5.00	5.00	5.00	5.00	5.00	5.00	3.00	3.00	3.00	3.00	5.00	7.00	10.00	10.00	11.00	13.00	16.00	19.00	34.00	44.00	54.00	61.00	66.00	74.00	76.00	77.00	76.00	75.00	72.00	77.00	82.00	87.00	101.00	107.00	117.00	121.00	128.00	137.00	152.00	168.00	186.00	184.00	178.00	166.00	156.00	152.00	161.00	174.00	185.00	195.00	204.00	203.00	202.00	202.00	198.00	193.00	182.00	167.00	149.00	111.00	97.00	83.00	77.00	66.00	60.00
5.00	5.00	5.00	5.00	5.00	5.00	5.00	6.00	33.00	34.00	26.00	20.00	24.00	26.00	28.00	28.00	20.00	5.00	5.00	5.00	5.00	5.00	5.00	5.00	5.00	8.00	26.00	33.00	35.00	35.00	29.00	6.00	5.00	5.00	5.00	5.00	5.00	5.00	5.00	5.00	5.00	5.00	5.00	5.00	5.00	5.00	5.00	5.00	5.00	5.00	5.00	5.00	5.00	5.00	5.00	5.00	5.00	5.00	5.00	5.00	5.00	5.00	5.00	5.00	5.00	5.00	5.00	5.00	5.00	5.00	5.00	5.00	5.00	5.00	5.00	5.00	5.00	5.00	5.00	5.00	5.00	5.00	5.00	5.00	5.00	5.00	5.00	5.00	5.00	5.00	5.00	5.00	5.00	5.00	5.00	5.00	5.00	5.00	5.00	5.00	5.00	5.00	5.00	5.00	5.00	5.00	5.00	5.00	5.00	5.00	5.00	5.00	5.00	5.00	5.00	5.00	5.00	5.00	5.00	5.00	5.00	5.00	5.00	5.00	5.00	5.00	5.00	5.00	5.00	5.00	5.00	5.00	5.00	5.00	5.00	5.00	5.00	5.00	5.00	5.00	5.00	5.00	5.00	5.00	5.00	5.00	5.00	5.00	5.00	5.00	5.00	5.00	5.00	5.00	5.00	5.00	5.00	5.00	5.00	5.00	5.00	5.00	5.00	5.00	5.00	5.00	5.00	5.00	5.00	5.00	5.00	5.00	5.00	5.00	5.00	5.00	5.00	5.00	5.00	5.00	5.00	5.00	5.00	5.00	5.00	5.00	5.00	5.00	5.00	3.00	4.00	5.00	5.00	5.00	5.00	5.00	5.00	3.00	3.00	3.00	3.00	5.00	7.00	10.00	10.00	11.00	13.00	16.00	19.00	34.00	44.00	54.00	61.00	66.00	74.00	76.00	77.00	76.00	75.00	72.00	77.00	82.00	87.00	101.00	107.00	117.00	121.00	128.00	137.00	152.00	168.00	186.00	184.00	178.00	166.00	156.00	152.00	161.00	174.00	185.00	195.00	204.00	203.00	202.00	202.00	198.00	193.00	182.00	167.00	149.00	111.00	97.00	83.00	77.00	66.00	60.00
5.00	5.00	5.00	5.00	5.00	5.00	5.00	5.00	34.00	39.00	40.00	38.00	37.00	36.00	36.00	36.00	34.00	8.00	5.00	5.00	5.00	10.00	14.00	19.00	27.00	33.00	38.00	38.00	38.00	38.00	35.00	25.00	21.00	16.00	7.00	5.00	5.00	5.00	5.00	5.00	5.00	5.00	5.00	5.00	5.00	5.00	5.00	5.00	5.00	5.00	8.00	15.00	5.00	5.00	5.00	5.00	5.00	5.00	5.00	5.00	5.00	5.00	5.00	5.00	5.00	5.00	5.00	5.00	5.00	5.00	5.00	5.00	5.00	5.00	5.00	5.00	5.00	5.00	5.00	5.00	5.00	5.00	5.00	5.00	5.00	5.00	5.00	5.00	5.00	5.00	5.00	5.00	5.00	5.00	5.00	5.00	5.00	5.00	5.00	5.00	5.00	5.00	5.00	5.00	5.00	5.00	5.00	5.00	5.00	5.00	5.00	5.00	5.00	5.00	5.00	5.00	5.00	5.00	5.00	5.00	5.00	5.00	5.00	5.00	5.00	5.00	5.00	5.00	5.00	5.00	5.00	5.00	5.00	5.00	5.00	5.00	5.00	5.00	5.00	5.00	5.00	5.00	5.00	5.00	5.00	5.00	5.00	5.00	5.00	5.00	5.00	5.00	5.00	5.00	5.00	5.00	5.00	5.00	5.00	5.00	5.00	5.00	5.00	5.00	5.00	5.00	5.00	5.00	5.00	5.00	5.00	5.00	5.00	5.00	5.00	5.00	5.00	5.00	5.00	5.00	5.00	5.00	5.00	5.00	5.00	5.00	5.00	5.00	5.00	3.00	3.00	4.00	5.00	5.00	5.00	5.00	3.00	3.00	3.00	3.00	7.00	10.00	10.00	10.00	11.00	10.00	14.00	16.00	15.00	19.00	20.00	21.00	22.00	26.00	45.00	51.00	52.00	51.00	57.00	60.00	68.00	72.00	75.00	79.00	82.00	91.00	93.00	103.00	115.00	129.00	147.00	185.00	211.00	217.00	218.00	212.00	193.00	186.00	182.00	177.00	171.00	152.00	147.00	143.00	142.00	140.00	139.00	135.00	127.00	118.00	95.00	86.00	74.00	68.00	63.00	59.00
5.00	5.00	5.00	5.00	5.00	5.00	5.00	5.00	34.00	39.00	40.00	38.00	37.00	36.00	36.00	36.00	34.00	8.00	5.00	5.00	5.00	10.00	14.00	19.00	27.00	33.00	38.00	38.00	38.00	38.00	35.00	25.00	21.00	16.00	7.00	5.00	5.00	5.00	5.00	5.00	5.00	5.00	5.00	5.00	5.00	5.00	5.00	5.00	5.00	5.00	8.00	15.00	5.00	5.00	5.00	5.00	5.00	5.00	5.00	5.00	5.00	5.00	5.00	5.00	5.00	5.00	5.00	5.00	5.00	5.00	5.00	5.00	5.00	5.00	5.00	5.00	5.00	5.00	5.00	5.00	5.00	5.00	5.00	5.00	5.00	5.00	5.00	5.00	5.00	5.00	5.00	5.00	5.00	5.00	5.00	5.00	5.00	5.00	5.00	5.00	5.00	5.00	5.00	5.00	5.00	5.00	5.00	5.00	5.00	5.00	5.00	5.00	5.00	5.00	5.00	5.00	5.00	5.00	5.00	5.00	5.00	5.00	5.00	5.00	5.00	5.00	5.00	5.00	5.00	5.00	5.00	5.00	5.00	5.00	5.00	5.00	5.00	5.00	5.00	5.00	5.00	5.00	5.00	5.00	5.00	5.00	5.00	5.00	5.00	5.00	5.00	5.00	5.00	5.00	5.00	5.00	5.00	5.00	5.00	5.00	5.00	5.00	5.00	5.00	5.00	5.00	5.00	5.00	5.00	5.00	5.00	5.00	5.00	5.00	5.00	5.00	5.00	5.00	5.00	5.00	5.00	5.00	5.00	5.00	5.00	5.00	5.00	5.00	5.00	3.00	3.00	4.00	5.00	5.00	5.00	5.00	3.00	3.00	3.00	3.00	7.00	10.00	10.00	10.00	11.00	10.00	14.00	16.00	15.00	19.00	20.00	21.00	22.00	26.00	45.00	51.00	52.00	51.00	57.00	60.00	68.00	72.00	75.00	79.00	82.00	91.00	93.00	103.00	115.00	129.00	147.00	185.00	211.00	217.00	218.00	212.00	193.00	186.00	182.00	177.00	171.00	152.00	147.00	143.00	142.00	140.00	139.00	135.00	127.00	118.00	95.00	86.00	74.00	68.00	63.00	59.00
5.00	5.00	5.00	5.00	5.00	5.00	5.00	5.00	42.00	46.00	46.00	46.00	41.00	40.00	38.00	36.00	36.00	35.00	34.00	34.00	34.00	36.00	37.00	36.00	37.00	36.00	34.00	31.00	29.00	27.00	26.00	29.00	29.00	29.00	23.00	5.00	5.00	5.00	5.00	5.00	5.00	5.00	12.00	15.00	5.00	5.00	5.00	5.00	5.00	5.00	5.00	5.00	5.00	5.00	5.00	5.00	5.00	5.00	5.00	5.00	5.00	5.00	5.00	5.00	5.00	5.00	5.00	5.00	5.00	5.00	5.00	5.00	5.00	5.00	5.00	5.00	5.00	5.00	5.00	5.00	5.00	5.00	5.00	5.00	5.00	5.00	5.00	5.00	5.00	5.00	5.00	5.00	5.00	5.00	5.00	5.00	5.00	5.00	5.00	5.00	5.00	5.00	5.00	5.00	5.00	5.00	5.00	5.00	5.00	5.00	5.00	5.00	5.00	5.00	5.00	5.00	5.00	5.00	5.00	5.00	5.00	5.00	5.00	5.00	5.00	5.00	5.00	5.00	5.00	5.00	5.00	5.00	5.00	5.00	5.00	5.00	5.00	5.00	5.00	5.00	5.00	5.00	5.00	5.00	5.00	5.00	5.00	5.00	5.00	5.00	5.00	5.00	5.00	5.00	5.00	5.00	5.00	5.00	5.00	5.00	5.00	5.00	5.00	5.00	5.00	5.00	5.00	5.00	5.00	5.00	5.00	5.00	5.00	5.00	5.00	5.00	5.00	5.00	5.00	5.00	5.00	5.00	5.00	5.00	5.00	5.00	5.00	5.00	5.00	3.00	3.00	3.00	4.00	4.00	3.00	3.00	3.00	3.00	3.00	6.00	10.00	10.00	10.00	10.00	13.00	25.00	31.00	36.00	40.00	37.00	41.00	42.00	40.00	37.00	25.00	24.00	23.00	31.00	41.00	46.00	53.00	53.00	56.00	68.00	73.00	82.00	85.00	96.00	110.00	126.00	143.00	180.00	211.00	214.00	209.00	197.00	169.00	161.00	153.00	143.00	135.00	118.00	118.00	112.00	106.00	102.00	101.00	98.00	92.00	85.00	77.00	76.00	72.00	64.00	65.00	68.00
5.00	5.00	5.00	5.00	5.00	5.00	5.00	5.00	42.00	46.00	46.00	46.00	41.00	40.00	38.00	36.00	36.00	35.00	34.00	34.00	34.00	36.00	37.00	36.00	37.00	36.00	34.00	31.00	29.00	27.00	26.00	29.00	29.00	29.00	23.00	5.00	5.00	5.00	5.00	5.00	5.00	5.00	12.00	15.00	5.00	5.00	5.00	5.00	5.00	5.00	5.00	5.00	5.00	5.00	5.00	5.00	5.00	5.00	5.00	5.00	5.00	5.00	5.00	5.00	5.00	5.00	5.00	5.00	5.00	5.00	5.00	5.00	5.00	5.00	5.00	5.00	5.00	5.00	5.00	5.00	5.00	5.00	5.00	5.00	5.00	5.00	5.00	5.00	5.00	5.00	5.00	5.00	5.00	5.00	5.00	5.00	5.00	5.00	5.00	5.00	5.00	5.00	5.00	5.00	5.00	5.00	5.00	5.00	5.00	5.00	5.00	5.00	5.00	5.00	5.00	5.00	5.00	5.00	5.00	5.00	5.00	5.00	5.00	5.00	5.00	5.00	5.00	5.00	5.00	5.00	5.00	5.00	5.00	5.00	5.00	5.00	5.00	5.00	5.00	5.00	5.00	5.00	5.00	5.00	5.00	5.00	5.00	5.00	5.00	5.00	5.00	5.00	5.00	5.00	5.00	5.00	5.00	5.00	5.00	5.00	5.00	5.00	5.00	5.00	5.00	5.00	5.00	5.00	5.00	5.00	5.00	5.00	5.00	5.00	5.00	5.00	5.00	5.00	5.00	5.00	5.00	5.00	5.00	5.00	5.00	5.00	5.00	5.00	5.00	3.00	3.00	3.00	4.00	4.00	3.00	3.00	3.00	3.00	3.00	6.00	10.00	10.00	10.00	10.00	13.00	25.00	31.00	36.00	40.00	37.00	41.00	42.00	40.00	37.00	25.00	24.00	23.00	31.00	41.00	46.00	53.00	53.00	56.00	68.00	73.00	82.00	85.00	96.00	110.00	126.00	143.00	180.00	211.00	214.00	209.00	197.00	169.00	161.00	153.00	143.00	135.00	118.00	118.00	112.00	106.00	102.00	101.00	98.00	92.00	85.00	77.00	76.00	72.00	64.00	65.00	68.00
5.00	5.00	5.00	5.00	5.00	5.00	5.00	5.00	42.00	46.00	46.00	46.00	41.00	40.00	38.00	36.00	36.00	35.00	34.00	34.00	34.00	36.00	37.00	36.00	37.00	36.00	34.00	31.00	29.00	27.00	26.00	29.00	29.00	29.00	23.00	5.00	5.00	5.00	5.00	5.00	5.00	5.00	12.00	15.00	5.00	5.00	5.00	5.00	5.00	5.00	5.00	5.00	5.00	5.00	5.00	5.00	5.00	5.00	5.00	5.00	5.00	5.00	5.00	5.00	5.00	5.00	5.00	5.00	5.00	5.00	5.00	5.00	5.00	5.00	5.00	5.00	5.00	5.00	5.00	5.00	5.00	5.00	5.00	5.00	5.00	5.00	5.00	5.00	5.00	5.00	5.00	5.00	5.00	5.00	5.00	5.00	5.00	5.00	5.00	5.00	5.00	5.00	5.00	5.00	5.00	5.00	5.00	5.00	5.00	5.00	5.00	5.00	5.00	5.00	5.00	5.00	5.00	5.00	5.00	5.00	5.00	5.00	5.00	5.00	5.00	5.00	5.00	5.00	5.00	5.00	5.00	5.00	5.00	5.00	5.00	5.00	5.00	5.00	5.00	5.00	5.00	5.00	5.00	5.00	5.00	5.00	5.00	5.00	5.00	5.00	5.00	5.00	5.00	5.00	5.00	5.00	5.00	5.00	5.00	5.00	5.00	5.00	5.00	5.00	5.00	5.00	5.00	5.00	5.00	5.00	5.00	5.00	5.00	5.00	5.00	5.00	5.00	5.00	5.00	5.00	5.00	5.00	5.00	5.00	5.00	5.00	5.00	5.00	5.00	3.00	3.00	3.00	4.00	4.00	3.00	3.00	3.00	3.00	3.00	6.00	10.00	10.00	10.00	10.00	13.00	25.00	31.00	36.00	40.00	37.00	41.00	42.00	40.00	37.00	25.00	24.00	23.00	31.00	41.00	46.00	53.00	53.00	56.00	68.00	73.00	82.00	85.00	96.00	110.00	126.00	143.00	180.00	211.00	214.00	209.00	197.00	169.00	161.00	153.00	143.00	135.00	118.00	118.00	112.00	106.00	102.00	101.00	98.00	92.00	85.00	77.00	76.00	72.00	64.00	65.00	68.00
5.00	5.00	5.00	5.00	5.00	5.00	5.00	5.00	29.00	46.00	50.00	46.00	43.00	41.00	41.00	38.00	35.00	28.00	22.00	17.00	15.00	16.00	17.00	17.00	16.00	16.00	15.00	14.00	11.00	10.00	10.00	11.00	13.00	12.00	12.00	10.00	8.00	8.00	7.00	12.00	16.00	22.00	34.00	37.00	31.00	14.00	5.00	5.00	5.00	5.00	5.00	5.00	5.00	5.00	5.00	5.00	5.00	5.00	5.00	5.00	5.00	5.00	5.00	5.00	5.00	5.00	5.00	5.00	5.00	5.00	5.00	5.00	5.00	5.00	5.00	5.00	5.00	5.00	5.00	5.00	5.00	5.00	5.00	5.00	5.00	5.00	5.00	5.00	5.00	5.00	5.00	5.00	5.00	5.00	5.00	5.00	5.00	5.00	5.00	5.00	5.00	5.00	5.00	5.00	5.00	5.00	5.00	5.00	5.00	5.00	5.00	5.00	5.00	5.00	5.00	5.00	5.00	5.00	5.00	5.00	5.00	5.00	5.00	5.00	5.00	5.00	5.00	5.00	5.00	5.00	5.00	5.00	5.00	5.00	5.00	5.00	5.00	5.00	5.00	5.00	5.00	5.00	5.00	5.00	5.00	5.00	5.00	5.00	5.00	5.00	5.00	5.00	5.00	5.00	5.00	5.00	5.00	5.00	5.00	5.00	5.00	5.00	5.00	5.00	5.00	5.00	5.00	5.00	5.00	5.00	5.00	5.00	5.00	5.00	5.00	5.00	5.00	5.00	5.00	5.00	5.00	5.00	5.00	5.00	5.00	5.00	5.00	5.00	5.00	3.00	3.00	3.00	3.00	3.00	3.00	3.00	3.00	3.00	3.00	10.00	11.00	11.00	13.00	17.00	22.00	42.00	53.00	61.00	64.00	59.00	63.00	68.00	68.00	62.00	53.00	51.00	41.00	34.00	46.00	53.00	63.00	67.00	66.00	68.00	73.00	82.00	86.00	93.00	103.00	115.00	129.00	168.00	204.00	204.00	194.00	176.00	143.00	131.00	126.00	120.00	111.00	100.00	99.00	97.00	92.00	90.00	88.00	87.00	88.00	89.00	87.00	82.00	80.00	86.00	98.00	99.00
5.00	5.00	5.00	5.00	5.00	5.00	5.00	5.00	5.00	25.00	45.00	47.00	44.00	43.00	40.00	37.00	32.00	17.00	12.00	13.00	25.00	28.00	21.00	19.00	13.00	10.00	10.00	10.00	11.00	12.00	14.00	20.00	20.00	20.00	21.00	25.00	25.00	23.00	21.00	17.00	17.00	22.00	30.00	30.00	12.00	5.00	5.00	5.00	5.00	5.00	5.00	5.00	5.00	5.00	5.00	5.00	5.00	5.00	5.00	5.00	5.00	5.00	5.00	5.00	5.00	5.00	5.00	5.00	5.00	5.00	5.00	5.00	5.00	5.00	5.00	5.00	5.00	5.00	5.00	5.00	5.00	5.00	5.00	5.00	5.00	5.00	5.00	5.00	5.00	5.00	5.00	5.00	5.00	5.00	5.00	5.00	5.00	5.00	5.00	5.00	5.00	5.00	5.00	5.00	5.00	5.00	5.00	5.00	5.00	5.00	5.00	5.00	5.00	5.00	5.00	5.00	5.00	5.00	5.00	5.00	5.00	5.00	5.00	5.00	5.00	5.00	5.00	5.00	5.00	5.00	5.00	5.00	5.00	5.00	5.00	5.00	5.00	5.00	5.00	5.00	5.00	5.00	5.00	5.00	5.00	5.00	5.00	5.00	5.00	5.00	5.00	5.00	5.00	5.00	5.00	5.00	5.00	5.00	5.00	5.00	5.00	5.00	5.00	5.00	5.00	5.00	5.00	5.00	5.00	5.00	5.00	5.00	5.00	5.00	5.00	5.00	5.00	5.00	5.00	5.00	5.00	5.00	5.00	5.00	5.00	5.00	5.00	5.00	5.00	3.00	3.00	3.00	3.00	3.00	3.00	3.00	3.00	3.00	3.00	9.00	26.00	29.00	33.00	38.00	43.00	58.00	66.00	74.00	84.00	86.00	88.00	92.00	90.00	85.00	85.00	77.00	67.00	66.00	60.00	59.00	59.00	58.00	58.00	71.00	75.00	82.00	82.00	85.00	96.00	113.00	129.00	159.00	200.00	199.00	189.00	173.00	144.00	141.00	143.00	141.00	135.00	114.00	109.00	108.00	105.00	97.00	95.00	93.00	92.00	93.00	84.00	80.00	116.00	129.00	151.00	152.00
5.00	5.00	5.00	5.00	5.00	5.00	5.00	5.00	5.00	25.00	45.00	47.00	44.00	43.00	40.00	37.00	32.00	17.00	12.00	13.00	25.00	28.00	21.00	19.00	13.00	10.00	10.00	10.00	11.00	12.00	14.00	20.00	20.00	20.00	21.00	25.00	25.00	23.00	21.00	17.00	17.00	22.00	30.00	30.00	12.00	5.00	5.00	5.00	5.00	5.00	5.00	5.00	5.00	5.00	5.00	5.00	5.00	5.00	5.00	5.00	5.00	5.00	5.00	5.00	5.00	5.00	5.00	5.00	5.00	5.00	5.00	5.00	5.00	5.00	5.00	5.00	5.00	5.00	5.00	5.00	5.00	5.00	5.00	5.00	5.00	5.00	5.00	5.00	5.00	5.00	5.00	5.00	5.00	5.00	5.00	5.00	5.00	5.00	5.00	5.00	5.00	5.00	5.00	5.00	5.00	5.00	5.00	5.00	5.00	5.00	5.00	5.00	5.00	5.00	5.00	5.00	5.00	5.00	5.00	5.00	5.00	5.00	5.00	5.00	5.00	5.00	5.00	5.00	5.00	5.00	5.00	5.00	5.00	5.00	5.00	5.00	5.00	5.00	5.00	5.00	5.00	5.00	5.00	5.00	5.00	5.00	5.00	5.00	5.00	5.00	5.00	5.00	5.00	5.00	5.00	5.00	5.00	5.00	5.00	5.00	5.00	5.00	5.00	5.00	5.00	5.00	5.00	5.00	5.00	5.00	5.00	5.00	5.00	5.00	5.00	5.00	5.00	5.00	5.00	5.00	5.00	5.00	5.00	5.00	5.00	5.00	5.00	5.00	5.00	3.00	3.00	3.00	3.00	3.00	3.00	3.00	3.00	3.00	3.00	9.00	26.00	29.00	33.00	38.00	43.00	58.00	66.00	74.00	84.00	86.00	88.00	92.00	90.00	85.00	85.00	77.00	67.00	66.00	60.00	59.00	59.00	58.00	58.00	71.00	75.00	82.00	82.00	85.00	96.00	113.00	129.00	159.00	200.00	199.00	189.00	173.00	144.00	141.00	143.00	141.00	135.00	114.00	109.00	108.00	105.00	97.00	95.00	93.00	92.00	93.00	84.00	80.00	116.00	129.00	151.00	152.00
5.00	5.00	5.00	5.00	5.00	5.00	5.00	5.00	5.00	25.00	45.00	47.00	44.00	43.00	40.00	37.00	32.00	17.00	12.00	13.00	25.00	28.00	21.00	19.00	13.00	10.00	10.00	10.00	11.00	12.00	14.00	20.00	20.00	20.00	21.00	25.00	25.00	23.00	21.00	17.00	17.00	22.00	30.00	30.00	12.00	5.00	5.00	5.00	5.00	5.00	5.00	5.00	5.00	5.00	5.00	5.00	5.00	5.00	5.00	5.00	5.00	5.00	5.00	5.00	5.00	5.00	5.00	5.00	5.00	5.00	5.00	5.00	5.00	5.00	5.00	5.00	5.00	5.00	5.00	5.00	5.00	5.00	5.00	5.00	5.00	5.00	5.00	5.00	5.00	5.00	5.00	5.00	5.00	5.00	5.00	5.00	5.00	5.00	5.00	5.00	5.00	5.00	5.00	5.00	5.00	5.00	5.00	5.00	5.00	5.00	5.00	5.00	5.00	5.00	5.00	5.00	5.00	5.00	5.00	5.00	5.00	5.00	5.00	5.00	5.00	5.00	5.00	5.00	5.00	5.00	5.00	5.00	5.00	5.00	5.00	5.00	5.00	5.00	5.00	5.00	5.00	5.00	5.00	5.00	5.00	5.00	5.00	5.00	5.00	5.00	5.00	5.00	5.00	5.00	5.00	5.00	5.00	5.00	5.00	5.00	5.00	5.00	5.00	5.00	5.00	5.00	5.00	5.00	5.00	5.00	5.00	5.00	5.00	5.00	5.00	5.00	5.00	5.00	5.00	5.00	5.00	5.00	5.00	5.00	5.00	5.00	5.00	5.00	5.00	3.00	3.00	3.00	3.00	3.00	3.00	3.00	3.00	3.00	3.00	9.00	26.00	29.00	33.00	38.00	43.00	58.00	66.00	74.00	84.00	86.00	88.00	92.00	90.00	85.00	85.00	77.00	67.00	66.00	60.00	59.00	59.00	58.00	58.00	71.00	75.00	82.00	82.00	85.00	96.00	113.00	129.00	159.00	200.00	199.00	189.00	173.00	144.00	141.00	143.00	141.00	135.00	114.00	109.00	108.00	105.00	97.00	95.00	93.00	92.00	93.00	84.00	80.00	116.00	129.00	151.00	152.00
5.00	5.00	5.00	5.00	5.00	5.00	5.00	5.00	5.00	21.00	45.00	48.00	49.00	48.00	45.00	38.00	24.00	10.00	24.00	39.00	45.00	10.00	10.00	10.00	10.00	10.00	10.00	10.00	10.00	10.00	17.00	38.00	38.00	38.00	38.00	39.00	40.00	39.00	37.00	30.00	28.00	23.00	22.00	9.00	5.00	5.00	5.00	5.00	5.00	5.00	5.00	5.00	5.00	5.00	5.00	5.00	5.00	5.00	5.00	5.00	5.00	5.00	5.00	5.00	5.00	5.00	5.00	5.00	5.00	5.00	5.00	5.00	5.00	5.00	5.00	5.00	5.00	5.00	5.00	5.00	5.00	5.00	5.00	5.00	5.00	5.00	5.00	5.00	5.00	5.00	5.00	5.00	5.00	5.00	5.00	5.00	5.00	5.00	5.00	5.00	5.00	5.00	5.00	5.00	5.00	5.00	5.00	5.00	5.00	5.00	5.00	5.00	5.00	5.00	5.00	5.00	5.00	5.00	5.00	5.00	5.00	5.00	5.00	5.00	5.00	5.00	5.00	5.00	5.00	5.00	5.00	5.00	5.00	5.00	5.00	5.00	5.00	5.00	5.00	5.00	5.00	5.00	5.00	5.00	5.00	5.00	5.00	5.00	5.00	5.00	5.00	5.00	5.00	5.00	5.00	5.00	5.00	5.00	5.00	5.00	5.00	5.00	5.00	5.00	5.00	5.00	5.00	5.00	5.00	5.00	5.00	5.00	5.00	5.00	5.00	5.00	5.00	5.00	5.00	5.00	5.00	5.00	5.00	5.00	5.00	5.00	5.00	5.00	5.00	3.00	3.00	3.00	3.00	3.00	3.00	3.00	3.00	3.00	3.00	3.00	29.00	46.00	54.00	59.00	67.00	80.00	88.00	96.00	105.00	114.00	113.00	113.00	111.00	109.00	106.00	99.00	90.00	91.00	92.00	96.00	101.00	99.00	95.00	85.00	80.00	82.00	79.00	78.00	88.00	101.00	119.00	171.00	216.00	221.00	218.00	210.00	196.00	207.00	209.00	201.00	184.00	136.00	129.00	120.00	114.00	102.00	98.00	97.00	93.00	90.00	99.00	104.00	104.00	124.00	159.00	178.00
5.00	5.00	5.00	5.00	5.00	5.00	5.00	5.00	5.00	21.00	45.00	48.00	49.00	48.00	45.00	38.00	24.00	10.00	24.00	39.00	45.00	10.00	10.00	10.00	10.00	10.00	10.00	10.00	10.00	10.00	17.00	38.00	38.00	38.00	38.00	39.00	40.00	39.00	37.00	30.00	28.00	23.00	22.00	9.00	5.00	5.00	5.00	5.00	5.00	5.00	5.00	5.00	5.00	5.00	5.00	5.00	5.00	5.00	5.00	5.00	5.00	5.00	5.00	5.00	5.00	5.00	5.00	5.00	5.00	5.00	5.00	5.00	5.00	5.00	5.00	5.00	5.00	5.00	5.00	5.00	5.00	5.00	5.00	5.00	5.00	5.00	5.00	5.00	5.00	5.00	5.00	5.00	5.00	5.00	5.00	5.00	5.00	5.00	5.00	5.00	5.00	5.00	5.00	5.00	5.00	5.00	5.00	5.00	5.00	5.00	5.00	5.00	5.00	5.00	5.00	5.00	5.00	5.00	5.00	5.00	5.00	5.00	5.00	5.00	5.00	5.00	5.00	5.00	5.00	5.00	5.00	5.00	5.00	5.00	5.00	5.00	5.00	5.00	5.00	5.00	5.00	5.00	5.00	5.00	5.00	5.00	5.00	5.00	5.00	5.00	5.00	5.00	5.00	5.00	5.00	5.00	5.00	5.00	5.00	5.00	5.00	5.00	5.00	5.00	5.00	5.00	5.00	5.00	5.00	5.00	5.00	5.00	5.00	5.00	5.00	5.00	5.00	5.00	5.00	5.00	5.00	5.00	5.00	5.00	5.00	5.00	5.00	5.00	5.00	3.00	3.00	3.00	3.00	3.00	3.00	3.00	3.00	3.00	3.00	3.00	29.00	46.00	54.00	59.00	67.00	80.00	88.00	96.00	105.00	114.00	113.00	113.00	111.00	109.00	106.00	99.00	90.00	91.00	92.00	96.00	101.00	99.00	95.00	85.00	80.00	82.00	79.00	78.00	88.00	101.00	119.00	171.00	216.00	221.00	218.00	210.00	196.00	207.00	209.00	201.00	184.00	136.00	129.00	120.00	114.00	102.00	98.00	97.00	93.00	90.00	99.00	104.00	104.00	124.00	159.00	178.00
5.00	5.00	5.00	5.00	5.00	5.00	5.00	5.00	5.00	7.00	29.00	48.00	49.00	49.00	47.00	37.00	20.00	17.00	39.00	45.00	32.00	12.00	12.00	11.00	11.00	11.00	11.00	11.00	10.00	10.00	22.00	49.00	51.00	51.00	50.00	47.00	44.00	39.00	37.00	36.00	38.00	39.00	8.00	5.00	5.00	5.00	5.00	5.00	5.00	5.00	5.00	5.00	5.00	5.00	5.00	5.00	5.00	5.00	5.00	5.00	5.00	5.00	5.00	5.00	5.00	5.00	5.00	5.00	5.00	5.00	5.00	5.00	5.00	5.00	5.00	5.00	5.00	5.00	5.00	5.00	5.00	5.00	5.00	5.00	5.00	5.00	5.00	5.00	5.00	5.00	5.00	5.00	5.00	5.00	5.00	5.00	5.00	5.00	5.00	5.00	5.00	5.00	5.00	5.00	5.00	5.00	5.00	5.00	5.00	5.00	5.00	5.00	5.00	5.00	5.00	5.00	5.00	5.00	5.00	5.00	5.00	5.00	5.00	5.00	5.00	5.00	5.00	5.00	5.00	5.00	5.00	5.00	5.00	5.00	5.00	5.00	5.00	5.00	5.00	5.00	5.00	5.00	5.00	5.00	5.00	5.00	5.00	5.00	5.00	5.00	5.00	5.00	5.00	5.00	5.00	5.00	5.00	5.00	5.00	5.00	5.00	5.00	5.00	5.00	5.00	5.00	5.00	5.00	5.00	5.00	5.00	5.00	5.00	5.00	5.00	5.00	5.00	5.00	5.00	5.00	5.00	5.00	5.00	5.00	5.00	5.00	5.00	5.00	5.00	5.00	3.00	3.00	3.00	3.00	3.00	3.00	3.00	3.00	3.00	3.00	10.00	30.00	46.00	55.00	64.00	84.00	93.00	101.00	106.00	116.00	119.00	121.00	123.00	124.00	123.00	120.00	119.00	124.00	121.00	126.00	129.00	128.00	124.00	117.00	114.00	120.00	122.00	123.00	118.00	105.00	103.00	141.00	199.00	219.00	233.00	242.00	243.00	239.00	229.00	218.00	207.00	149.00	138.00	129.00	119.00	106.00	100.00	100.00	106.00	119.00	140.00	144.00	136.00	125.00	119.00	138.00
5.00	5.00	5.00	5.00	5.00	5.00	5.00	5.00	5.00	7.00	29.00	48.00	49.00	49.00	47.00	37.00	20.00	17.00	39.00	45.00	32.00	12.00	12.00	11.00	11.00	11.00	11.00	11.00	10.00	10.00	22.00	49.00	51.00	51.00	50.00	47.00	44.00	39.00	37.00	36.00	38.00	39.00	8.00	5.00	5.00	5.00	5.00	5.00	5.00	5.00	5.00	5.00	5.00	5.00	5.00	5.00	5.00	5.00	5.00	5.00	5.00	5.00	5.00	5.00	5.00	5.00	5.00	5.00	5.00	5.00	5.00	5.00	5.00	5.00	5.00	5.00	5.00	5.00	5.00	5.00	5.00	5.00	5.00	5.00	5.00	5.00	5.00	5.00	5.00	5.00	5.00	5.00	5.00	5.00	5.00	5.00	5.00	5.00	5.00	5.00	5.00	5.00	5.00	5.00	5.00	5.00	5.00	5.00	5.00	5.00	5.00	5.00	5.00	5.00	5.00	5.00	5.00	5.00	5.00	5.00	5.00	5.00	5.00	5.00	5.00	5.00	5.00	5.00	5.00	5.00	5.00	5.00	5.00	5.00	5.00	5.00	5.00	5.00	5.00	5.00	5.00	5.00	5.00	5.00	5.00	5.00	5.00	5.00	5.00	5.00	5.00	5.00	5.00	5.00	5.00	5.00	5.00	5.00	5.00	5.00	5.00	5.00	5.00	5.00	5.00	5.00	5.00	5.00	5.00	5.00	5.00	5.00	5.00	5.00	5.00	5.00	5.00	5.00	5.00	5.00	5.00	5.00	5.00	5.00	5.00	5.00	5.00	5.00	5.00	5.00	3.00	3.00	3.00	3.00	3.00	3.00	3.00	3.00	3.00	3.00	10.00	30.00	46.00	55.00	64.00	84.00	93.00	101.00	106.00	116.00	119.00	121.00	123.00	124.00	123.00	120.00	119.00	124.00	121.00	126.00	129.00	128.00	124.00	117.00	114.00	120.00	122.00	123.00	118.00	105.00	103.00	141.00	199.00	219.00	233.00	242.00	243.00	239.00	229.00	218.00	207.00	149.00	138.00	129.00	119.00	106.00	100.00	100.00	106.00	119.00	140.00	144.00	136.00	125.00	119.00	138.00
5.00	5.00	5.00	5.00	5.00	5.00	5.00	5.00	5.00	7.00	29.00	48.00	49.00	49.00	47.00	37.00	20.00	17.00	39.00	45.00	32.00	12.00	12.00	11.00	11.00	11.00	11.00	11.00	10.00	10.00	22.00	49.00	51.00	51.00	50.00	47.00	44.00	39.00	37.00	36.00	38.00	39.00	8.00	5.00	5.00	5.00	5.00	5.00	5.00	5.00	5.00	5.00	5.00	5.00	5.00	5.00	5.00	5.00	5.00	5.00	5.00	5.00	5.00	5.00	5.00	5.00	5.00	5.00	5.00	5.00	5.00	5.00	5.00	5.00	5.00	5.00	5.00	5.00	5.00	5.00	5.00	5.00	5.00	5.00	5.00	5.00	5.00	5.00	5.00	5.00	5.00	5.00	5.00	5.00	5.00	5.00	5.00	5.00	5.00	5.00	5.00	5.00	5.00	5.00	5.00	5.00	5.00	5.00	5.00	5.00	5.00	5.00	5.00	5.00	5.00	5.00	5.00	5.00	5.00	5.00	5.00	5.00	5.00	5.00	5.00	5.00	5.00	5.00	5.00	5.00	5.00	5.00	5.00	5.00	5.00	5.00	5.00	5.00	5.00	5.00	5.00	5.00	5.00	5.00	5.00	5.00	5.00	5.00	5.00	5.00	5.00	5.00	5.00	5.00	5.00	5.00	5.00	5.00	5.00	5.00	5.00	5.00	5.00	5.00	5.00	5.00	5.00	5.00	5.00	5.00	5.00	5.00	5.00	5.00	5.00	5.00	5.00	5.00	5.00	5.00	5.00	5.00	5.00	5.00	5.00	5.00	5.00	5.00	5.00	5.00	3.00	3.00	3.00	3.00	3.00	3.00	3.00	3.00	3.00	3.00	10.00	30.00	46.00	55.00	64.00	84.00	93.00	101.00	106.00	116.00	119.00	121.00	123.00	124.00	123.00	120.00	119.00	124.00	121.00	126.00	129.00	128.00	124.00	117.00	114.00	120.00	122.00	123.00	118.00	105.00	103.00	141.00	199.00	219.00	233.00	242.00	243.00	239.00	229.00	218.00	207.00	149.00	138.00	129.00	119.00	106.00	100.00	100.00	106.00	119.00	140.00	144.00	136.00	125.00	119.00	138.00
5.00	5.00	5.00	5.00	5.00	5.00	5.00	5.00	5.00	5.00	10.00	38.00	32.00	34.00	28.00	14.00	10.00	18.00	34.00	45.00	29.00	12.00	12.00	12.00	12.00	12.00	13.00	12.00	11.00	10.00	25.00	53.00	55.00	53.00	50.00	50.00	49.00	45.00	43.00	38.00	38.00	36.00	11.00	5.00	5.00	5.00	5.00	5.00	5.00	5.00	5.00	5.00	5.00	5.00	5.00	5.00	5.00	5.00	5.00	5.00	5.00	5.00	5.00	5.00	5.00	5.00	5.00	5.00	5.00	5.00	5.00	5.00	5.00	5.00	5.00	5.00	5.00	5.00	5.00	5.00	5.00	5.00	5.00	5.00	5.00	5.00	5.00	5.00	5.00	5.00	5.00	5.00	5.00	5.00	5.00	5.00	5.00	5.00	5.00	5.00	5.00	5.00	5.00	5.00	5.00	5.00	5.00	5.00	5.00	5.00	5.00	5.00	5.00	5.00	5.00	5.00	5.00	5.00	5.00	5.00	5.00	5.00	5.00	5.00	5.00	5.00	5.00	5.00	5.00	5.00	5.00	5.00	5.00	5.00	5.00	5.00	5.00	5.00	5.00	5.00	5.00	5.00	5.00	5.00	5.00	5.00	5.00	5.00	5.00	5.00	5.00	5.00	5.00	5.00	5.00	5.00	5.00	5.00	5.00	5.00	5.00	5.00	5.00	5.00	5.00	5.00	5.00	5.00	5.00	5.00	5.00	5.00	5.00	5.00	5.00	5.00	5.00	5.00	5.00	5.00	5.00	5.00	5.00	5.00	5.00	5.00	5.00	5.00	5.00	5.00	5.00	4.00	3.00	3.00	3.00	3.00	3.00	3.00	3.00	3.00	3.00	13.00	36.00	58.00	69.00	77.00	83.00	86.00	88.00	94.00	97.00	101.00	104.00	108.00	120.00	126.00	130.00	132.00	135.00	134.00	129.00	127.00	126.00	124.00	129.00	140.00	147.00	157.00	158.00	155.00	149.00	147.00	178.00	203.00	221.00	220.00	193.00	183.00	173.00	164.00	153.00	128.00	120.00	113.00	110.00	104.00	107.00	122.00	134.00	147.00	171.00	180.00	177.00	167.00	143.00	137.00
5.00	5.00	5.00	5.00	5.00	5.00	5.00	5.00	5.00	5.00	10.00	38.00	32.00	34.00	28.00	14.00	10.00	18.00	34.00	45.00	29.00	12.00	12.00	12.00	12.00	12.00	13.00	12.00	11.00	10.00	25.00	53.00	55.00	53.00	50.00	50.00	49.00	45.00	43.00	38.00	38.00	36.00	11.00	5.00	5.00	5.00	5.00	5.00	5.00	5.00	5.00	5.00	5.00	5.00	5.00	5.00	5.00	5.00	5.00	5.00	5.00	5.00	5.00	5.00	5.00	5.00	5.00	5.00	5.00	5.00	5.00	5.00	5.00	5.00	5.00	5.00	5.00	5.00	5.00	5.00	5.00	5.00	5.00	5.00	5.00	5.00	5.00	5.00	5.00	5.00	5.00	5.00	5.00	5.00	5.00	5.00	5.00	5.00	5.00	5.00	5.00	5.00	5.00	5.00	5.00	5.00	5.00	5.00	5.00	5.00	5.00	5.00	5.00	5.00	5.00	5.00	5.00	5.00	5.00	5.00	5.00	5.00	5.00	5.00	5.00	5.00	5.00	5.00	5.00	5.00	5.00	5.00	5.00	5.00	5.00	5.00	5.00	5.00	5.00	5.00	5.00	5.00	5.00	5.00	5.00	5.00	5.00	5.00	5.00	5.00	5.00	5.00	5.00	5.00	5.00	5.00	5.00	5.00	5.00	5.00	5.00	5.00	5.00	5.00	5.00	5.00	5.00	5.00	5.00	5.00	5.00	5.00	5.00	5.00	5.00	5.00	5.00	5.00	5.00	5.00	5.00	5.00	5.00	5.00	5.00	5.00	5.00	5.00	5.00	5.00	5.00	4.00	3.00	3.00	3.00	3.00	3.00	3.00	3.00	3.00	3.00	13.00	36.00	58.00	69.00	77.00	83.00	86.00	88.00	94.00	97.00	101.00	104.00	108.00	120.00	126.00	130.00	132.00	135.00	134.00	129.00	127.00	126.00	124.00	129.00	140.00	147.00	157.00	158.00	155.00	149.00	147.00	178.00	203.00	221.00	220.00	193.00	183.00	173.00	164.00	153.00	128.00	120.00	113.00	110.00	104.00	107.00	122.00	134.00	147.00	171.00	180.00	177.00	167.00	143.00	137.00
5.00	5.00	5.00	5.00	5.00	5.00	5.00	5.00	5.00	5.00	5.00	13.00	10.00	10.00	10.00	10.00	10.00	10.00	17.00	30.00	16.00	13.00	13.00	14.00	13.00	13.00	12.00	13.00	15.00	18.00	36.00	45.00	43.00	41.00	34.00	36.00	41.00	38.00	31.00	26.00	20.00	21.00	20.00	12.00	5.00	5.00	5.00	5.00	5.00	5.00	5.00	5.00	5.00	5.00	5.00	5.00	5.00	5.00	5.00	5.00	5.00	5.00	5.00	5.00	5.00	5.00	5.00	5.00	5.00	5.00	5.00	5.00	5.00	5.00	5.00	5.00	5.00	5.00	5.00	5.00	5.00	5.00	5.00	5.00	5.00	5.00	5.00	5.00	5.00	5.00	5.00	5.00	5.00	5.00	5.00	5.00	5.00	5.00	5.00	5.00	5.00	5.00	5.00	5.00	5.00	5.00	5.00	5.00	5.00	5.00	5.00	5.00	5.00	5.00	5.00	5.00	5.00	5.00	5.00	5.00	5.00	5.00	5.00	5.00	5.00	5.00	5.00	5.00	5.00	5.00	5.00	5.00	5.00	5.00	5.00	5.00	5.00	5.00	5.00	5.00	5.00	5.00	5.00	5.00	5.00	5.00	5.00	5.00	5.00	5.00	5.00	5.00	5.00	5.00	5.00	5.00	5.00	5.00	5.00	5.00	5.00	5.00	5.00	5.00	5.00	5.00	5.00	5.00	5.00	5.00	5.00	5.00	5.00	5.00	5.00	5.00	5.00	5.00	5.00	5.00	5.00	5.00	5.00	5.00	5.00	5.00	5.00	5.00	5.00	5.00	5.00	5.00	3.00	3.00	3.00	3.00	3.00	3.00	3.00	3.00	3.00	9.00	27.00	44.00	50.00	57.00	59.00	64.00	68.00	71.00	69.00	71.00	76.00	83.00	94.00	99.00	104.00	107.00	110.00	109.00	102.00	103.00	103.00	106.00	111.00	122.00	129.00	149.00	161.00	176.00	192.00	215.00	232.00	236.00	230.00	214.00	173.00	156.00	143.00	135.00	131.00	128.00	123.00	123.00	124.00	120.00	117.00	131.00	146.00	158.00	187.00	200.00	209.00	204.00	183.00	190.00
5.00	5.00	5.00	5.00	5.00	5.00	5.00	5.00	5.00	5.00	5.00	13.00	10.00	10.00	10.00	10.00	10.00	10.00	17.00	30.00	16.00	13.00	13.00	14.00	13.00	13.00	12.00	13.00	15.00	18.00	36.00	45.00	43.00	41.00	34.00	36.00	41.00	38.00	31.00	26.00	20.00	21.00	20.00	12.00	5.00	5.00	5.00	5.00	5.00	5.00	5.00	5.00	5.00	5.00	5.00	5.00	5.00	5.00	5.00	5.00	5.00	5.00	5.00	5.00	5.00	5.00	5.00	5.00	5.00	5.00	5.00	5.00	5.00	5.00	5.00	5.00	5.00	5.00	5.00	5.00	5.00	5.00	5.00	5.00	5.00	5.00	5.00	5.00	5.00	5.00	5.00	5.00	5.00	5.00	5.00	5.00	5.00	5.00	5.00	5.00	5.00	5.00	5.00	5.00	5.00	5.00	5.00	5.00	5.00	5.00	5.00	5.00	5.00	5.00	5.00	5.00	5.00	5.00	5.00	5.00	5.00	5.00	5.00	5.00	5.00	5.00	5.00	5.00	5.00	5.00	5.00	5.00	5.00	5.00	5.00	5.00	5.00	5.00	5.00	5.00	5.00	5.00	5.00	5.00	5.00	5.00	5.00	5.00	5.00	5.00	5.00	5.00	5.00	5.00	5.00	5.00	5.00	5.00	5.00	5.00	5.00	5.00	5.00	5.00	5.00	5.00	5.00	5.00	5.00	5.00	5.00	5.00	5.00	5.00	5.00	5.00	5.00	5.00	5.00	5.00	5.00	5.00	5.00	5.00	5.00	5.00	5.00	5.00	5.00	5.00	5.00	5.00	3.00	3.00	3.00	3.00	3.00	3.00	3.00	3.00	3.00	9.00	27.00	44.00	50.00	57.00	59.00	64.00	68.00	71.00	69.00	71.00	76.00	83.00	94.00	99.00	104.00	107.00	110.00	109.00	102.00	103.00	103.00	106.00	111.00	122.00	129.00	149.00	161.00	176.00	192.00	215.00	232.00	236.00	230.00	214.00	173.00	156.00	143.00	135.00	131.00	128.00	123.00	123.00	124.00	120.00	117.00	131.00	146.00	158.00	187.00	200.00	209.00	204.00	183.00	190.00
5.00	5.00	5.00	5.00	5.00	5.00	5.00	5.00	5.00	6.00	22.00	48.00	16.00	10.00	10.00	10.00	10.00	15.00	34.00	42.00	21.00	10.00	10.00	10.00	10.00	10.00	12.00	14.00	16.00	18.00	22.00	23.00	24.00	22.00	21.00	19.00	22.00	24.00	24.00	17.00	13.00	12.00	14.00	11.00	6.00	5.00	5.00	5.00	5.00	5.00	5.00	5.00	5.00	5.00	5.00	5.00	5.00	5.00	5.00	5.00	5.00	5.00	5.00	5.00	5.00	5.00	5.00	5.00	5.00	5.00	5.00	5.00	5.00	5.00	5.00	5.00	5.00	5.00	5.00	5.00	5.00	5.00	5.00	5.00	5.00	5.00	5.00	5.00	5.00	5.00	5.00	5.00	5.00	5.00	5.00	5.00	5.00	5.00	5.00	5.00	5.00	5.00	5.00	5.00	5.00	5.00	5.00	5.00	5.00	5.00	5.00	5.00	5.00	5.00	5.00	5.00	5.00	5.00	5.00	5.00	5.00	5.00	5.00	5.00	5.00	5.00	5.00	5.00	5.00	5.00	5.00	5.00	5.00	5.00	5.00	5.00	5.00	5.00	5.00	5.00	5.00	5.00	5.00	5.00	5.00	5.00	5.00	5.00	5.00	5.00	5.00	5.00	5.00	5.00	5.00	5.00	5.00	5.00	5.00	5.00	5.00	5.00	5.00	5.00	5.00	5.00	5.00	5.00	5.00	5.00	5.00	5.00	5.00	5.00	5.00	5.00	5.00	5.00	5.00	5.00	5.00	5.00	5.00	5.00	5.00	5.00	5.00	5.00	5.00	5.00	5.00	5.00	5.00	4.00	3.00	3.00	3.00	3.00	3.00	3.00	8.00	18.00	23.00	22.00	23.00	28.00	32.00	35.00	40.00	47.00	51.00	58.00	64.00	70.00	89.00	92.00	94.00	94.00	82.00	78.00	82.00	81.00	81.00	90.00	95.00	106.00	111.00	125.00	139.00	156.00	170.00	200.00	217.00	219.00	219.00	213.00	189.00	180.00	174.00	173.00	170.00	180.00	177.00	171.00	164.00	141.00	131.00	136.00	147.00	160.00	193.00	213.00	242.00	243.00	237.00	235.00
5.00	5.00	5.00	5.00	5.00	5.00	5.00	5.00	5.00	6.00	22.00	48.00	16.00	10.00	10.00	10.00	10.00	15.00	34.00	42.00	21.00	10.00	10.00	10.00	10.00	10.00	12.00	14.00	16.00	18.00	22.00	23.00	24.00	22.00	21.00	19.00	22.00	24.00	24.00	17.00	13.00	12.00	14.00	11.00	6.00	5.00	5.00	5.00	5.00	5.00	5.00	5.00	5.00	5.00	5.00	5.00	5.00	5.00	5.00	5.00	5.00	5.00	5.00	5.00	5.00	5.00	5.00	5.00	5.00	5.00	5.00	5.00	5.00	5.00	5.00	5.00	5.00	5.00	5.00	5.00	5.00	5.00	5.00	5.00	5.00	5.00	5.00	5.00	5.00	5.00	5.00	5.00	5.00	5.00	5.00	5.00	5.00	5.00	5.00	5.00	5.00	5.00	5.00	5.00	5.00	5.00	5.00	5.00	5.00	5.00	5.00	5.00	5.00	5.00	5.00	5.00	5.00	5.00	5.00	5.00	5.00	5.00	5.00	5.00	5.00	5.00	5.00	5.00	5.00	5.00	5.00	5.00	5.00	5.00	5.00	5.00	5.00	5.00	5.00	5.00	5.00	5.00	5.00	5.00	5.00	5.00	5.00	5.00	5.00	5.00	5.00	5.00	5.00	5.00	5.00	5.00	5.00	5.00	5.00	5.00	5.00	5.00	5.00	5.00	5.00	5.00	5.00	5.00	5.00	5.00	5.00	5.00	5.00	5.00	5.00	5.00	5.00	5.00	5.00	5.00	5.00	5.00	5.00	5.00	5.00	5.00	5.00	5.00	5.00	5.00	5.00	5.00	5.00	4.00	3.00	3.00	3.00	3.00	3.00	3.00	8.00	18.00	23.00	22.00	23.00	28.00	32.00	35.00	40.00	47.00	51.00	58.00	64.00	70.00	89.00	92.00	94.00	94.00	82.00	78.00	82.00	81.00	81.00	90.00	95.00	106.00	111.00	125.00	139.00	156.00	170.00	200.00	217.00	219.00	219.00	213.00	189.00	180.00	174.00	173.00	170.00	180.00	177.00	171.00	164.00	141.00	131.00	136.00	147.00	160.00	193.00	213.00	242.00	243.00	237.00	235.00
5.00	5.00	5.00	5.00	5.00	5.00	5.00	5.00	5.00	9.00	34.00	49.00	38.00	17.00	10.00	16.00	28.00	50.00	54.00	56.00	49.00	10.00	10.00	10.00	10.00	12.00	26.00	27.00	21.00	17.00	22.00	33.00	39.00	45.00	48.00	47.00	42.00	35.00	32.00	25.00	17.00	10.00	6.00	5.00	5.00	5.00	5.00	5.00	5.00	5.00	5.00	5.00	5.00	5.00	5.00	5.00	5.00	5.00	5.00	5.00	5.00	5.00	5.00	5.00	5.00	5.00	5.00	5.00	5.00	5.00	5.00	5.00	5.00	5.00	5.00	5.00	5.00	5.00	5.00	5.00	5.00	5.00	5.00	5.00	5.00	5.00	5.00	5.00	5.00	5.00	5.00	5.00	5.00	5.00	5.00	5.00	5.00	5.00	5.00	5.00	5.00	5.00	5.00	5.00	5.00	5.00	5.00	5.00	5.00	5.00	5.00	5.00	5.00	5.00	5.00	5.00	5.00	5.00	5.00	5.00	5.00	5.00	5.00	5.00	5.00	5.00	5.00	5.00	5.00	5.00	5.00	5.00	5.00	5.00	5.00	5.00	5.00	5.00	5.00	5.00	5.00	5.00	5.00	5.00	5.00	5.00	5.00	5.00	5.00	5.00	5.00	5.00	5.00	5.00	5.00	5.00	5.00	5.00	5.00	5.00	5.00	5.00	5.00	5.00	5.00	5.00	5.00	5.00	5.00	5.00	5.00	5.00	5.00	5.00	5.00	5.00	5.00	5.00	5.00	5.00	5.00	5.00	5.00	5.00	5.00	5.00	5.00	5.00	5.00	5.00	5.00	5.00	5.00	5.00	3.00	3.00	3.00	3.00	3.00	3.00	14.00	35.00	42.00	42.00	41.00	37.00	35.00	38.00	43.00	57.00	61.00	65.00	70.00	77.00	80.00	77.00	74.00	72.00	73.00	78.00	83.00	81.00	82.00	85.00	85.00	92.00	96.00	107.00	119.00	131.00	141.00	156.00	171.00	179.00	187.00	198.00	220.00	228.00	232.00	236.00	235.00	239.00	231.00	219.00	204.00	177.00	171.00	171.00	173.00	182.00	215.00	241.00	273.00	261.00	235.00	225.00
5.00	5.00	5.00	5.00	5.00	5.00	5.00	5.00	5.00	9.00	34.00	49.00	38.00	17.00	10.00	16.00	28.00	50.00	54.00	56.00	49.00	10.00	10.00	10.00	10.00	12.00	26.00	27.00	21.00	17.00	22.00	33.00	39.00	45.00	48.00	47.00	42.00	35.00	32.00	25.00	17.00	10.00	6.00	5.00	5.00	5.00	5.00	5.00	5.00	5.00	5.00	5.00	5.00	5.00	5.00	5.00	5.00	5.00	5.00	5.00	5.00	5.00	5.00	5.00	5.00	5.00	5.00	5.00	5.00	5.00	5.00	5.00	5.00	5.00	5.00	5.00	5.00	5.00	5.00	5.00	5.00	5.00	5.00	5.00	5.00	5.00	5.00	5.00	5.00	5.00	5.00	5.00	5.00	5.00	5.00	5.00	5.00	5.00	5.00	5.00	5.00	5.00	5.00	5.00	5.00	5.00	5.00	5.00	5.00	5.00	5.00	5.00	5.00	5.00	5.00	5.00	5.00	5.00	5.00	5.00	5.00	5.00	5.00	5.00	5.00	5.00	5.00	5.00	5.00	5.00	5.00	5.00	5.00	5.00	5.00	5.00	5.00	5.00	5.00	5.00	5.00	5.00	5.00	5.00	5.00	5.00	5.00	5.00	5.00	5.00	5.00	5.00	5.00	5.00	5.00	5.00	5.00	5.00	5.00	5.00	5.00	5.00	5.00	5.00	5.00	5.00	5.00	5.00	5.00	5.00	5.00	5.00	5.00	5.00	5.00	5.00	5.00	5.00	5.00	5.00	5.00	5.00	5.00	5.00	5.00	5.00	5.00	5.00	5.00	5.00	5.00	5.00	5.00	5.00	3.00	3.00	3.00	3.00	3.00	3.00	14.00	35.00	42.00	42.00	41.00	37.00	35.00	38.00	43.00	57.00	61.00	65.00	70.00	77.00	80.00	77.00	74.00	72.00	73.00	78.00	83.00	81.00	82.00	85.00	85.00	92.00	96.00	107.00	119.00	131.00	141.00	156.00	171.00	179.00	187.00	198.00	220.00	228.00	232.00	236.00	235.00	239.00	231.00	219.00	204.00	177.00	171.00	171.00	173.00	182.00	215.00	241.00	273.00	261.00	235.00	225.00
7.00	7.00	7.00	7.00	7.00	7.00	7.00	7.00	7.00	16.00	26.00	25.00	15.00	10.00	17.00	35.00	43.00	50.00	50.00	50.00	51.00	37.00	32.00	32.00	34.00	38.00	31.00	26.00	22.00	22.00	29.00	40.00	44.00	47.00	50.00	45.00	41.00	39.00	38.00	35.00	29.00	14.00	7.00	7.00	7.00	7.00	7.00	7.00	7.00	7.00	7.00	7.00	7.00	7.00	7.00	7.00	7.00	7.00	7.00	7.00	7.00	7.00	7.00	7.00	7.00	7.00	7.00	7.00	7.00	7.00	7.00	7.00	7.00	7.00	7.00	7.00	7.00	7.00	7.00	7.00	7.00	7.00	7.00	7.00	7.00	7.00	7.00	7.00	7.00	7.00	7.00	7.00	7.00	7.00	7.00	7.00	7.00	7.00	7.00	7.00	7.00	7.00	7.00	7.00	7.00	7.00	7.00	7.00	7.00	7.00	7.00	7.00	7.00	7.00	7.00	7.00	7.00	7.00	7.00	7.00	7.00	7.00	7.00	7.00	7.00	7.00	7.00	7.00	7.00	7.00	7.00	7.00	7.00	7.00	7.00	7.00	7.00	7.00	7.00	7.00	7.00	7.00	7.00	7.00	7.00	7.00	7.00	7.00	7.00	7.00	7.00	7.00	7.00	7.00	7.00	7.00	7.00	7.00	7.00	7.00	7.00	7.00	7.00	7.00	7.00	7.00	7.00	7.00	7.00	7.00	7.00	7.00	7.00	7.00	7.00	7.00	7.00	7.00	7.00	7.00	7.00	7.00	7.00	7.00	7.00	7.00	7.00	7.00	7.00	7.00	7.00	7.00	7.00	7.00	5.00	4.00	4.00	4.00	4.00	4.00	15.00	34.00	42.00	46.00	47.00	41.00	35.00	37.00	44.00	53.00	57.00	56.00	55.00	55.00	58.00	62.00	69.00	74.00	79.00	77.00	76.00	81.00	86.00	87.00	92.00	100.00	99.00	95.00	98.00	101.00	104.00	109.00	123.00	133.00	142.00	152.00	184.00	201.00	220.00	236.00	248.00	273.00	275.00	273.00	267.00	256.00	249.00	245.00	241.00	241.00	243.00	246.00	241.00	230.00	200.00	187.00
7.00	7.00	7.00	7.00	7.00	7.00	7.00	7.00	7.00	16.00	26.00	25.00	15.00	10.00	17.00	35.00	43.00	50.00	50.00	50.00	51.00	37.00	32.00	32.00	34.00	38.00	31.00	26.00	22.00	22.00	29.00	40.00	44.00	47.00	50.00	45.00	41.00	39.00	38.00	35.00	29.00	14.00	7.00	7.00	7.00	7.00	7.00	7.00	7.00	7.00	7.00	7.00	7.00	7.00	7.00	7.00	7.00	7.00	7.00	7.00	7.00	7.00	7.00	7.00	7.00	7.00	7.00	7.00	7.00	7.00	7.00	7.00	7.00	7.00	7.00	7.00	7.00	7.00	7.00	7.00	7.00	7.00	7.00	7.00	7.00	7.00	7.00	7.00	7.00	7.00	7.00	7.00	7.00	7.00	7.00	7.00	7.00	7.00	7.00	7.00	7.00	7.00	7.00	7.00	7.00	7.00	7.00	7.00	7.00	7.00	7.00	7.00	7.00	7.00	7.00	7.00	7.00	7.00	7.00	7.00	7.00	7.00	7.00	7.00	7.00	7.00	7.00	7.00	7.00	7.00	7.00	7.00	7.00	7.00	7.00	7.00	7.00	7.00	7.00	7.00	7.00	7.00	7.00	7.00	7.00	7.00	7.00	7.00	7.00	7.00	7.00	7.00	7.00	7.00	7.00	7.00	7.00	7.00	7.00	7.00	7.00	7.00	7.00	7.00	7.00	7.00	7.00	7.00	7.00	7.00	7.00	7.00	7.00	7.00	7.00	7.00	7.00	7.00	7.00	7.00	7.00	7.00	7.00	7.00	7.00	7.00	7.00	7.00	7.00	7.00	7.00	7.00	7.00	7.00	5.00	4.00	4.00	4.00	4.00	4.00	15.00	34.00	42.00	46.00	47.00	41.00	35.00	37.00	44.00	53.00	57.00	56.00	55.00	55.00	58.00	62.00	69.00	74.00	79.00	77.00	76.00	81.00	86.00	87.00	92.00	100.00	99.00	95.00	98.00	101.00	104.00	109.00	123.00	133.00	142.00	152.00	184.00	201.00	220.00	236.00	248.00	273.00	275.00	273.00	267.00	256.00	249.00	245.00	241.00	241.00	243.00	246.00	241.00	230.00	200.00	187.00
7.00	7.00	7.00	7.00	7.00	7.00	7.00	7.00	7.00	16.00	26.00	25.00	15.00	10.00	17.00	35.00	43.00	50.00	50.00	50.00	51.00	37.00	32.00	32.00	34.00	38.00	31.00	26.00	22.00	22.00	29.00	40.00	44.00	47.00	50.00	45.00	41.00	39.00	38.00	35.00	29.00	14.00	7.00	7.00	7.00	7.00	7.00	7.00	7.00	7.00	7.00	7.00	7.00	7.00	7.00	7.00	7.00	7.00	7.00	7.00	7.00	7.00	7.00	7.00	7.00	7.00	7.00	7.00	7.00	7.00	7.00	7.00	7.00	7.00	7.00	7.00	7.00	7.00	7.00	7.00	7.00	7.00	7.00	7.00	7.00	7.00	7.00	7.00	7.00	7.00	7.00	7.00	7.00	7.00	7.00	7.00	7.00	7.00	7.00	7.00	7.00	7.00	7.00	7.00	7.00	7.00	7.00	7.00	7.00	7.00	7.00	7.00	7.00	7.00	7.00	7.00	7.00	7.00	7.00	7.00	7.00	7.00	7.00	7.00	7.00	7.00	7.00	7.00	7.00	7.00	7.00	7.00	7.00	7.00	7.00	7.00	7.00	7.00	7.00	7.00	7.00	7.00	7.00	7.00	7.00	7.00	7.00	7.00	7.00	7.00	7.00	7.00	7.00	7.00	7.00	7.00	7.00	7.00	7.00	7.00	7.00	7.00	7.00	7.00	7.00	7.00	7.00	7.00	7.00	7.00	7.00	7.00	7.00	7.00	7.00	7.00	7.00	7.00	7.00	7.00	7.00	7.00	7.00	7.00	7.00	7.00	7.00	7.00	7.00	7.00	7.00	7.00	7.00	7.00	5.00	4.00	4.00	4.00	4.00	4.00	15.00	34.00	42.00	46.00	47.00	41.00	35.00	37.00	44.00	53.00	57.00	56.00	55.00	55.00	58.00	62.00	69.00	74.00	79.00	77.00	76.00	81.00	86.00	87.00	92.00	100.00	99.00	95.00	98.00	101.00	104.00	109.00	123.00	133.00	142.00	152.00	184.00	201.00	220.00	236.00	248.00	273.00	275.00	273.00	267.00	256.00	249.00	245.00	241.00	241.00	243.00	246.00	241.00	230.00	200.00	187.00
7.00	7.00	7.00	7.00	7.00	7.00	7.00	7.00	7.00	16.00	26.00	25.00	15.00	10.00	17.00	35.00	43.00	50.00	50.00	50.00	51.00	37.00	32.00	32.00	34.00	38.00	31.00	26.00	22.00	22.00	29.00	40.00	44.00	47.00	50.00	45.00	41.00	39.00	38.00	35.00	29.00	14.00	7.00	7.00	7.00	7.00	7.00	7.00	7.00	7.00	7.00	7.00	7.00	7.00	7.00	7.00	7.00	7.00	7.00	7.00	7.00	7.00	7.00	7.00	7.00	7.00	7.00	7.00	7.00	7.00	7.00	7.00	7.00	7.00	7.00	7.00	7.00	7.00	7.00	7.00	7.00	7.00	7.00	7.00	7.00	7.00	7.00	7.00	7.00	7.00	7.00	7.00	7.00	7.00	7.00	7.00	7.00	7.00	7.00	7.00	7.00	7.00	7.00	7.00	7.00	7.00	7.00	7.00	7.00	7.00	7.00	7.00	7.00	7.00	7.00	7.00	7.00	7.00	7.00	7.00	7.00	7.00	7.00	7.00	7.00	7.00	7.00	7.00	7.00	7.00	7.00	7.00	7.00	7.00	7.00	7.00	7.00	7.00	7.00	7.00	7.00	7.00	7.00	7.00	7.00	7.00	7.00	7.00	7.00	7.00	7.00	7.00	7.00	7.00	7.00	7.00	7.00	7.00	7.00	7.00	7.00	7.00	7.00	7.00	7.00	7.00	7.00	7.00	7.00	7.00	7.00	7.00	7.00	7.00	7.00	7.00	7.00	7.00	7.00	7.00	7.00	7.00	7.00	7.00	7.00	7.00	7.00	7.00	7.00	7.00	7.00	7.00	7.00	7.00	5.00	4.00	4.00	4.00	4.00	4.00	15.00	34.00	42.00	46.00	47.00	41.00	35.00	37.00	44.00	53.00	57.00	56.00	55.00	55.00	58.00	62.00	69.00	74.00	79.00	77.00	76.00	81.00	86.00	87.00	92.00	100.00	99.00	95.00	98.00	101.00	104.00	109.00	123.00	133.00	142.00	152.00	184.00	201.00	220.00	236.00	248.00	273.00	275.00	273.00	267.00	256.00	249.00	245.00	241.00	241.00	243.00	246.00	241.00	230.00	200.00	187.00
7.00	7.00	7.00	7.00	7.00	7.00	7.00	7.00	17.00	35.00	43.00	40.00	17.00	15.00	22.00	34.00	42.00	49.00	50.00	52.00	53.00	53.00	51.00	47.00	42.00	37.00	25.00	20.00	20.00	22.00	33.00	42.00	44.00	43.00	41.00	34.00	33.00	35.00	39.00	32.00	17.00	7.00	7.00	7.00	7.00	7.00	7.00	7.00	7.00	7.00	7.00	7.00	7.00	7.00	7.00	7.00	7.00	7.00	7.00	7.00	7.00	7.00	7.00	7.00	7.00	7.00	7.00	7.00	7.00	7.00	7.00	7.00	7.00	7.00	7.00	7.00	7.00	7.00	7.00	7.00	7.00	7.00	7.00	7.00	7.00	7.00	7.00	7.00	7.00	7.00	7.00	7.00	7.00	7.00	7.00	7.00	7.00	7.00	7.00	7.00	7.00	7.00	7.00	7.00	7.00	7.00	7.00	7.00	7.00	7.00	7.00	7.00	7.00	7.00	7.00	7.00	7.00	7.00	7.00	7.00	7.00	7.00	7.00	7.00	7.00	7.00	7.00	7.00	7.00	7.00	7.00	7.00	7.00	7.00	7.00	7.00	7.00	7.00	7.00	7.00	7.00	7.00	7.00	7.00	7.00	7.00	7.00	7.00	7.00	7.00	7.00	7.00	7.00	7.00	7.00	7.00	7.00	7.00	7.00	7.00	7.00	7.00	7.00	7.00	7.00	7.00	7.00	7.00	7.00	7.00	7.00	7.00	7.00	7.00	7.00	7.00	7.00	7.00	7.00	7.00	7.00	7.00	7.00	7.00	7.00	7.00	7.00	7.00	7.00	7.00	7.00	7.00	7.00	7.00	5.00	4.00	4.00	4.00	4.00	4.00	5.00	12.00	14.00	16.00	18.00	19.00	17.00	21.00	28.00	29.00	38.00	45.00	49.00	51.00	52.00	55.00	58.00	61.00	63.00	59.00	60.00	67.00	67.00	71.00	76.00	81.00	79.00	73.00	73.00	77.00	80.00	89.00	99.00	101.00	106.00	114.00	142.00	159.00	178.00	198.00	216.00	257.00	268.00	277.00	283.00	285.00	283.00	278.00	269.00	249.00	211.00	202.00	191.00	183.00	166.00	159.00
7.00	7.00	7.00	7.00	7.00	7.00	7.00	7.00	17.00	35.00	43.00	40.00	17.00	15.00	22.00	34.00	42.00	49.00	50.00	52.00	53.00	53.00	51.00	47.00	42.00	37.00	25.00	20.00	20.00	22.00	33.00	42.00	44.00	43.00	41.00	34.00	33.00	35.00	39.00	32.00	17.00	7.00	7.00	7.00	7.00	7.00	7.00	7.00	7.00	7.00	7.00	7.00	7.00	7.00	7.00	7.00	7.00	7.00	7.00	7.00	7.00	7.00	7.00	7.00	7.00	7.00	7.00	7.00	7.00	7.00	7.00	7.00	7.00	7.00	7.00	7.00	7.00	7.00	7.00	7.00	7.00	7.00	7.00	7.00	7.00	7.00	7.00	7.00	7.00	7.00	7.00	7.00	7.00	7.00	7.00	7.00	7.00	7.00	7.00	7.00	7.00	7.00	7.00	7.00	7.00	7.00	7.00	7.00	7.00	7.00	7.00	7.00	7.00	7.00	7.00	7.00	7.00	7.00	7.00	7.00	7.00	7.00	7.00	7.00	7.00	7.00	7.00	7.00	7.00	7.00	7.00	7.00	7.00	7.00	7.00	7.00	7.00	7.00	7.00	7.00	7.00	7.00	7.00	7.00	7.00	7.00	7.00	7.00	7.00	7.00	7.00	7.00	7.00	7.00	7.00	7.00	7.00	7.00	7.00	7.00	7.00	7.00	7.00	7.00	7.00	7.00	7.00	7.00	7.00	7.00	7.00	7.00	7.00	7.00	7.00	7.00	7.00	7.00	7.00	7.00	7.00	7.00	7.00	7.00	7.00	7.00	7.00	7.00	7.00	7.00	7.00	7.00	7.00	7.00	5.00	4.00	4.00	4.00	4.00	4.00	5.00	12.00	14.00	16.00	18.00	19.00	17.00	21.00	28.00	29.00	38.00	45.00	49.00	51.00	52.00	55.00	58.00	61.00	63.00	59.00	60.00	67.00	67.00	71.00	76.00	81.00	79.00	73.00	73.00	77.00	80.00	89.00	99.00	101.00	106.00	114.00	142.00	159.00	178.00	198.00	216.00	257.00	268.00	277.00	283.00	285.00	283.00	278.00	269.00	249.00	211.00	202.00	191.00	183.00	166.00	159.00
7.00	7.00	7.00	7.00	7.00	8.00	22.00	34.00	46.00	47.00	47.00	48.00	46.00	47.00	49.00	49.00	49.00	46.00	53.00	54.00	55.00	54.00	53.00	50.00	47.00	40.00	29.00	27.00	25.00	30.00	36.00	37.00	37.00	36.00	33.00	23.00	23.00	27.00	32.00	20.00	8.00	7.00	7.00	7.00	7.00	7.00	7.00	7.00	7.00	7.00	7.00	7.00	7.00	7.00	7.00	7.00	7.00	7.00	7.00	7.00	7.00	7.00	7.00	7.00	7.00	7.00	7.00	7.00	7.00	7.00	7.00	7.00	7.00	7.00	7.00	7.00	7.00	7.00	7.00	7.00	7.00	7.00	7.00	7.00	7.00	7.00	7.00	7.00	7.00	7.00	7.00	7.00	7.00	7.00	7.00	7.00	7.00	7.00	7.00	7.00	7.00	7.00	7.00	7.00	7.00	7.00	7.00	7.00	7.00	7.00	7.00	7.00	7.00	7.00	7.00	7.00	7.00	7.00	7.00	7.00	7.00	7.00	7.00	7.00	7.00	7.00	7.00	7.00	7.00	7.00	7.00	7.00	7.00	7.00	7.00	7.00	7.00	7.00	7.00	7.00	7.00	7.00	7.00	7.00	7.00	7.00	7.00	7.00	7.00	7.00	7.00	7.00	7.00	7.00	7.00	7.00	7.00	7.00	7.00	7.00	7.00	7.00	7.00	7.00	7.00	7.00	7.00	7.00	7.00	7.00	7.00	7.00	7.00	7.00	7.00	7.00	7.00	7.00	7.00	7.00	7.00	7.00	7.00	7.00	7.00	7.00	7.00	7.00	7.00	7.00	7.00	7.00	7.00	7.00	6.00	4.00	4.00	4.00	4.00	4.00	4.00	11.00	19.00	27.00	31.00	36.00	36.00	37.00	40.00	38.00	38.00	37.00	37.00	32.00	33.00	37.00	40.00	39.00	38.00	43.00	49.00	50.00	53.00	56.00	55.00	61.00	59.00	55.00	59.00	64.00	66.00	72.00	78.00	83.00	88.00	96.00	114.00	127.00	140.00	156.00	171.00	215.00	230.00	246.00	260.00	274.00	272.00	261.00	245.00	223.00	184.00	172.00	156.00	149.00	136.00	132.00
7.00	7.00	7.00	7.00	7.00	8.00	22.00	34.00	46.00	47.00	47.00	48.00	46.00	47.00	49.00	49.00	49.00	46.00	53.00	54.00	55.00	54.00	53.00	50.00	47.00	40.00	29.00	27.00	25.00	30.00	36.00	37.00	37.00	36.00	33.00	23.00	23.00	27.00	32.00	20.00	8.00	7.00	7.00	7.00	7.00	7.00	7.00	7.00	7.00	7.00	7.00	7.00	7.00	7.00	7.00	7.00	7.00	7.00	7.00	7.00	7.00	7.00	7.00	7.00	7.00	7.00	7.00	7.00	7.00	7.00	7.00	7.00	7.00	7.00	7.00	7.00	7.00	7.00	7.00	7.00	7.00	7.00	7.00	7.00	7.00	7.00	7.00	7.00	7.00	7.00	7.00	7.00	7.00	7.00	7.00	7.00	7.00	7.00	7.00	7.00	7.00	7.00	7.00	7.00	7.00	7.00	7.00	7.00	7.00	7.00	7.00	7.00	7.00	7.00	7.00	7.00	7.00	7.00	7.00	7.00	7.00	7.00	7.00	7.00	7.00	7.00	7.00	7.00	7.00	7.00	7.00	7.00	7.00	7.00	7.00	7.00	7.00	7.00	7.00	7.00	7.00	7.00	7.00	7.00	7.00	7.00	7.00	7.00	7.00	7.00	7.00	7.00	7.00	7.00	7.00	7.00	7.00	7.00	7.00	7.00	7.00	7.00	7.00	7.00	7.00	7.00	7.00	7.00	7.00	7.00	7.00	7.00	7.00	7.00	7.00	7.00	7.00	7.00	7.00	7.00	7.00	7.00	7.00	7.00	7.00	7.00	7.00	7.00	7.00	7.00	7.00	7.00	7.00	7.00	6.00	4.00	4.00	4.00	4.00	4.00	4.00	11.00	19.00	27.00	31.00	36.00	36.00	37.00	40.00	38.00	38.00	37.00	37.00	32.00	33.00	37.00	40.00	39.00	38.00	43.00	49.00	50.00	53.00	56.00	55.00	61.00	59.00	55.00	59.00	64.00	66.00	72.00	78.00	83.00	88.00	96.00	114.00	127.00	140.00	156.00	171.00	215.00	230.00	246.00	260.00	274.00	272.00	261.00	245.00	223.00	184.00	172.00	156.00	149.00	136.00	132.00
7.00	7.00	7.00	7.00	7.00	8.00	31.00	45.00	50.00	49.00	48.00	36.00	31.00	41.00	39.00	31.00	25.00	24.00	28.00	29.00	28.00	41.00	49.00	52.00	52.00	50.00	44.00	42.00	41.00	38.00	14.00	12.00	11.00	12.00	12.00	11.00	11.00	13.00	21.00	8.00	7.00	7.00	7.00	7.00	7.00	7.00	7.00	7.00	7.00	7.00	7.00	7.00	7.00	7.00	7.00	7.00	7.00	7.00	7.00	7.00	7.00	7.00	7.00	7.00	7.00	7.00	7.00	7.00	7.00	7.00	7.00	7.00	7.00	7.00	7.00	7.00	7.00	7.00	7.00	7.00	7.00	7.00	7.00	7.00	7.00	7.00	7.00	7.00	7.00	7.00	7.00	7.00	7.00	7.00	7.00	7.00	7.00	7.00	7.00	7.00	7.00	7.00	7.00	7.00	7.00	7.00	7.00	7.00	7.00	7.00	7.00	7.00	7.00	7.00	7.00	7.00	7.00	7.00	7.00	7.00	7.00	7.00	7.00	7.00	7.00	7.00	7.00	7.00	7.00	7.00	7.00	7.00	7.00	7.00	7.00	7.00	7.00	7.00	7.00	7.00	7.00	7.00	7.00	7.00	7.00	7.00	7.00	7.00	7.00	7.00	7.00	7.00	7.00	7.00	7.00	7.00	7.00	7.00	7.00	7.00	7.00	7.00	7.00	7.00	7.00	7.00	7.00	7.00	7.00	7.00	7.00	7.00	7.00	7.00	7.00	7.00	7.00	7.00	7.00	7.00	7.00	7.00	7.00	7.00	7.00	7.00	7.00	7.00	7.00	7.00	7.00	7.00	7.00	7.00	7.00	4.00	4.00	4.00	4.00	4.00	6.00	19.00	24.00	28.00	33.00	31.00	30.00	31.00	33.00	48.00	49.00	47.00	46.00	48.00	48.00	48.00	52.00	57.00	60.00	59.00	61.00	64.00	72.00	76.00	72.00	71.00	68.00	70.00	74.00	77.00	78.00	82.00	87.00	90.00	92.00	95.00	106.00	115.00	125.00	136.00	148.00	196.00	213.00	230.00	247.00	262.00	261.00	252.00	237.00	222.00	189.00	175.00	155.00	147.00	131.00	124.00
7.00	7.00	7.00	7.00	7.00	8.00	31.00	45.00	50.00	49.00	48.00	36.00	31.00	41.00	39.00	31.00	25.00	24.00	28.00	29.00	28.00	41.00	49.00	52.00	52.00	50.00	44.00	42.00	41.00	38.00	14.00	12.00	11.00	12.00	12.00	11.00	11.00	13.00	21.00	8.00	7.00	7.00	7.00	7.00	7.00	7.00	7.00	7.00	7.00	7.00	7.00	7.00	7.00	7.00	7.00	7.00	7.00	7.00	7.00	7.00	7.00	7.00	7.00	7.00	7.00	7.00	7.00	7.00	7.00	7.00	7.00	7.00	7.00	7.00	7.00	7.00	7.00	7.00	7.00	7.00	7.00	7.00	7.00	7.00	7.00	7.00	7.00	7.00	7.00	7.00	7.00	7.00	7.00	7.00	7.00	7.00	7.00	7.00	7.00	7.00	7.00	7.00	7.00	7.00	7.00	7.00	7.00	7.00	7.00	7.00	7.00	7.00	7.00	7.00	7.00	7.00	7.00	7.00	7.00	7.00	7.00	7.00	7.00	7.00	7.00	7.00	7.00	7.00	7.00	7.00	7.00	7.00	7.00	7.00	7.00	7.00	7.00	7.00	7.00	7.00	7.00	7.00	7.00	7.00	7.00	7.00	7.00	7.00	7.00	7.00	7.00	7.00	7.00	7.00	7.00	7.00	7.00	7.00	7.00	7.00	7.00	7.00	7.00	7.00	7.00	7.00	7.00	7.00	7.00	7.00	7.00	7.00	7.00	7.00	7.00	7.00	7.00	7.00	7.00	7.00	7.00	7.00	7.00	7.00	7.00	7.00	7.00	7.00	7.00	7.00	7.00	7.00	7.00	7.00	7.00	4.00	4.00	4.00	4.00	4.00	6.00	19.00	24.00	28.00	33.00	31.00	30.00	31.00	33.00	48.00	49.00	47.00	46.00	48.00	48.00	48.00	52.00	57.00	60.00	59.00	61.00	64.00	72.00	76.00	72.00	71.00	68.00	70.00	74.00	77.00	78.00	82.00	87.00	90.00	92.00	95.00	106.00	115.00	125.00	136.00	148.00	196.00	213.00	230.00	247.00	262.00	261.00	252.00	237.00	222.00	189.00	175.00	155.00	147.00	131.00	124.00
7.00	7.00	7.00	7.00	7.00	7.00	14.00	41.00	53.00	49.00	39.00	12.00	16.00	32.00	31.00	19.00	15.00	20.00	21.00	19.00	13.00	12.00	15.00	18.00	20.00	20.00	25.00	35.00	44.00	46.00	33.00	10.00	10.00	10.00	10.00	11.00	10.00	10.00	15.00	7.00	7.00	7.00	7.00	7.00	7.00	7.00	7.00	7.00	7.00	7.00	7.00	7.00	7.00	7.00	7.00	7.00	7.00	7.00	7.00	7.00	7.00	7.00	7.00	7.00	7.00	7.00	7.00	7.00	7.00	7.00	7.00	7.00	7.00	7.00	7.00	7.00	7.00	7.00	7.00	7.00	7.00	7.00	7.00	7.00	7.00	7.00	7.00	7.00	7.00	7.00	7.00	7.00	7.00	7.00	7.00	7.00	7.00	7.00	7.00	7.00	7.00	7.00	7.00	7.00	7.00	7.00	7.00	7.00	7.00	7.00	7.00	7.00	7.00	7.00	7.00	7.00	7.00	7.00	7.00	7.00	7.00	7.00	7.00	7.00	7.00	7.00	7.00	7.00	7.00	7.00	7.00	7.00	7.00	7.00	7.00	7.00	7.00	7.00	7.00	7.00	7.00	7.00	7.00	7.00	7.00	7.00	7.00	7.00	7.00	7.00	7.00	7.00	7.00	7.00	7.00	7.00	7.00	7.00	7.00	7.00	7.00	7.00	7.00	7.00	7.00	7.00	7.00	7.00	7.00	7.00	7.00	7.00	7.00	7.00	7.00	7.00	7.00	7.00	7.00	7.00	7.00	7.00	7.00	7.00	7.00	7.00	7.00	7.00	7.00	7.00	7.00	7.00	7.00	7.00	7.00	5.00	4.00	4.00	4.00	4.00	17.00	17.00	16.00	17.00	16.00	21.00	35.00	45.00	49.00	46.00	52.00	51.00	41.00	34.00	39.00	41.00	41.00	45.00	57.00	62.00	79.00	82.00	85.00	91.00	93.00	97.00	94.00	90.00	95.00	98.00	100.00	109.00	118.00	122.00	126.00	128.00	130.00	133.00	142.00	155.00	170.00	212.00	229.00	245.00	258.00	269.00	266.00	256.00	241.00	224.00	192.00	178.00	156.00	148.00	133.00	128.00
7.00	7.00	7.00	7.00	7.00	7.00	14.00	41.00	53.00	49.00	39.00	12.00	16.00	32.00	31.00	19.00	15.00	20.00	21.00	19.00	13.00	12.00	15.00	18.00	20.00	20.00	25.00	35.00	44.00	46.00	33.00	10.00	10.00	10.00	10.00	11.00	10.00	10.00	15.00	7.00	7.00	7.00	7.00	7.00	7.00	7.00	7.00	7.00	7.00	7.00	7.00	7.00	7.00	7.00	7.00	7.00	7.00	7.00	7.00	7.00	7.00	7.00	7.00	7.00	7.00	7.00	7.00	7.00	7.00	7.00	7.00	7.00	7.00	7.00	7.00	7.00	7.00	7.00	7.00	7.00	7.00	7.00	7.00	7.00	7.00	7.00	7.00	7.00	7.00	7.00	7.00	7.00	7.00	7.00	7.00	7.00	7.00	7.00	7.00	7.00	7.00	7.00	7.00	7.00	7.00	7.00	7.00	7.00	7.00	7.00	7.00	7.00	7.00	7.00	7.00	7.00	7.00	7.00	7.00	7.00	7.00	7.00	7.00	7.00	7.00	7.00	7.00	7.00	7.00	7.00	7.00	7.00	7.00	7.00	7.00	7.00	7.00	7.00	7.00	7.00	7.00	7.00	7.00	7.00	7.00	7.00	7.00	7.00	7.00	7.00	7.00	7.00	7.00	7.00	7.00	7.00	7.00	7.00	7.00	7.00	7.00	7.00	7.00	7.00	7.00	7.00	7.00	7.00	7.00	7.00	7.00	7.00	7.00	7.00	7.00	7.00	7.00	7.00	7.00	7.00	7.00	7.00	7.00	7.00	7.00	7.00	7.00	7.00	7.00	7.00	7.00	7.00	7.00	7.00	7.00	5.00	4.00	4.00	4.00	4.00	17.00	17.00	16.00	17.00	16.00	21.00	35.00	45.00	49.00	46.00	52.00	51.00	41.00	34.00	39.00	41.00	41.00	45.00	57.00	62.00	79.00	82.00	85.00	91.00	93.00	97.00	94.00	90.00	95.00	98.00	100.00	109.00	118.00	122.00	126.00	128.00	130.00	133.00	142.00	155.00	170.00	212.00	229.00	245.00	258.00	269.00	266.00	256.00	241.00	224.00	192.00	178.00	156.00	148.00	133.00	128.00
7.00	7.00	7.00	7.00	7.00	7.00	19.00	37.00	30.00	18.00	12.00	10.00	12.00	16.00	17.00	14.00	10.00	11.00	11.00	12.00	15.00	14.00	14.00	14.00	13.00	11.00	10.00	19.00	40.00	46.00	40.00	26.00	18.00	15.00	13.00	15.00	14.00	14.00	16.00	7.00	7.00	7.00	7.00	7.00	7.00	7.00	7.00	7.00	7.00	7.00	7.00	7.00	7.00	7.00	7.00	7.00	7.00	7.00	7.00	7.00	7.00	7.00	7.00	7.00	7.00	7.00	7.00	7.00	7.00	7.00	7.00	7.00	7.00	7.00	7.00	7.00	7.00	7.00	7.00	7.00	7.00	7.00	7.00	7.00	7.00	7.00	7.00	7.00	7.00	7.00	7.00	7.00	7.00	7.00	7.00	7.00	7.00	7.00	7.00	7.00	7.00	7.00	7.00	7.00	7.00	7.00	7.00	7.00	7.00	7.00	7.00	7.00	7.00	7.00	7.00	7.00	7.00	7.00	7.00	7.00	7.00	7.00	7.00	7.00	7.00	7.00	7.00	7.00	7.00	7.00	7.00	7.00	7.00	7.00	7.00	7.00	7.00	7.00	7.00	7.00	7.00	7.00	7.00	7.00	7.00	7.00	7.00	7.00	7.00	7.00	7.00	7.00	7.00	7.00	7.00	7.00	7.00	7.00	7.00	7.00	7.00	7.00	7.00	7.00	7.00	7.00	7.00	7.00	7.00	7.00	7.00	7.00	7.00	7.00	7.00	7.00	7.00	7.00	7.00	7.00	7.00	7.00	7.00	7.00	7.00	7.00	7.00	7.00	7.00	7.00	7.00	7.00	7.00	7.00	7.00	6.00	4.00	4.00	4.00	13.00	44.00	40.00	35.00	30.00	29.00	26.00	21.00	18.00	22.00	24.00	29.00	31.00	34.00	35.00	42.00	48.00	52.00	55.00	58.00	60.00	69.00	76.00	83.00	100.00	109.00	120.00	121.00	119.00	124.00	130.00	137.00	149.00	158.00	161.00	163.00	168.00	177.00	177.00	179.00	187.00	199.00	239.00	253.00	267.00	278.00	281.00	273.00	260.00	244.00	229.00	199.00	187.00	166.00	155.00	144.00	144.00
7.00	7.00	7.00	7.00	7.00	7.00	19.00	37.00	30.00	18.00	12.00	10.00	12.00	16.00	17.00	14.00	10.00	11.00	11.00	12.00	15.00	14.00	14.00	14.00	13.00	11.00	10.00	19.00	40.00	46.00	40.00	26.00	18.00	15.00	13.00	15.00	14.00	14.00	16.00	7.00	7.00	7.00	7.00	7.00	7.00	7.00	7.00	7.00	7.00	7.00	7.00	7.00	7.00	7.00	7.00	7.00	7.00	7.00	7.00	7.00	7.00	7.00	7.00	7.00	7.00	7.00	7.00	7.00	7.00	7.00	7.00	7.00	7.00	7.00	7.00	7.00	7.00	7.00	7.00	7.00	7.00	7.00	7.00	7.00	7.00	7.00	7.00	7.00	7.00	7.00	7.00	7.00	7.00	7.00	7.00	7.00	7.00	7.00	7.00	7.00	7.00	7.00	7.00	7.00	7.00	7.00	7.00	7.00	7.00	7.00	7.00	7.00	7.00	7.00	7.00	7.00	7.00	7.00	7.00	7.00	7.00	7.00	7.00	7.00	7.00	7.00	7.00	7.00	7.00	7.00	7.00	7.00	7.00	7.00	7.00	7.00	7.00	7.00	7.00	7.00	7.00	7.00	7.00	7.00	7.00	7.00	7.00	7.00	7.00	7.00	7.00	7.00	7.00	7.00	7.00	7.00	7.00	7.00	7.00	7.00	7.00	7.00	7.00	7.00	7.00	7.00	7.00	7.00	7.00	7.00	7.00	7.00	7.00	7.00	7.00	7.00	7.00	7.00	7.00	7.00	7.00	7.00	7.00	7.00	7.00	7.00	7.00	7.00	7.00	7.00	7.00	7.00	7.00	7.00	7.00	6.00	4.00	4.00	4.00	13.00	44.00	40.00	35.00	30.00	29.00	26.00	21.00	18.00	22.00	24.00	29.00	31.00	34.00	35.00	42.00	48.00	52.00	55.00	58.00	60.00	69.00	76.00	83.00	100.00	109.00	120.00	121.00	119.00	124.00	130.00	137.00	149.00	158.00	161.00	163.00	168.00	177.00	177.00	179.00	187.00	199.00	239.00	253.00	267.00	278.00	281.00	273.00	260.00	244.00	229.00	199.00	187.00	166.00	155.00	144.00	144.00
7.00	7.00	7.00	7.00	7.00	7.00	19.00	37.00	30.00	18.00	12.00	10.00	12.00	16.00	17.00	14.00	10.00	11.00	11.00	12.00	15.00	14.00	14.00	14.00	13.00	11.00	10.00	19.00	40.00	46.00	40.00	26.00	18.00	15.00	13.00	15.00	14.00	14.00	16.00	7.00	7.00	7.00	7.00	7.00	7.00	7.00	7.00	7.00	7.00	7.00	7.00	7.00	7.00	7.00	7.00	7.00	7.00	7.00	7.00	7.00	7.00	7.00	7.00	7.00	7.00	7.00	7.00	7.00	7.00	7.00	7.00	7.00	7.00	7.00	7.00	7.00	7.00	7.00	7.00	7.00	7.00	7.00	7.00	7.00	7.00	7.00	7.00	7.00	7.00	7.00	7.00	7.00	7.00	7.00	7.00	7.00	7.00	7.00	7.00	7.00	7.00	7.00	7.00	7.00	7.00	7.00	7.00	7.00	7.00	7.00	7.00	7.00	7.00	7.00	7.00	7.00	7.00	7.00	7.00	7.00	7.00	7.00	7.00	7.00	7.00	7.00	7.00	7.00	7.00	7.00	7.00	7.00	7.00	7.00	7.00	7.00	7.00	7.00	7.00	7.00	7.00	7.00	7.00	7.00	7.00	7.00	7.00	7.00	7.00	7.00	7.00	7.00	7.00	7.00	7.00	7.00	7.00	7.00	7.00	7.00	7.00	7.00	7.00	7.00	7.00	7.00	7.00	7.00	7.00	7.00	7.00	7.00	7.00	7.00	7.00	7.00	7.00	7.00	7.00	7.00	7.00	7.00	7.00	7.00	7.00	7.00	7.00	7.00	7.00	7.00	7.00	7.00	7.00	7.00	7.00	6.00	4.00	4.00	4.00	13.00	44.00	40.00	35.00	30.00	29.00	26.00	21.00	18.00	22.00	24.00	29.00	31.00	34.00	35.00	42.00	48.00	52.00	55.00	58.00	60.00	69.00	76.00	83.00	100.00	109.00	120.00	121.00	119.00	124.00	130.00	137.00	149.00	158.00	161.00	163.00	168.00	177.00	177.00	179.00	187.00	199.00	239.00	253.00	267.00	278.00	281.00	273.00	260.00	244.00	229.00	199.00	187.00	166.00	155.00	144.00	144.00
13.00	11.00	9.00	10.00	15.00	20.00	15.00	10.00	10.00	10.00	10.00	10.00	10.00	10.00	10.00	10.00	10.00	18.00	19.00	18.00	22.00	11.00	11.00	11.00	11.00	11.00	13.00	26.00	33.00	33.00	29.00	20.00	19.00	20.00	21.00	21.00	20.00	19.00	18.00	7.00	7.00	7.00	7.00	7.00	7.00	7.00	7.00	7.00	7.00	7.00	7.00	7.00	7.00	7.00	7.00	7.00	7.00	7.00	7.00	7.00	7.00	7.00	7.00	7.00	7.00	7.00	7.00	7.00	7.00	7.00	7.00	7.00	7.00	7.00	7.00	7.00	7.00	7.00	7.00	7.00	7.00	7.00	7.00	7.00	7.00	7.00	7.00	7.00	7.00	7.00	7.00	7.00	7.00	7.00	7.00	7.00	7.00	7.00	7.00	7.00	7.00	7.00	7.00	7.00	7.00	7.00	7.00	7.00	7.00	7.00	7.00	7.00	7.00	7.00	7.00	7.00	7.00	7.00	7.00	7.00	7.00	7.00	7.00	7.00	7.00	7.00	7.00	7.00	7.00	7.00	7.00	7.00	7.00	7.00	7.00	7.00	7.00	7.00	7.00	7.00	7.00	7.00	7.00	7.00	7.00	7.00	7.00	7.00	7.00	7.00	7.00	7.00	7.00	7.00	7.00	7.00	7.00	7.00	7.00	7.00	7.00	7.00	7.00	7.00	7.00	7.00	7.00	7.00	7.00	7.00	7.00	7.00	7.00	7.00	7.00	7.00	7.00	7.00	7.00	7.00	7.00	7.00	7.00	7.00	7.00	7.00	7.00	7.00	7.00	7.00	7.00	7.00	7.00	7.00	7.00	5.00	4.00	4.00	4.00	26.00	41.00	40.00	39.00	41.00	42.00	42.00	39.00	36.00	33.00	39.00	42.00	44.00	46.00	48.00	51.00	54.00	56.00	60.00	68.00	72.00	80.00	85.00	92.00	110.00	120.00	130.00	134.00	139.00	150.00	161.00	171.00	186.00	200.00	207.00	212.00	217.00	232.00	238.00	247.00	255.00	261.00	289.00	296.00	298.00	299.00	295.00	286.00	274.00	260.00	247.00	219.00	209.00	194.00	190.00	190.00	188.00
13.00	11.00	9.00	10.00	15.00	20.00	15.00	10.00	10.00	10.00	10.00	10.00	10.00	10.00	10.00	10.00	10.00	18.00	19.00	18.00	22.00	11.00	11.00	11.00	11.00	11.00	13.00	26.00	33.00	33.00	29.00	20.00	19.00	20.00	21.00	21.00	20.00	19.00	18.00	7.00	7.00	7.00	7.00	7.00	7.00	7.00	7.00	7.00	7.00	7.00	7.00	7.00	7.00	7.00	7.00	7.00	7.00	7.00	7.00	7.00	7.00	7.00	7.00	7.00	7.00	7.00	7.00	7.00	7.00	7.00	7.00	7.00	7.00	7.00	7.00	7.00	7.00	7.00	7.00	7.00	7.00	7.00	7.00	7.00	7.00	7.00	7.00	7.00	7.00	7.00	7.00	7.00	7.00	7.00	7.00	7.00	7.00	7.00	7.00	7.00	7.00	7.00	7.00	7.00	7.00	7.00	7.00	7.00	7.00	7.00	7.00	7.00	7.00	7.00	7.00	7.00	7.00	7.00	7.00	7.00	7.00	7.00	7.00	7.00	7.00	7.00	7.00	7.00	7.00	7.00	7.00	7.00	7.00	7.00	7.00	7.00	7.00	7.00	7.00	7.00	7.00	7.00	7.00	7.00	7.00	7.00	7.00	7.00	7.00	7.00	7.00	7.00	7.00	7.00	7.00	7.00	7.00	7.00	7.00	7.00	7.00	7.00	7.00	7.00	7.00	7.00	7.00	7.00	7.00	7.00	7.00	7.00	7.00	7.00	7.00	7.00	7.00	7.00	7.00	7.00	7.00	7.00	7.00	7.00	7.00	7.00	7.00	7.00	7.00	7.00	7.00	7.00	7.00	7.00	7.00	5.00	4.00	4.00	4.00	26.00	41.00	40.00	39.00	41.00	42.00	42.00	39.00	36.00	33.00	39.00	42.00	44.00	46.00	48.00	51.00	54.00	56.00	60.00	68.00	72.00	80.00	85.00	92.00	110.00	120.00	130.00	134.00	139.00	150.00	161.00	171.00	186.00	200.00	207.00	212.00	217.00	232.00	238.00	247.00	255.00	261.00	289.00	296.00	298.00	299.00	295.00	286.00	274.00	260.00	247.00	219.00	209.00	194.00	190.00	190.00	188.00
7.00	8.00	10.00	21.00	23.00	14.00	10.00	10.00	10.00	10.00	10.00	10.00	10.00	10.00	10.00	10.00	10.00	28.00	39.00	41.00	41.00	23.00	13.00	11.00	12.00	15.00	38.00	40.00	38.00	34.00	26.00	26.00	26.00	26.00	23.00	21.00	21.00	20.00	20.00	7.00	7.00	7.00	7.00	7.00	7.00	7.00	7.00	7.00	7.00	7.00	7.00	7.00	7.00	7.00	7.00	7.00	7.00	7.00	7.00	7.00	7.00	7.00	7.00	7.00	7.00	7.00	7.00	7.00	7.00	7.00	7.00	7.00	7.00	7.00	7.00	7.00	7.00	7.00	7.00	7.00	7.00	7.00	7.00	7.00	7.00	7.00	7.00	7.00	7.00	7.00	7.00	7.00	7.00	7.00	7.00	7.00	7.00	7.00	7.00	7.00	7.00	7.00	7.00	7.00	7.00	7.00	7.00	7.00	7.00	7.00	7.00	7.00	7.00	7.00	7.00	7.00	7.00	7.00	7.00	7.00	7.00	7.00	7.00	7.00	7.00	7.00	7.00	7.00	7.00	7.00	7.00	7.00	7.00	7.00	7.00	7.00	7.00	7.00	7.00	7.00	7.00	7.00	7.00	7.00	7.00	7.00	7.00	7.00	7.00	7.00	7.00	7.00	7.00	7.00	7.00	7.00	7.00	7.00	7.00	7.00	7.00	7.00	7.00	7.00	7.00	7.00	7.00	7.00	7.00	7.00	7.00	7.00	7.00	7.00	7.00	7.00	7.00	7.00	7.00	7.00	7.00	7.00	7.00	7.00	7.00	7.00	7.00	7.00	7.00	7.00	7.00	7.00	7.00	7.00	6.00	4.00	4.00	4.00	8.00	44.00	53.00	54.00	52.00	51.00	52.00	55.00	56.00	56.00	56.00	54.00	55.00	55.00	55.00	54.00	57.00	56.00	56.00	59.00	70.00	78.00	94.00	101.00	110.00	130.00	140.00	149.00	154.00	166.00	178.00	190.00	201.00	223.00	246.00	257.00	265.00	274.00	294.00	302.00	310.00	317.00	321.00	325.00	325.00	325.00	323.00	315.00	309.00	300.00	290.00	282.00	266.00	261.00	251.00	254.00	264.00	264.00
7.00	8.00	10.00	21.00	23.00	14.00	10.00	10.00	10.00	10.00	10.00	10.00	10.00	10.00	10.00	10.00	10.00	28.00	39.00	41.00	41.00	23.00	13.00	11.00	12.00	15.00	38.00	40.00	38.00	34.00	26.00	26.00	26.00	26.00	23.00	21.00	21.00	20.00	20.00	7.00	7.00	7.00	7.00	7.00	7.00	7.00	7.00	7.00	7.00	7.00	7.00	7.00	7.00	7.00	7.00	7.00	7.00	7.00	7.00	7.00	7.00	7.00	7.00	7.00	7.00	7.00	7.00	7.00	7.00	7.00	7.00	7.00	7.00	7.00	7.00	7.00	7.00	7.00	7.00	7.00	7.00	7.00	7.00	7.00	7.00	7.00	7.00	7.00	7.00	7.00	7.00	7.00	7.00	7.00	7.00	7.00	7.00	7.00	7.00	7.00	7.00	7.00	7.00	7.00	7.00	7.00	7.00	7.00	7.00	7.00	7.00	7.00	7.00	7.00	7.00	7.00	7.00	7.00	7.00	7.00	7.00	7.00	7.00	7.00	7.00	7.00	7.00	7.00	7.00	7.00	7.00	7.00	7.00	7.00	7.00	7.00	7.00	7.00	7.00	7.00	7.00	7.00	7.00	7.00	7.00	7.00	7.00	7.00	7.00	7.00	7.00	7.00	7.00	7.00	7.00	7.00	7.00	7.00	7.00	7.00	7.00	7.00	7.00	7.00	7.00	7.00	7.00	7.00	7.00	7.00	7.00	7.00	7.00	7.00	7.00	7.00	7.00	7.00	7.00	7.00	7.00	7.00	7.00	7.00	7.00	7.00	7.00	7.00	7.00	7.00	7.00	7.00	7.00	7.00	6.00	4.00	4.00	4.00	8.00	44.00	53.00	54.00	52.00	51.00	52.00	55.00	56.00	56.00	56.00	54.00	55.00	55.00	55.00	54.00	57.00	56.00	56.00	59.00	70.00	78.00	94.00	101.00	110.00	130.00	140.00	149.00	154.00	166.00	178.00	190.00	201.00	223.00	246.00	257.00	265.00	274.00	294.00	302.00	310.00	317.00	321.00	325.00	325.00	325.00	323.00	315.00	309.00	300.00	290.00	282.00	266.00	261.00	251.00	254.00	264.00	264.00
7.00	7.00	7.00	7.00	7.00	8.00	10.00	10.00	10.00	10.00	10.00	10.00	10.00	10.00	10.00	10.00	10.00	38.00	41.00	36.00	35.00	41.00	38.00	35.00	38.00	40.00	42.00	41.00	41.00	42.00	43.00	43.00	42.00	41.00	38.00	27.00	22.00	19.00	15.00	7.00	7.00	7.00	7.00	7.00	7.00	7.00	7.00	7.00	7.00	7.00	7.00	7.00	7.00	7.00	7.00	7.00	7.00	7.00	7.00	7.00	7.00	7.00	7.00	7.00	7.00	7.00	7.00	7.00	7.00	7.00	7.00	7.00	7.00	7.00	7.00	7.00	7.00	7.00	7.00	7.00	7.00	7.00	7.00	7.00	7.00	7.00	7.00	7.00	7.00	7.00	7.00	7.00	7.00	7.00	7.00	7.00	7.00	7.00	7.00	7.00	7.00	7.00	7.00	7.00	7.00	7.00	7.00	7.00	7.00	7.00	7.00	7.00	7.00	7.00	7.00	7.00	7.00	7.00	7.00	7.00	7.00	7.00	7.00	7.00	7.00	7.00	7.00	7.00	7.00	7.00	7.00	7.00	7.00	7.00	7.00	7.00	7.00	7.00	7.00	7.00	7.00	7.00	7.00	7.00	7.00	7.00	7.00	7.00	7.00	7.00	7.00	7.00	7.00	7.00	7.00	7.00	7.00	7.00	7.00	7.00	7.00	7.00	7.00	7.00	7.00	7.00	7.00	7.00	7.00	7.00	7.00	7.00	7.00	7.00	7.00	7.00	7.00	7.00	7.00	7.00	7.00	7.00	7.00	7.00	7.00	7.00	7.00	7.00	7.00	7.00	7.00	7.00	7.00	6.00	4.00	4.00	4.00	7.00	32.00	55.00	59.00	61.00	63.00	65.00	66.00	68.00	70.00	71.00	71.00	74.00	75.00	74.00	74.00	73.00	72.00	73.00	75.00	77.00	82.00	88.00	103.00	112.00	123.00	142.00	153.00	169.00	178.00	197.00	209.00	221.00	232.00	255.00	273.00	281.00	288.00	294.00	304.00	307.00	309.00	313.00	315.00	313.00	312.00	310.00	309.00	298.00	297.00	298.00	299.00	300.00	300.00	304.00	313.00	320.00	338.00	339.00
7.00	7.00	7.00	7.00	7.00	8.00	10.00	10.00	10.00	10.00	10.00	10.00	10.00	10.00	10.00	10.00	10.00	38.00	41.00	36.00	35.00	41.00	38.00	35.00	38.00	40.00	42.00	41.00	41.00	42.00	43.00	43.00	42.00	41.00	38.00	27.00	22.00	19.00	15.00	7.00	7.00	7.00	7.00	7.00	7.00	7.00	7.00	7.00	7.00	7.00	7.00	7.00	7.00	7.00	7.00	7.00	7.00	7.00	7.00	7.00	7.00	7.00	7.00	7.00	7.00	7.00	7.00	7.00	7.00	7.00	7.00	7.00	7.00	7.00	7.00	7.00	7.00	7.00	7.00	7.00	7.00	7.00	7.00	7.00	7.00	7.00	7.00	7.00	7.00	7.00	7.00	7.00	7.00	7.00	7.00	7.00	7.00	7.00	7.00	7.00	7.00	7.00	7.00	7.00	7.00	7.00	7.00	7.00	7.00	7.00	7.00	7.00	7.00	7.00	7.00	7.00	7.00	7.00	7.00	7.00	7.00	7.00	7.00	7.00	7.00	7.00	7.00	7.00	7.00	7.00	7.00	7.00	7.00	7.00	7.00	7.00	7.00	7.00	7.00	7.00	7.00	7.00	7.00	7.00	7.00	7.00	7.00	7.00	7.00	7.00	7.00	7.00	7.00	7.00	7.00	7.00	7.00	7.00	7.00	7.00	7.00	7.00	7.00	7.00	7.00	7.00	7.00	7.00	7.00	7.00	7.00	7.00	7.00	7.00	7.00	7.00	7.00	7.00	7.00	7.00	7.00	7.00	7.00	7.00	7.00	7.00	7.00	7.00	7.00	7.00	7.00	7.00	7.00	6.00	4.00	4.00	4.00	7.00	32.00	55.00	59.00	61.00	63.00	65.00	66.00	68.00	70.00	71.00	71.00	74.00	75.00	74.00	74.00	73.00	72.00	73.00	75.00	77.00	82.00	88.00	103.00	112.00	123.00	142.00	153.00	169.00	178.00	197.00	209.00	221.00	232.00	255.00	273.00	281.00	288.00	294.00	304.00	307.00	309.00	313.00	315.00	313.00	312.00	310.00	309.00	298.00	297.00	298.00	299.00	300.00	300.00	304.00	313.00	320.00	338.00	339.00
7.00	7.00	7.00	7.00	7.00	8.00	20.00	26.00	13.00	13.00	12.00	11.00	10.00	10.00	10.00	10.00	10.00	16.00	24.00	29.00	32.00	37.00	38.00	38.00	37.00	38.00	42.00	42.00	44.00	45.00	45.00	43.00	42.00	41.00	39.00	31.00	26.00	23.00	21.00	7.00	7.00	7.00	7.00	7.00	7.00	7.00	7.00	7.00	7.00	7.00	7.00	7.00	7.00	7.00	7.00	7.00	7.00	7.00	7.00	7.00	7.00	7.00	7.00	7.00	7.00	7.00	7.00	7.00	7.00	7.00	7.00	7.00	7.00	7.00	7.00	7.00	7.00	7.00	7.00	7.00	7.00	7.00	7.00	7.00	7.00	7.00	7.00	7.00	7.00	7.00	7.00	7.00	7.00	7.00	7.00	7.00	7.00	7.00	7.00	7.00	7.00	7.00	7.00	7.00	7.00	7.00	7.00	7.00	7.00	7.00	7.00	7.00	7.00	7.00	7.00	7.00	7.00	7.00	7.00	7.00	7.00	7.00	7.00	7.00	7.00	7.00	7.00	7.00	7.00	7.00	7.00	7.00	7.00	7.00	7.00	7.00	7.00	7.00	7.00	7.00	7.00	7.00	7.00	7.00	7.00	7.00	7.00	7.00	7.00	7.00	7.00	7.00	7.00	7.00	7.00	7.00	7.00	7.00	7.00	7.00	7.00	6.00	6.00	6.00	6.00	5.00	5.00	5.00	5.00	5.00	5.00	6.00	6.00	7.00	7.00	7.00	7.00	7.00	7.00	7.00	7.00	7.00	7.00	7.00	7.00	7.00	7.00	7.00	7.00	7.00	7.00	7.00	6.00	4.00	4.00	4.00	4.00	15.00	41.00	45.00	47.00	50.00	53.00	54.00	56.00	62.00	65.00	66.00	68.00	71.00	72.00	73.00	73.00	73.00	72.00	73.00	74.00	77.00	85.00	92.00	110.00	121.00	131.00	149.00	159.00	174.00	181.00	196.00	207.00	218.00	228.00	250.00	269.00	276.00	281.00	284.00	281.00	275.00	271.00	267.00	264.00	263.00	262.00	257.00	250.00	239.00	242.00	248.00	253.00	258.00	272.00	283.00	309.00	320.00	334.00	336.00
7.00	7.00	7.00	7.00	7.00	8.00	20.00	26.00	13.00	13.00	12.00	11.00	10.00	10.00	10.00	10.00	10.00	16.00	24.00	29.00	32.00	37.00	38.00	38.00	37.00	38.00	42.00	42.00	44.00	45.00	45.00	43.00	42.00	41.00	39.00	31.00	26.00	23.00	21.00	7.00	7.00	7.00	7.00	7.00	7.00	7.00	7.00	7.00	7.00	7.00	7.00	7.00	7.00	7.00	7.00	7.00	7.00	7.00	7.00	7.00	7.00	7.00	7.00	7.00	7.00	7.00	7.00	7.00	7.00	7.00	7.00	7.00	7.00	7.00	7.00	7.00	7.00	7.00	7.00	7.00	7.00	7.00	7.00	7.00	7.00	7.00	7.00	7.00	7.00	7.00	7.00	7.00	7.00	7.00	7.00	7.00	7.00	7.00	7.00	7.00	7.00	7.00	7.00	7.00	7.00	7.00	7.00	7.00	7.00	7.00	7.00	7.00	7.00	7.00	7.00	7.00	7.00	7.00	7.00	7.00	7.00	7.00	7.00	7.00	7.00	7.00	7.00	7.00	7.00	7.00	7.00	7.00	7.00	7.00	7.00	7.00	7.00	7.00	7.00	7.00	7.00	7.00	7.00	7.00	7.00	7.00	7.00	7.00	7.00	7.00	7.00	7.00	7.00	7.00	7.00	7.00	7.00	7.00	7.00	7.00	7.00	6.00	6.00	6.00	6.00	5.00	5.00	5.00	5.00	5.00	5.00	6.00	6.00	7.00	7.00	7.00	7.00	7.00	7.00	7.00	7.00	7.00	7.00	7.00	7.00	7.00	7.00	7.00	7.00	7.00	7.00	7.00	6.00	4.00	4.00	4.00	4.00	15.00	41.00	45.00	47.00	50.00	53.00	54.00	56.00	62.00	65.00	66.00	68.00	71.00	72.00	73.00	73.00	73.00	72.00	73.00	74.00	77.00	85.00	92.00	110.00	121.00	131.00	149.00	159.00	174.00	181.00	196.00	207.00	218.00	228.00	250.00	269.00	276.00	281.00	284.00	281.00	275.00	271.00	267.00	264.00	263.00	262.00	257.00	250.00	239.00	242.00	248.00	253.00	258.00	272.00	283.00	309.00	320.00	334.00	336.00
7.00	7.00	7.00	7.00	7.00	8.00	20.00	26.00	13.00	13.00	12.00	11.00	10.00	10.00	10.00	10.00	10.00	16.00	24.00	29.00	32.00	37.00	38.00	38.00	37.00	38.00	42.00	42.00	44.00	45.00	45.00	43.00	42.00	41.00	39.00	31.00	26.00	23.00	21.00	7.00	7.00	7.00	7.00	7.00	7.00	7.00	7.00	7.00	7.00	7.00	7.00	7.00	7.00	7.00	7.00	7.00	7.00	7.00	7.00	7.00	7.00	7.00	7.00	7.00	7.00	7.00	7.00	7.00	7.00	7.00	7.00	7.00	7.00	7.00	7.00	7.00	7.00	7.00	7.00	7.00	7.00	7.00	7.00	7.00	7.00	7.00	7.00	7.00	7.00	7.00	7.00	7.00	7.00	7.00	7.00	7.00	7.00	7.00	7.00	7.00	7.00	7.00	7.00	7.00	7.00	7.00	7.00	7.00	7.00	7.00	7.00	7.00	7.00	7.00	7.00	7.00	7.00	7.00	7.00	7.00	7.00	7.00	7.00	7.00	7.00	7.00	7.00	7.00	7.00	7.00	7.00	7.00	7.00	7.00	7.00	7.00	7.00	7.00	7.00	7.00	7.00	7.00	7.00	7.00	7.00	7.00	7.00	7.00	7.00	7.00	7.00	7.00	7.00	7.00	7.00	7.00	7.00	7.00	7.00	7.00	7.00	6.00	6.00	6.00	6.00	5.00	5.00	5.00	5.00	5.00	5.00	6.00	6.00	7.00	7.00	7.00	7.00	7.00	7.00	7.00	7.00	7.00	7.00	7.00	7.00	7.00	7.00	7.00	7.00	7.00	7.00	7.00	6.00	4.00	4.00	4.00	4.00	15.00	41.00	45.00	47.00	50.00	53.00	54.00	56.00	62.00	65.00	66.00	68.00	71.00	72.00	73.00	73.00	73.00	72.00	73.00	74.00	77.00	85.00	92.00	110.00	121.00	131.00	149.00	159.00	174.00	181.00	196.00	207.00	218.00	228.00	250.00	269.00	276.00	281.00	284.00	281.00	275.00	271.00	267.00	264.00	263.00	262.00	257.00	250.00	239.00	242.00	248.00	253.00	258.00	272.00	283.00	309.00	320.00	334.00	336.00
7.00	7.00	7.00	7.00	7.00	15.00	36.00	42.00	11.00	10.00	11.00	12.00	12.00	11.00	11.00	11.00	11.00	11.00	19.00	30.00	31.00	25.00	28.00	27.00	30.00	34.00	38.00	39.00	41.00	41.00	41.00	40.00	40.00	41.00	42.00	36.00	28.00	23.00	22.00	12.00	7.00	7.00	7.00	7.00	7.00	7.00	7.00	7.00	7.00	7.00	7.00	7.00	7.00	7.00	7.00	7.00	7.00	7.00	7.00	7.00	7.00	7.00	7.00	7.00	7.00	7.00	7.00	7.00	7.00	7.00	7.00	7.00	7.00	7.00	7.00	7.00	7.00	7.00	7.00	7.00	7.00	7.00	7.00	7.00	7.00	7.00	7.00	7.00	7.00	7.00	7.00	7.00	7.00	7.00	7.00	7.00	7.00	7.00	7.00	7.00	7.00	7.00	7.00	7.00	7.00	7.00	7.00	7.00	7.00	7.00	7.00	7.00	7.00	7.00	7.00	7.00	7.00	7.00	7.00	7.00	7.00	7.00	7.00	7.00	7.00	7.00	7.00	7.00	7.00	7.00	7.00	7.00	7.00	7.00	7.00	7.00	7.00	7.00	7.00	7.00	7.00	7.00	7.00	7.00	7.00	7.00	7.00	7.00	7.00	7.00	7.00	7.00	7.00	7.00	7.00	7.00	6.00	5.00	5.00	5.00	4.00	4.00	4.00	4.00	4.00	4.00	4.00	4.00	4.00	5.00	6.00	6.00	6.00	5.00	5.00	5.00	6.00	6.00	7.00	7.00	7.00	7.00	7.00	7.00	7.00	7.00	7.00	7.00	7.00	7.00	6.00	5.00	4.00	4.00	4.00	4.00	5.00	22.00	34.00	36.00	39.00	41.00	42.00	44.00	47.00	56.00	61.00	63.00	63.00	55.00	52.00	53.00	56.00	60.00	68.00	70.00	73.00	75.00	79.00	82.00	96.00	107.00	117.00	135.00	143.00	156.00	162.00	176.00	186.00	195.00	205.00	222.00	233.00	237.00	238.00	237.00	235.00	232.00	230.00	227.00	225.00	213.00	210.00	205.00	198.00	185.00	180.00	185.00	192.00	203.00	227.00	240.00	261.00	267.00	270.00	265.00
7.00	7.00	7.00	7.00	7.00	15.00	36.00	42.00	11.00	10.00	11.00	12.00	12.00	11.00	11.00	11.00	11.00	11.00	19.00	30.00	31.00	25.00	28.00	27.00	30.00	34.00	38.00	39.00	41.00	41.00	41.00	40.00	40.00	41.00	42.00	36.00	28.00	23.00	22.00	12.00	7.00	7.00	7.00	7.00	7.00	7.00	7.00	7.00	7.00	7.00	7.00	7.00	7.00	7.00	7.00	7.00	7.00	7.00	7.00	7.00	7.00	7.00	7.00	7.00	7.00	7.00	7.00	7.00	7.00	7.00	7.00	7.00	7.00	7.00	7.00	7.00	7.00	7.00	7.00	7.00	7.00	7.00	7.00	7.00	7.00	7.00	7.00	7.00	7.00	7.00	7.00	7.00	7.00	7.00	7.00	7.00	7.00	7.00	7.00	7.00	7.00	7.00	7.00	7.00	7.00	7.00	7.00	7.00	7.00	7.00	7.00	7.00	7.00	7.00	7.00	7.00	7.00	7.00	7.00	7.00	7.00	7.00	7.00	7.00	7.00	7.00	7.00	7.00	7.00	7.00	7.00	7.00	7.00	7.00	7.00	7.00	7.00	7.00	7.00	7.00	7.00	7.00	7.00	7.00	7.00	7.00	7.00	7.00	7.00	7.00	7.00	7.00	7.00	7.00	7.00	7.00	6.00	5.00	5.00	5.00	4.00	4.00	4.00	4.00	4.00	4.00	4.00	4.00	4.00	5.00	6.00	6.00	6.00	5.00	5.00	5.00	6.00	6.00	7.00	7.00	7.00	7.00	7.00	7.00	7.00	7.00	7.00	7.00	7.00	7.00	6.00	5.00	4.00	4.00	4.00	4.00	5.00	22.00	34.00	36.00	39.00	41.00	42.00	44.00	47.00	56.00	61.00	63.00	63.00	55.00	52.00	53.00	56.00	60.00	68.00	70.00	73.00	75.00	79.00	82.00	96.00	107.00	117.00	135.00	143.00	156.00	162.00	176.00	186.00	195.00	205.00	222.00	233.00	237.00	238.00	237.00	235.00	232.00	230.00	227.00	225.00	213.00	210.00	205.00	198.00	185.00	180.00	185.00	192.00	203.00	227.00	240.00	261.00	267.00	270.00	265.00
7.00	11.00	15.00	20.00	30.00	40.00	43.00	41.00	10.00	10.00	10.00	10.00	10.00	10.00	10.00	10.00	10.00	11.00	11.00	14.00	13.00	11.00	17.00	21.00	22.00	22.00	22.00	22.00	24.00	24.00	35.00	38.00	39.00	40.00	40.00	41.00	38.00	30.00	19.00	13.00	7.00	7.00	7.00	7.00	7.00	7.00	7.00	7.00	7.00	7.00	7.00	7.00	7.00	7.00	7.00	7.00	7.00	7.00	7.00	7.00	7.00	7.00	7.00	7.00	7.00	7.00	7.00	7.00	7.00	7.00	7.00	7.00	7.00	7.00	7.00	7.00	7.00	7.00	7.00	7.00	7.00	7.00	7.00	7.00	7.00	7.00	7.00	7.00	7.00	7.00	7.00	7.00	7.00	7.00	7.00	7.00	7.00	7.00	7.00	7.00	7.00	7.00	7.00	7.00	7.00	7.00	7.00	7.00	7.00	7.00	7.00	7.00	7.00	7.00	7.00	7.00	7.00	7.00	7.00	7.00	7.00	7.00	7.00	7.00	7.00	7.00	7.00	7.00	7.00	7.00	7.00	7.00	7.00	7.00	7.00	7.00	7.00	7.00	7.00	7.00	7.00	7.00	7.00	7.00	7.00	7.00	7.00	7.00	7.00	7.00	7.00	7.00	7.00	6.00	5.00	4.00	4.00	4.00	4.00	4.00	4.00	4.00	4.00	4.00	4.00	4.00	4.00	4.00	4.00	4.00	4.00	4.00	5.00	6.00	6.00	6.00	5.00	4.00	5.00	5.00	5.00	5.00	6.00	6.00	6.00	6.00	6.00	6.00	5.00	4.00	4.00	4.00	4.00	4.00	4.00	4.00	5.00	24.00	34.00	36.00	34.00	33.00	35.00	37.00	39.00	46.00	49.00	51.00	52.00	41.00	42.00	47.00	52.00	55.00	56.00	55.00	56.00	60.00	70.00	76.00	85.00	91.00	98.00	113.00	121.00	131.00	135.00	141.00	151.00	161.00	171.00	188.00	203.00	207.00	209.00	205.00	191.00	185.00	180.00	180.00	183.00	177.00	173.00	169.00	164.00	158.00	150.00	153.00	167.00	178.00	200.00	209.00	223.00	226.00	217.00	207.00
7.00	11.00	15.00	20.00	30.00	40.00	43.00	41.00	10.00	10.00	10.00	10.00	10.00	10.00	10.00	10.00	10.00	11.00	11.00	14.00	13.00	11.00	17.00	21.00	22.00	22.00	22.00	22.00	24.00	24.00	35.00	38.00	39.00	40.00	40.00	41.00	38.00	30.00	19.00	13.00	7.00	7.00	7.00	7.00	7.00	7.00	7.00	7.00	7.00	7.00	7.00	7.00	7.00	7.00	7.00	7.00	7.00	7.00	7.00	7.00	7.00	7.00	7.00	7.00	7.00	7.00	7.00	7.00	7.00	7.00	7.00	7.00	7.00	7.00	7.00	7.00	7.00	7.00	7.00	7.00	7.00	7.00	7.00	7.00	7.00	7.00	7.00	7.00	7.00	7.00	7.00	7.00	7.00	7.00	7.00	7.00	7.00	7.00	7.00	7.00	7.00	7.00	7.00	7.00	7.00	7.00	7.00	7.00	7.00	7.00	7.00	7.00	7.00	7.00	7.00	7.00	7.00	7.00	7.00	7.00	7.00	7.00	7.00	7.00	7.00	7.00	7.00	7.00	7.00	7.00	7.00	7.00	7.00	7.00	7.00	7.00	7.00	7.00	7.00	7.00	7.00	7.00	7.00	7.00	7.00	7.00	7.00	7.00	7.00	7.00	7.00	7.00	7.00	6.00	5.00	4.00	4.00	4.00	4.00	4.00	4.00	4.00	4.00	4.00	4.00	4.00	4.00	4.00	4.00	4.00	4.00	4.00	5.00	6.00	6.00	6.00	5.00	4.00	5.00	5.00	5.00	5.00	6.00	6.00	6.00	6.00	6.00	6.00	5.00	4.00	4.00	4.00	4.00	4.00	4.00	4.00	5.00	24.00	34.00	36.00	34.00	33.00	35.00	37.00	39.00	46.00	49.00	51.00	52.00	41.00	42.00	47.00	52.00	55.00	56.00	55.00	56.00	60.00	70.00	76.00	85.00	91.00	98.00	113.00	121.00	131.00	135.00	141.00	151.00	161.00	171.00	188.00	203.00	207.00	209.00	205.00	191.00	185.00	180.00	180.00	183.00	177.00	173.00	169.00	164.00	158.00	150.00	153.00	167.00	178.00	200.00	209.00	223.00	226.00	217.00	207.00
22.00	32.00	20.00	29.00	35.00	35.00	29.00	24.00	13.00	10.00	10.00	11.00	10.00	10.00	10.00	10.00	10.00	11.00	11.00	10.00	10.00	17.00	15.00	10.00	10.00	10.00	11.00	12.00	12.00	21.00	42.00	41.00	40.00	39.00	39.00	37.00	37.00	36.00	34.00	26.00	13.00	7.00	7.00	7.00	7.00	7.00	7.00	7.00	7.00	7.00	7.00	7.00	7.00	7.00	7.00	7.00	7.00	7.00	7.00	7.00	7.00	7.00	7.00	7.00	7.00	7.00	7.00	7.00	7.00	6.00	7.00	7.00	7.00	7.00	7.00	7.00	7.00	7.00	7.00	7.00	7.00	7.00	7.00	7.00	7.00	7.00	7.00	7.00	7.00	7.00	7.00	7.00	7.00	7.00	7.00	7.00	7.00	7.00	7.00	7.00	7.00	7.00	7.00	7.00	7.00	7.00	7.00	7.00	7.00	7.00	7.00	7.00	7.00	7.00	7.00	7.00	7.00	7.00	7.00	7.00	7.00	7.00	7.00	7.00	7.00	7.00	7.00	7.00	7.00	7.00	7.00	7.00	7.00	7.00	7.00	7.00	7.00	7.00	7.00	7.00	7.00	7.00	7.00	7.00	7.00	7.00	7.00	7.00	6.00	6.00	5.00	4.00	4.00	4.00	4.00	4.00	4.00	4.00	4.00	4.00	4.00	5.00	6.00	6.00	6.00	6.00	6.00	6.00	5.00	5.00	4.00	4.00	4.00	4.00	4.00	4.00	4.00	4.00	4.00	4.00	4.00	4.00	4.00	4.00	4.00	4.00	4.00	4.00	4.00	4.00	4.00	4.00	4.00	4.00	4.00	4.00	7.00	21.00	31.00	40.00	50.00	49.00	47.00	45.00	44.00	40.00	37.00	36.00	36.00	34.00	37.00	41.00	44.00	47.00	53.00	61.00	68.00	72.00	71.00	68.00	74.00	77.00	81.00	92.00	99.00	108.00	110.00	116.00	122.00	129.00	139.00	162.00	181.00	185.00	185.00	179.00	165.00	157.00	148.00	145.00	147.00	147.00	143.00	140.00	136.00	135.00	129.00	130.00	145.00	157.00	177.00	182.00	187.00	185.00	172.00	163.00
22.00	32.00	20.00	29.00	35.00	35.00	29.00	24.00	13.00	10.00	10.00	11.00	10.00	10.00	10.00	10.00	10.00	11.00	11.00	10.00	10.00	17.00	15.00	10.00	10.00	10.00	11.00	12.00	12.00	21.00	42.00	41.00	40.00	39.00	39.00	37.00	37.00	36.00	34.00	26.00	13.00	7.00	7.00	7.00	7.00	7.00	7.00	7.00	7.00	7.00	7.00	7.00	7.00	7.00	7.00	7.00	7.00	7.00	7.00	7.00	7.00	7.00	7.00	7.00	7.00	7.00	7.00	7.00	7.00	6.00	7.00	7.00	7.00	7.00	7.00	7.00	7.00	7.00	7.00	7.00	7.00	7.00	7.00	7.00	7.00	7.00	7.00	7.00	7.00	7.00	7.00	7.00	7.00	7.00	7.00	7.00	7.00	7.00	7.00	7.00	7.00	7.00	7.00	7.00	7.00	7.00	7.00	7.00	7.00	7.00	7.00	7.00	7.00	7.00	7.00	7.00	7.00	7.00	7.00	7.00	7.00	7.00	7.00	7.00	7.00	7.00	7.00	7.00	7.00	7.00	7.00	7.00	7.00	7.00	7.00	7.00	7.00	7.00	7.00	7.00	7.00	7.00	7.00	7.00	7.00	7.00	7.00	7.00	6.00	6.00	5.00	4.00	4.00	4.00	4.00	4.00	4.00	4.00	4.00	4.00	4.00	5.00	6.00	6.00	6.00	6.00	6.00	6.00	5.00	5.00	4.00	4.00	4.00	4.00	4.00	4.00	4.00	4.00	4.00	4.00	4.00	4.00	4.00	4.00	4.00	4.00	4.00	4.00	4.00	4.00	4.00	4.00	4.00	4.00	4.00	4.00	7.00	21.00	31.00	40.00	50.00	49.00	47.00	45.00	44.00	40.00	37.00	36.00	36.00	34.00	37.00	41.00	44.00	47.00	53.00	61.00	68.00	72.00	71.00	68.00	74.00	77.00	81.00	92.00	99.00	108.00	110.00	116.00	122.00	129.00	139.00	162.00	181.00	185.00	185.00	179.00	165.00	157.00	148.00	145.00	147.00	147.00	143.00	140.00	136.00	135.00	129.00	130.00	145.00	157.00	177.00	182.00	187.00	185.00	172.00	163.00
37.00	34.00	25.00	16.00	19.00	17.00	21.00	27.00	35.00	28.00	20.00	10.00	12.00	12.00	11.00	12.00	14.00	29.00	28.00	27.00	27.00	19.00	32.00	27.00	20.00	13.00	13.00	15.00	18.00	26.00	41.00	43.00	39.00	34.00	30.00	32.00	35.00	37.00	37.00	34.00	31.00	20.00	7.00	7.00	7.00	7.00	7.00	7.00	7.00	7.00	7.00	7.00	7.00	7.00	7.00	7.00	7.00	7.00	7.00	7.00	7.00	7.00	7.00	6.00	6.00	5.00	5.00	5.00	5.00	6.00	6.00	6.00	5.00	6.00	5.00	6.00	7.00	7.00	7.00	7.00	7.00	7.00	7.00	7.00	7.00	7.00	7.00	7.00	7.00	7.00	7.00	7.00	7.00	7.00	7.00	7.00	7.00	7.00	7.00	7.00	7.00	7.00	7.00	7.00	7.00	7.00	7.00	7.00	7.00	7.00	7.00	7.00	7.00	7.00	7.00	7.00	7.00	7.00	7.00	7.00	7.00	7.00	7.00	7.00	7.00	7.00	7.00	7.00	7.00	7.00	7.00	6.00	6.00	6.00	6.00	6.00	6.00	5.00	5.00	5.00	5.00	5.00	5.00	5.00	6.00	6.00	6.00	4.00	4.00	4.00	4.00	4.00	4.00	4.00	4.00	5.00	6.00	7.00	7.00	7.00	7.00	7.00	7.00	7.00	7.00	7.00	7.00	7.00	7.00	7.00	7.00	7.00	7.00	7.00	6.00	6.00	5.00	5.00	4.00	4.00	4.00	4.00	4.00	5.00	5.00	5.00	5.00	6.00	6.00	6.00	6.00	6.00	6.00	6.00	6.00	7.00	17.00	20.00	21.00	30.00	43.00	54.00	61.00	61.00	60.00	58.00	58.00	58.00	58.00	56.00	55.00	54.00	52.00	52.00	54.00	57.00	58.00	60.00	58.00	61.00	68.00	70.00	73.00	80.00	86.00	93.00	95.00	99.00	106.00	114.00	123.00	147.00	169.00	177.00	180.00	177.00	158.00	147.00	137.00	128.00	122.00	118.00	116.00	114.00	113.00	113.00	112.00	110.00	122.00	132.00	142.00	145.00	150.00	150.00	142.00	136.00
37.00	34.00	25.00	16.00	19.00	17.00	21.00	27.00	35.00	28.00	20.00	10.00	12.00	12.00	11.00	12.00	14.00	29.00	28.00	27.00	27.00	19.00	32.00	27.00	20.00	13.00	13.00	15.00	18.00	26.00	41.00	43.00	39.00	34.00	30.00	32.00	35.00	37.00	37.00	34.00	31.00	20.00	7.00	7.00	7.00	7.00	7.00	7.00	7.00	7.00	7.00	7.00	7.00	7.00	7.00	7.00	7.00	7.00	7.00	7.00	7.00	7.00	7.00	6.00	6.00	5.00	5.00	5.00	5.00	6.00	6.00	6.00	5.00	6.00	5.00	6.00	7.00	7.00	7.00	7.00	7.00	7.00	7.00	7.00	7.00	7.00	7.00	7.00	7.00	7.00	7.00	7.00	7.00	7.00	7.00	7.00	7.00	7.00	7.00	7.00	7.00	7.00	7.00	7.00	7.00	7.00	7.00	7.00	7.00	7.00	7.00	7.00	7.00	7.00	7.00	7.00	7.00	7.00	7.00	7.00	7.00	7.00	7.00	7.00	7.00	7.00	7.00	7.00	7.00	7.00	7.00	6.00	6.00	6.00	6.00	6.00	6.00	5.00	5.00	5.00	5.00	5.00	5.00	5.00	6.00	6.00	6.00	4.00	4.00	4.00	4.00	4.00	4.00	4.00	4.00	5.00	6.00	7.00	7.00	7.00	7.00	7.00	7.00	7.00	7.00	7.00	7.00	7.00	7.00	7.00	7.00	7.00	7.00	7.00	6.00	6.00	5.00	5.00	4.00	4.00	4.00	4.00	4.00	5.00	5.00	5.00	5.00	6.00	6.00	6.00	6.00	6.00	6.00	6.00	6.00	7.00	17.00	20.00	21.00	30.00	43.00	54.00	61.00	61.00	60.00	58.00	58.00	58.00	58.00	56.00	55.00	54.00	52.00	52.00	54.00	57.00	58.00	60.00	58.00	61.00	68.00	70.00	73.00	80.00	86.00	93.00	95.00	99.00	106.00	114.00	123.00	147.00	169.00	177.00	180.00	177.00	158.00	147.00	137.00	128.00	122.00	118.00	116.00	114.00	113.00	113.00	112.00	110.00	122.00	132.00	142.00	145.00	150.00	150.00	142.00	136.00
23.00	23.00	17.00	34.00	40.00	44.00	46.00	46.00	44.00	42.00	40.00	31.00	35.00	37.00	38.00	37.00	38.00	37.00	36.00	32.00	28.00	21.00	25.00	26.00	24.00	23.00	29.00	29.00	30.00	31.00	35.00	30.00	23.00	17.00	16.00	26.00	30.00	31.00	32.00	32.00	31.00	30.00	20.00	16.00	9.00	7.00	7.00	7.00	7.00	7.00	7.00	7.00	7.00	7.00	7.00	7.00	7.00	7.00	7.00	7.00	7.00	5.00	4.00	4.00	4.00	4.00	4.00	5.00	5.00	6.00	6.00	7.00	7.00	7.00	7.00	5.00	5.00	5.00	6.00	7.00	7.00	7.00	7.00	7.00	7.00	7.00	7.00	6.00	7.00	7.00	7.00	7.00	7.00	7.00	7.00	7.00	7.00	7.00	7.00	7.00	7.00	7.00	7.00	7.00	7.00	7.00	7.00	7.00	7.00	7.00	7.00	7.00	7.00	7.00	7.00	7.00	7.00	7.00	7.00	7.00	7.00	7.00	7.00	7.00	7.00	7.00	7.00	6.00	5.00	4.00	4.00	4.00	4.00	4.00	4.00	4.00	4.00	4.00	4.00	5.00	5.00	5.00	5.00	5.00	5.00	5.00	5.00	6.00	6.00	7.00	6.00	4.00	5.00	6.00	7.00	7.00	7.00	7.00	7.00	7.00	7.00	7.00	7.00	7.00	7.00	7.00	7.00	7.00	7.00	7.00	7.00	7.00	7.00	7.00	7.00	7.00	7.00	7.00	7.00	7.00	7.00	7.00	7.00	7.00	7.00	7.00	7.00	7.00	7.00	7.00	7.00	7.00	9.00	13.00	20.00	18.00	23.00	24.00	24.00	28.00	45.00	51.00	54.00	54.00	53.00	53.00	55.00	57.00	59.00	65.00	68.00	70.00	73.00	74.00	71.00	70.00	70.00	70.00	74.00	73.00	71.00	71.00	74.00	78.00	81.00	87.00	88.00	92.00	100.00	110.00	118.00	141.00	163.00	173.00	178.00	178.00	165.00	155.00	146.00	136.00	129.00	112.00	106.00	100.00	96.00	92.00	99.00	95.00	94.00	101.00	113.00	113.00	119.00	118.00	113.00	108.00
23.00	23.00	17.00	34.00	40.00	44.00	46.00	46.00	44.00	42.00	40.00	31.00	35.00	37.00	38.00	37.00	38.00	37.00	36.00	32.00	28.00	21.00	25.00	26.00	24.00	23.00	29.00	29.00	30.00	31.00	35.00	30.00	23.00	17.00	16.00	26.00	30.00	31.00	32.00	32.00	31.00	30.00	20.00	16.00	9.00	7.00	7.00	7.00	7.00	7.00	7.00	7.00	7.00	7.00	7.00	7.00	7.00	7.00	7.00	7.00	7.00	5.00	4.00	4.00	4.00	4.00	4.00	5.00	5.00	6.00	6.00	7.00	7.00	7.00	7.00	5.00	5.00	5.00	6.00	7.00	7.00	7.00	7.00	7.00	7.00	7.00	7.00	6.00	7.00	7.00	7.00	7.00	7.00	7.00	7.00	7.00	7.00	7.00	7.00	7.00	7.00	7.00	7.00	7.00	7.00	7.00	7.00	7.00	7.00	7.00	7.00	7.00	7.00	7.00	7.00	7.00	7.00	7.00	7.00	7.00	7.00	7.00	7.00	7.00	7.00	7.00	7.00	6.00	5.00	4.00	4.00	4.00	4.00	4.00	4.00	4.00	4.00	4.00	4.00	5.00	5.00	5.00	5.00	5.00	5.00	5.00	5.00	6.00	6.00	7.00	6.00	4.00	5.00	6.00	7.00	7.00	7.00	7.00	7.00	7.00	7.00	7.00	7.00	7.00	7.00	7.00	7.00	7.00	7.00	7.00	7.00	7.00	7.00	7.00	7.00	7.00	7.00	7.00	7.00	7.00	7.00	7.00	7.00	7.00	7.00	7.00	7.00	7.00	7.00	7.00	7.00	7.00	9.00	13.00	20.00	18.00	23.00	24.00	24.00	28.00	45.00	51.00	54.00	54.00	53.00	53.00	55.00	57.00	59.00	65.00	68.00	70.00	73.00	74.00	71.00	70.00	70.00	70.00	74.00	73.00	71.00	71.00	74.00	78.00	81.00	87.00	88.00	92.00	100.00	110.00	118.00	141.00	163.00	173.00	178.00	178.00	165.00	155.00	146.00	136.00	129.00	112.00	106.00	100.00	96.00	92.00	99.00	95.00	94.00	101.00	113.00	113.00	119.00	118.00	113.00	108.00
23.00	23.00	17.00	34.00	40.00	44.00	46.00	46.00	44.00	42.00	40.00	31.00	35.00	37.00	38.00	37.00	38.00	37.00	36.00	32.00	28.00	21.00	25.00	26.00	24.00	23.00	29.00	29.00	30.00	31.00	35.00	30.00	23.00	17.00	16.00	26.00	30.00	31.00	32.00	32.00	31.00	30.00	20.00	16.00	9.00	7.00	7.00	7.00	7.00	7.00	7.00	7.00	7.00	7.00	7.00	7.00	7.00	7.00	7.00	7.00	7.00	5.00	4.00	4.00	4.00	4.00	4.00	5.00	5.00	6.00	6.00	7.00	7.00	7.00	7.00	5.00	5.00	5.00	6.00	7.00	7.00	7.00	7.00	7.00	7.00	7.00	7.00	6.00	7.00	7.00	7.00	7.00	7.00	7.00	7.00	7.00	7.00	7.00	7.00	7.00	7.00	7.00	7.00	7.00	7.00	7.00	7.00	7.00	7.00	7.00	7.00	7.00	7.00	7.00	7.00	7.00	7.00	7.00	7.00	7.00	7.00	7.00	7.00	7.00	7.00	7.00	7.00	6.00	5.00	4.00	4.00	4.00	4.00	4.00	4.00	4.00	4.00	4.00	4.00	5.00	5.00	5.00	5.00	5.00	5.00	5.00	5.00	6.00	6.00	7.00	6.00	4.00	5.00	6.00	7.00	7.00	7.00	7.00	7.00	7.00	7.00	7.00	7.00	7.00	7.00	7.00	7.00	7.00	7.00	7.00	7.00	7.00	7.00	7.00	7.00	7.00	7.00	7.00	7.00	7.00	7.00	7.00	7.00	7.00	7.00	7.00	7.00	7.00	7.00	7.00	7.00	7.00	9.00	13.00	20.00	18.00	23.00	24.00	24.00	28.00	45.00	51.00	54.00	54.00	53.00	53.00	55.00	57.00	59.00	65.00	68.00	70.00	73.00	74.00	71.00	70.00	70.00	70.00	74.00	73.00	71.00	71.00	74.00	78.00	81.00	87.00	88.00	92.00	100.00	110.00	118.00	141.00	163.00	173.00	178.00	178.00	165.00	155.00	146.00	136.00	129.00	112.00	106.00	100.00	96.00	92.00	99.00	95.00	94.00	101.00	113.00	113.00	119.00	118.00	113.00	108.00
23.00	23.00	17.00	34.00	40.00	44.00	46.00	46.00	44.00	42.00	40.00	31.00	35.00	37.00	38.00	37.00	38.00	37.00	36.00	32.00	28.00	21.00	25.00	26.00	24.00	23.00	29.00	29.00	30.00	31.00	35.00	30.00	23.00	17.00	16.00	26.00	30.00	31.00	32.00	32.00	31.00	30.00	20.00	16.00	9.00	7.00	7.00	7.00	7.00	7.00	7.00	7.00	7.00	7.00	7.00	7.00	7.00	7.00	7.00	7.00	7.00	5.00	4.00	4.00	4.00	4.00	4.00	5.00	5.00	6.00	6.00	7.00	7.00	7.00	7.00	5.00	5.00	5.00	6.00	7.00	7.00	7.00	7.00	7.00	7.00	7.00	7.00	6.00	7.00	7.00	7.00	7.00	7.00	7.00	7.00	7.00	7.00	7.00	7.00	7.00	7.00	7.00	7.00	7.00	7.00	7.00	7.00	7.00	7.00	7.00	7.00	7.00	7.00	7.00	7.00	7.00	7.00	7.00	7.00	7.00	7.00	7.00	7.00	7.00	7.00	7.00	7.00	6.00	5.00	4.00	4.00	4.00	4.00	4.00	4.00	4.00	4.00	4.00	4.00	5.00	5.00	5.00	5.00	5.00	5.00	5.00	5.00	6.00	6.00	7.00	6.00	4.00	5.00	6.00	7.00	7.00	7.00	7.00	7.00	7.00	7.00	7.00	7.00	7.00	7.00	7.00	7.00	7.00	7.00	7.00	7.00	7.00	7.00	7.00	7.00	7.00	7.00	7.00	7.00	7.00	7.00	7.00	7.00	7.00	7.00	7.00	7.00	7.00	7.00	7.00	7.00	7.00	9.00	13.00	20.00	18.00	23.00	24.00	24.00	28.00	45.00	51.00	54.00	54.00	53.00	53.00	55.00	57.00	59.00	65.00	68.00	70.00	73.00	74.00	71.00	70.00	70.00	70.00	74.00	73.00	71.00	71.00	74.00	78.00	81.00	87.00	88.00	92.00	100.00	110.00	118.00	141.00	163.00	173.00	178.00	178.00	165.00	155.00	146.00	136.00	129.00	112.00	106.00	100.00	96.00	92.00	99.00	95.00	94.00	101.00	113.00	113.00	119.00	118.00	113.00	108.00
17.00	13.00	12.00	35.00	39.00	40.00	42.00	43.00	45.00	46.00	46.00	41.00	33.00	30.00	29.00	24.00	20.00	18.00	15.00	9.00	9.00	14.00	14.00	14.00	15.00	16.00	19.00	19.00	22.00	24.00	22.00	15.00	24.00	28.00	29.00	32.00	33.00	34.00	34.00	33.00	32.00	31.00	31.00	31.00	29.00	23.00	10.00	7.00	7.00	7.00	7.00	7.00	7.00	7.00	7.00	7.00	7.00	7.00	7.00	6.00	4.00	4.00	4.00	6.00	7.00	7.00	7.00	7.00	6.00	6.00	5.00	5.00	4.00	4.00	4.00	4.00	4.00	4.00	4.00	4.00	4.00	5.00	5.00	5.00	5.00	4.00	4.00	4.00	4.00	4.00	5.00	5.00	5.00	6.00	7.00	7.00	7.00	7.00	7.00	7.00	7.00	7.00	7.00	7.00	7.00	7.00	7.00	7.00	7.00	7.00	7.00	7.00	7.00	7.00	7.00	7.00	7.00	7.00	7.00	7.00	7.00	7.00	7.00	7.00	7.00	6.00	4.00	4.00	4.00	4.00	4.00	4.00	4.00	4.00	4.00	4.00	4.00	4.00	4.00	4.00	5.00	6.00	6.00	6.00	6.00	6.00	6.00	5.00	4.00	4.00	5.00	7.00	7.00	7.00	7.00	7.00	7.00	7.00	7.00	7.00	7.00	7.00	7.00	8.00	12.00	21.00	22.00	22.00	12.00	7.00	7.00	7.00	7.00	7.00	7.00	7.00	7.00	7.00	7.00	7.00	7.00	7.00	7.00	7.00	8.00	9.00	10.00	12.00	12.00	17.00	13.00	10.00	13.00	14.00	14.00	17.00	36.00	39.00	41.00	31.00	43.00	41.00	39.00	39.00	39.00	45.00	50.00	56.00	61.00	74.00	77.00	80.00	83.00	82.00	82.00	78.00	75.00	79.00	83.00	83.00	83.00	84.00	85.00	86.00	88.00	92.00	89.00	93.00	101.00	110.00	119.00	141.00	160.00	170.00	178.00	182.00	175.00	167.00	155.00	145.00	137.00	120.00	115.00	109.00	105.00	92.00	87.00	85.00	83.00	79.00	86.00	85.00	93.00	90.00	91.00	85.00
17.00	13.00	12.00	35.00	39.00	40.00	42.00	43.00	45.00	46.00	46.00	41.00	33.00	30.00	29.00	24.00	20.00	18.00	15.00	9.00	9.00	14.00	14.00	14.00	15.00	16.00	19.00	19.00	22.00	24.00	22.00	15.00	24.00	28.00	29.00	32.00	33.00	34.00	34.00	33.00	32.00	31.00	31.00	31.00	29.00	23.00	10.00	7.00	7.00	7.00	7.00	7.00	7.00	7.00	7.00	7.00	7.00	7.00	7.00	6.00	4.00	4.00	4.00	6.00	7.00	7.00	7.00	7.00	6.00	6.00	5.00	5.00	4.00	4.00	4.00	4.00	4.00	4.00	4.00	4.00	4.00	5.00	5.00	5.00	5.00	4.00	4.00	4.00	4.00	4.00	5.00	5.00	5.00	6.00	7.00	7.00	7.00	7.00	7.00	7.00	7.00	7.00	7.00	7.00	7.00	7.00	7.00	7.00	7.00	7.00	7.00	7.00	7.00	7.00	7.00	7.00	7.00	7.00	7.00	7.00	7.00	7.00	7.00	7.00	7.00	6.00	4.00	4.00	4.00	4.00	4.00	4.00	4.00	4.00	4.00	4.00	4.00	4.00	4.00	4.00	5.00	6.00	6.00	6.00	6.00	6.00	6.00	5.00	4.00	4.00	5.00	7.00	7.00	7.00	7.00	7.00	7.00	7.00	7.00	7.00	7.00	7.00	7.00	8.00	12.00	21.00	22.00	22.00	12.00	7.00	7.00	7.00	7.00	7.00	7.00	7.00	7.00	7.00	7.00	7.00	7.00	7.00	7.00	7.00	8.00	9.00	10.00	12.00	12.00	17.00	13.00	10.00	13.00	14.00	14.00	17.00	36.00	39.00	41.00	31.00	43.00	41.00	39.00	39.00	39.00	45.00	50.00	56.00	61.00	74.00	77.00	80.00	83.00	82.00	82.00	78.00	75.00	79.00	83.00	83.00	83.00	84.00	85.00	86.00	88.00	92.00	89.00	93.00	101.00	110.00	119.00	141.00	160.00	170.00	178.00	182.00	175.00	167.00	155.00	145.00	137.00	120.00	115.00	109.00	105.00	92.00	87.00	85.00	83.00	79.00	86.00	85.00	93.00	90.00	91.00	85.00
27.00	24.00	17.00	15.00	24.00	29.00	30.00	30.00	25.00	23.00	24.00	31.00	24.00	18.00	14.00	8.00	7.00	7.00	7.00	7.00	7.00	7.00	7.00	7.00	7.00	7.00	7.00	7.00	7.00	7.00	7.00	7.00	9.00	15.00	22.00	26.00	22.00	20.00	19.00	26.00	27.00	30.00	30.00	31.00	33.00	34.00	32.00	24.00	13.00	11.00	9.00	9.00	7.00	7.00	7.00	7.00	7.00	5.00	4.00	4.00	4.00	4.00	4.00	6.00	6.00	5.00	6.00	6.00	6.00	6.00	7.00	7.00	7.00	7.00	7.00	7.00	7.00	7.00	7.00	6.00	6.00	6.00	6.00	6.00	4.00	4.00	4.00	4.00	4.00	5.00	5.00	5.00	4.00	4.00	4.00	5.00	5.00	7.00	7.00	7.00	7.00	7.00	7.00	7.00	7.00	7.00	7.00	7.00	7.00	7.00	7.00	7.00	7.00	7.00	7.00	7.00	7.00	7.00	7.00	7.00	7.00	7.00	7.00	7.00	5.00	4.00	4.00	4.00	4.00	4.00	4.00	4.00	4.00	5.00	6.00	6.00	7.00	7.00	7.00	6.00	5.00	5.00	5.00	5.00	5.00	4.00	4.00	5.00	6.00	7.00	7.00	7.00	7.00	7.00	7.00	7.00	7.00	7.00	7.00	7.00	9.00	10.00	11.00	13.00	13.00	18.00	21.00	23.00	25.00	27.00	24.00	22.00	21.00	20.00	21.00	23.00	25.00	28.00	34.00	31.00	29.00	27.00	22.00	13.00	25.00	32.00	35.00	41.00	44.00	46.00	28.00	16.00	21.00	26.00	32.00	30.00	16.00	25.00	32.00	29.00	32.00	34.00	38.00	42.00	44.00	47.00	49.00	53.00	58.00	70.00	72.00	73.00	73.00	71.00	61.00	62.00	64.00	68.00	78.00	79.00	73.00	72.00	73.00	78.00	80.00	87.00	87.00	89.00	96.00	105.00	114.00	136.00	159.00	170.00	178.00	184.00	182.00	174.00	164.00	152.00	142.00	121.00	115.00	110.00	106.00	93.00	91.00	88.00	84.00	80.00	75.00	74.00	71.00	69.00	71.00	67.00
