10.00	9.00	9.00	9.00	9.00	9.00	5.00	8.00	6.00	5.00	3.00	4.00	4.00	6.00	5.00	4.00	4.00	4.00	4.00	4.00	5.00	7.00	5.00	4.00	3.00	4.00	4.00	4.00	8.00	5.00	2.00	6.00	9.00	15.00	16.00	19.00	19.00	22.00	24.00	26.00	27.00	30.00	31.00	34.00	38.00	39.00	40.00	40.00	43.00	44.00	45.00	46.00	48.00	52.00	51.00	56.00	58.00	59.00	60.00	60.00	72.00	76.00	77.00	79.00	95.00	100.00	105.00	108.00	109.00	132.00	139.00	145.00	144.00	163.00	160.00	172.00	166.00	131.00	113.00	110.00	110.00	111.00	115.00	118.00	121.00	121.00	121.00	121.00	121.00	120.00	120.00	125.00	125.00	126.00	128.00	130.00	133.00	135.00	137.00	139.00	139.00	144.00	147.00	149.00	151.00	151.00	152.00	152.00	151.00	149.00	154.00	155.00	161.00	164.00	169.00	170.00	172.00	173.00	180.00	186.00	197.00	207.00	228.00	208.00	203.00	204.00	207.00	214.00	215.00	215.00	216.00	218.00	248.00	268.00	253.00	243.00	243.00	254.00	248.00	250.00	254.00	265.00	260.00	263.00	266.00	285.00	297.00	289.00	280.00	274.00	274.00	273.00	268.00	275.00	284.00	291.00	296.00	296.00	305.00	310.00	314.00	317.00	323.00	333.00	361.00	354.00	351.00	339.00	335.00	330.00	332.00	338.00	354.00	357.00	349.00	352.00	352.00	353.00	358.00	372.00	403.00	441.00	422.00	424.00	428.00	402.00	391.00	399.00	415.00	402.00	390.00	393.00	391.00	384.00	394.00	398.00	398.00	407.00	417.00	420.00	433.00	444.00	455.00	465.00	447.00	438.00	418.00	410.00	412.00	399.00	390.00	390.00	390.00	400.00	404.00	413.00	418.00	390.00	388.00	376.00	370.00	367.00	370.00	379.00	388.00	395.00	410.00	402.00	383.00	369.00	359.00	354.00	353.00	361.00	369.00	387.00	396.00	405.00	417.00	431.00	445.00	466.00	477.00	481.00	487.00	477.00	462.00	443.00	413.00	415.00	408.00	403.00	398.00	404.00	408.00	413.00
8.00	5.00	8.00	9.00	7.00	8.00	6.00	5.00	4.00	5.00	5.00	3.00	4.00	5.00	4.00	3.00	4.00	5.00	3.00	4.00	5.00	7.00	6.00	7.00	4.00	4.00	3.00	3.00	6.00	5.00	4.00	5.00	13.00	18.00	20.00	19.00	20.00	22.00	24.00	27.00	27.00	30.00	35.00	37.00	37.00	39.00	41.00	42.00	42.00	47.00	49.00	51.00	50.00	51.00	53.00	55.00	56.00	58.00	61.00	61.00	69.00	71.00	73.00	78.00	93.00	101.00	114.00	115.00	110.00	129.00	131.00	137.00	138.00	133.00	115.00	117.00	114.00	111.00	105.00	105.00	107.00	109.00	114.00	116.00	117.00	118.00	118.00	118.00	115.00	116.00	117.00	123.00	125.00	127.00	129.00	130.00	132.00	133.00	139.00	136.00	139.00	144.00	147.00	149.00	152.00	154.00	153.00	154.00	153.00	150.00	154.00	157.00	159.00	162.00	165.00	167.00	171.00	174.00	182.00	206.00	219.00	238.00	227.00	206.00	204.00	206.00	209.00	212.00	213.00	216.00	218.00	218.00	241.00	253.00	251.00	241.00	250.00	260.00	253.00	255.00	258.00	257.00	254.00	261.00	265.00	283.00	288.00	285.00	279.00	274.00	279.00	279.00	276.00	269.00	287.00	291.00	294.00	297.00	307.00	310.00	316.00	319.00	324.00	333.00	363.00	362.00	351.00	352.00	346.00	337.00	335.00	330.00	339.00	340.00	337.00	343.00	351.00	355.00	362.00	371.00	387.00	418.00	417.00	426.00	410.00	400.00	397.00	398.00	403.00	403.00	408.00	400.00	388.00	391.00	397.00	395.00	394.00	408.00	406.00	419.00	430.00	436.00	443.00	453.00	454.00	442.00	420.00	407.00	403.00	397.00	390.00	382.00	385.00	394.00	406.00	411.00	414.00	383.00	377.00	371.00	364.00	361.00	368.00	380.00	391.00	394.00	384.00	386.00	368.00	357.00	352.00	348.00	352.00	361.00	370.00	388.00	397.00	407.00	421.00	438.00	445.00	454.00	467.00	474.00	470.00	466.00	451.00	432.00	405.00	412.00	405.00	397.00	393.00	398.00	403.00	407.00
8.00	6.00	7.00	7.00	7.00	5.00	6.00	7.00	5.00	5.00	4.00	3.00	4.00	5.00	4.00	3.00	3.00	5.00	4.00	5.00	4.00	5.00	7.00	5.00	4.00	4.00	4.00	4.00	4.00	4.00	2.00	4.00	17.00	17.00	20.00	20.00	21.00	24.00	25.00	28.00	27.00	28.00	36.00	39.00	41.00	40.00	41.00	43.00	43.00	47.00	49.00	50.00	52.00	55.00	54.00	56.00	57.00	58.00	62.00	63.00	69.00	68.00	69.00	76.00	89.00	103.00	97.00	82.00	81.00	108.00	121.00	133.00	116.00	105.00	100.00	99.00	101.00	100.00	101.00	104.00	104.00	106.00	111.00	113.00	113.00	115.00	115.00	113.00	114.00	115.00	117.00	123.00	126.00	127.00	129.00	130.00	133.00	135.00	136.00	137.00	142.00	145.00	147.00	150.00	152.00	157.00	154.00	156.00	156.00	154.00	157.00	157.00	161.00	160.00	166.00	167.00	171.00	176.00	194.00	214.00	217.00	221.00	213.00	205.00	204.00	207.00	211.00	212.00	217.00	218.00	222.00	224.00	227.00	233.00	235.00	232.00	259.00	255.00	250.00	252.00	252.00	251.00	255.00	262.00	266.00	283.00	280.00	282.00	279.00	277.00	282.00	284.00	282.00	277.00	289.00	293.00	296.00	298.00	307.00	312.00	317.00	321.00	324.00	329.00	349.00	362.00	367.00	360.00	355.00	346.00	349.00	343.00	333.00	335.00	337.00	349.00	353.00	360.00	364.00	366.00	372.00	395.00	410.00	404.00	397.00	403.00	402.00	406.00	414.00	415.00	412.00	404.00	392.00	397.00	391.00	388.00	397.00	407.00	398.00	411.00	413.00	419.00	429.00	442.00	446.00	436.00	410.00	405.00	391.00	390.00	387.00	379.00	383.00	391.00	396.00	390.00	399.00	381.00	377.00	368.00	361.00	361.00	367.00	378.00	389.00	390.00	376.00	375.00	362.00	350.00	346.00	345.00	355.00	363.00	370.00	386.00	395.00	406.00	422.00	443.00	448.00	457.00	470.00	467.00	447.00	446.00	442.00	424.00	399.00	402.00	398.00	394.00	388.00	394.00	399.00	399.00
6.00	7.00	7.00	6.00	6.00	6.00	4.00	4.00	6.00	4.00	4.00	3.00	3.00	3.00	3.00	3.00	3.00	5.00	5.00	3.00	3.00	3.00	4.00	5.00	4.00	3.00	4.00	4.00	4.00	4.00	2.00	12.00	17.00	17.00	20.00	22.00	23.00	26.00	29.00	28.00	28.00	28.00	35.00	39.00	41.00	43.00	42.00	43.00	47.00	51.00	53.00	51.00	53.00	55.00	55.00	57.00	60.00	61.00	64.00	65.00	66.00	68.00	69.00	72.00	76.00	78.00	75.00	75.00	78.00	82.00	81.00	82.00	86.00	86.00	89.00	89.00	89.00	92.00	98.00	97.00	98.00	99.00	103.00	105.00	108.00	110.00	108.00	112.00	114.00	116.00	117.00	123.00	127.00	131.00	134.00	137.00	141.00	143.00	144.00	145.00	146.00	150.00	153.00	154.00	154.00	158.00	159.00	159.00	157.00	155.00	161.00	162.00	166.00	166.00	165.00	166.00	171.00	186.00	218.00	204.00	197.00	201.00	205.00	203.00	205.00	208.00	211.00	218.00	219.00	220.00	222.00	226.00	255.00	251.00	236.00	235.00	239.00	239.00	241.00	245.00	250.00	254.00	253.00	256.00	264.00	271.00	278.00	282.00	285.00	285.00	288.00	292.00	293.00	290.00	288.00	291.00	295.00	301.00	309.00	314.00	315.00	323.00	330.00	335.00	362.00	374.00	381.00	377.00	370.00	369.00	378.00	365.00	348.00	351.00	346.00	345.00	366.00	371.00	370.00	378.00	375.00	377.00	384.00	394.00	400.00	405.00	416.00	430.00	436.00	433.00	415.00	407.00	405.00	401.00	391.00	387.00	399.00	391.00	381.00	392.00	406.00	413.00	420.00	426.00	428.00	428.00	408.00	410.00	403.00	391.00	384.00	379.00	370.00	372.00	375.00	377.00	383.00	388.00	384.00	379.00	370.00	352.00	353.00	356.00	369.00	374.00	367.00	354.00	352.00	345.00	338.00	344.00	353.00	361.00	371.00	391.00	397.00	402.00	415.00	436.00	452.00	466.00	466.00	456.00	433.00	426.00	419.00	414.00	384.00	382.00	380.00	378.00	383.00	394.00	402.00	404.00
6.00	7.00	7.00	5.00	5.00	5.00	5.00	4.00	5.00	4.00	4.00	4.00	3.00	4.00	3.00	3.00	3.00	4.00	4.00	3.00	4.00	4.00	3.00	3.00	4.00	3.00	3.00	4.00	4.00	2.00	9.00	16.00	14.00	17.00	19.00	21.00	22.00	25.00	27.00	27.00	29.00	31.00	33.00	36.00	38.00	39.00	41.00	46.00	48.00	51.00	49.00	51.00	52.00	53.00	55.00	57.00	58.00	59.00	60.00	63.00	66.00	68.00	69.00	72.00	75.00	75.00	77.00	84.00	87.00	83.00	83.00	85.00	86.00	88.00	90.00	90.00	88.00	90.00	94.00	94.00	95.00	98.00	101.00	102.00	104.00	106.00	111.00	114.00	118.00	120.00	121.00	126.00	129.00	132.00	137.00	140.00	145.00	145.00	145.00	146.00	150.00	152.00	153.00	155.00	157.00	159.00	162.00	163.00	163.00	160.00	159.00	163.00	168.00	168.00	167.00	168.00	175.00	212.00	210.00	196.00	194.00	200.00	197.00	204.00	208.00	209.00	213.00	220.00	223.00	224.00	227.00	233.00	265.00	265.00	244.00	239.00	255.00	244.00	245.00	245.00	249.00	263.00	260.00	258.00	269.00	276.00	282.00	285.00	286.00	286.00	292.00	295.00	295.00	293.00	289.00	295.00	298.00	303.00	313.00	316.00	320.00	322.00	328.00	339.00	364.00	374.00	390.00	391.00	378.00	380.00	381.00	369.00	350.00	358.00	359.00	352.00	360.00	361.00	364.00	368.00	369.00	379.00	389.00	398.00	406.00	413.00	415.00	428.00	436.00	429.00	414.00	408.00	405.00	397.00	383.00	383.00	392.00	386.00	377.00	393.00	403.00	410.00	417.00	418.00	416.00	418.00	412.00	407.00	394.00	395.00	392.00	386.00	370.00	365.00	369.00	373.00	381.00	392.00	386.00	380.00	371.00	352.00	349.00	352.00	365.00	370.00	359.00	350.00	344.00	341.00	336.00	346.00	354.00	362.00	367.00	381.00	389.00	395.00	411.00	432.00	445.00	447.00	460.00	449.00	434.00	428.00	417.00	409.00	382.00	377.00	372.00	376.00	386.00	393.00	401.00	404.00
6.00	7.00	6.00	6.00	5.00	5.00	3.00	4.00	4.00	4.00	3.00	3.00	3.00	4.00	3.00	3.00	3.00	3.00	4.00	3.00	4.00	4.00	4.00	3.00	4.00	3.00	3.00	4.00	5.00	4.00	10.00	16.00	16.00	18.00	20.00	22.00	23.00	25.00	25.00	25.00	28.00	29.00	32.00	33.00	34.00	36.00	42.00	45.00	46.00	50.00	48.00	53.00	51.00	52.00	54.00	59.00	59.00	60.00	62.00	63.00	66.00	69.00	71.00	73.00	73.00	80.00	80.00	85.00	94.00	99.00	84.00	85.00	87.00	89.00	90.00	91.00	90.00	89.00	95.00	96.00	96.00	97.00	100.00	103.00	106.00	109.00	113.00	119.00	122.00	124.00	125.00	128.00	131.00	135.00	139.00	143.00	147.00	145.00	144.00	147.00	151.00	156.00	156.00	157.00	158.00	160.00	163.00	164.00	165.00	163.00	161.00	163.00	169.00	170.00	170.00	172.00	187.00	227.00	201.00	196.00	192.00	193.00	194.00	204.00	208.00	212.00	214.00	222.00	225.00	228.00	231.00	239.00	268.00	273.00	255.00	246.00	269.00	251.00	249.00	250.00	250.00	264.00	268.00	266.00	264.00	272.00	278.00	285.00	288.00	289.00	299.00	300.00	298.00	296.00	290.00	294.00	299.00	303.00	314.00	318.00	323.00	326.00	334.00	343.00	368.00	384.00	404.00	398.00	387.00	386.00	382.00	373.00	350.00	365.00	361.00	356.00	360.00	370.00	378.00	378.00	378.00	390.00	391.00	398.00	411.00	424.00	426.00	436.00	437.00	427.00	412.00	407.00	401.00	395.00	382.00	375.00	386.00	380.00	371.00	390.00	399.00	406.00	407.00	410.00	414.00	422.00	409.00	404.00	407.00	414.00	403.00	383.00	370.00	368.00	363.00	367.00	373.00	387.00	387.00	386.00	369.00	349.00	349.00	348.00	360.00	367.00	352.00	345.00	339.00	336.00	340.00	350.00	356.00	363.00	370.00	381.00	387.00	393.00	404.00	427.00	434.00	444.00	460.00	447.00	427.00	422.00	414.00	404.00	379.00	369.00	376.00	380.00	381.00	392.00	400.00	403.00
6.00	6.00	6.00	5.00	6.00	5.00	4.00	4.00	4.00	4.00	4.00	4.00	3.00	3.00	3.00	4.00	4.00	4.00	4.00	3.00	3.00	3.00	3.00	3.00	5.00	4.00	4.00	4.00	4.00	8.00	8.00	14.00	14.00	16.00	19.00	21.00	21.00	21.00	23.00	25.00	26.00	28.00	31.00	33.00	35.00	36.00	38.00	41.00	41.00	45.00	46.00	51.00	52.00	53.00	56.00	61.00	63.00	64.00	66.00	67.00	69.00	70.00	70.00	71.00	78.00	87.00	90.00	97.00	103.00	89.00	86.00	86.00	88.00	90.00	92.00	93.00	91.00	91.00	95.00	98.00	98.00	99.00	103.00	106.00	109.00	113.00	117.00	123.00	126.00	128.00	131.00	130.00	131.00	134.00	139.00	142.00	145.00	144.00	146.00	147.00	153.00	158.00	158.00	159.00	159.00	163.00	165.00	166.00	167.00	165.00	163.00	165.00	169.00	171.00	173.00	177.00	202.00	222.00	199.00	191.00	190.00	192.00	194.00	207.00	211.00	217.00	220.00	225.00	229.00	231.00	234.00	240.00	256.00	259.00	252.00	249.00	269.00	255.00	253.00	256.00	251.00	260.00	263.00	273.00	266.00	276.00	280.00	284.00	288.00	291.00	301.00	306.00	302.00	299.00	291.00	296.00	301.00	305.00	313.00	318.00	323.00	329.00	337.00	351.00	375.00	394.00	408.00	399.00	400.00	388.00	382.00	379.00	356.00	359.00	358.00	362.00	360.00	364.00	366.00	370.00	374.00	387.00	396.00	413.00	422.00	420.00	425.00	434.00	433.00	422.00	409.00	405.00	398.00	392.00	379.00	369.00	381.00	377.00	368.00	383.00	390.00	396.00	402.00	414.00	419.00	424.00	421.00	415.00	419.00	413.00	397.00	385.00	375.00	383.00	375.00	364.00	359.00	365.00	362.00	370.00	364.00	348.00	346.00	343.00	347.00	353.00	345.00	338.00	333.00	333.00	339.00	350.00	360.00	367.00	375.00	380.00	386.00	389.00	399.00	424.00	435.00	447.00	454.00	446.00	423.00	414.00	406.00	397.00	370.00	370.00	375.00	375.00	385.00	397.00	402.00	406.00
4.00	4.00	4.00	4.00	4.00	4.00	4.00	3.00	4.00	6.00	4.00	4.00	5.00	4.00	0.00	5.00	5.00	5.00	4.00	4.00	4.00	4.00	3.00	4.00	4.00	4.00	4.00	4.00	5.00	5.00	8.00	10.00	13.00	15.00	13.00	15.00	17.00	20.00	24.00	26.00	28.00	29.00	32.00	31.00	33.00	36.00	38.00	39.00	40.00	44.00	46.00	51.00	52.00	53.00	54.00	58.00	62.00	67.00	73.00	81.00	70.00	70.00	70.00	73.00	80.00	85.00	92.00	102.00	113.00	92.00	89.00	89.00	92.00	97.00	99.00	101.00	101.00	100.00	95.00	98.00	100.00	102.00	108.00	111.00	114.00	118.00	123.00	130.00	132.00	133.00	134.00	141.00	140.00	139.00	139.00	139.00	139.00	142.00	145.00	149.00	154.00	158.00	159.00	161.00	162.00	167.00	168.00	170.00	171.00	172.00	165.00	164.00	168.00	171.00	175.00	182.00	191.00	197.00	194.00	188.00	193.00	195.00	197.00	207.00	210.00	214.00	220.00	242.00	243.00	234.00	234.00	239.00	271.00	270.00	271.00	266.00	259.00	262.00	261.00	262.00	260.00	266.00	269.00	271.00	269.00	278.00	284.00	287.00	292.00	296.00	303.00	307.00	306.00	305.00	297.00	301.00	304.00	309.00	316.00	321.00	328.00	336.00	343.00	360.00	378.00	394.00	396.00	415.00	411.00	404.00	400.00	398.00	377.00	369.00	362.00	372.00	369.00	376.00	380.00	376.00	384.00	390.00	408.00	423.00	420.00	398.00	399.00	407.00	425.00	424.00	388.00	392.00	387.00	379.00	368.00	367.00	367.00	362.00	360.00	384.00	397.00	407.00	416.00	405.00	407.00	408.00	415.00	415.00	403.00	406.00	396.00	389.00	390.00	385.00	377.00	371.00	374.00	353.00	348.00	354.00	355.00	351.00	344.00	341.00	337.00	335.00	329.00	324.00	325.00	330.00	340.00	345.00	353.00	355.00	360.00	378.00	382.00	385.00	398.00	424.00	436.00	450.00	436.00	418.00	416.00	405.00	396.00	388.00	361.00	362.00	370.00	380.00	388.00	401.00	406.00	411.00
3.00	4.00	4.00	4.00	4.00	3.00	3.00	5.00	5.00	5.00	6.00	5.00	5.00	4.00	3.00	4.00	3.00	5.00	4.00	3.00	4.00	4.00	4.00	4.00	3.00	4.00	4.00	4.00	5.00	5.00	8.00	12.00	14.00	10.00	12.00	15.00	16.00	20.00	22.00	24.00	26.00	28.00	31.00	32.00	33.00	35.00	37.00	42.00	44.00	49.00	51.00	55.00	56.00	57.00	59.00	62.00	65.00	69.00	72.00	84.00	71.00	72.00	77.00	78.00	82.00	89.00	91.00	101.00	110.00	94.00	91.00	93.00	96.00	103.00	104.00	106.00	106.00	104.00	96.00	98.00	102.00	103.00	108.00	112.00	116.00	121.00	125.00	134.00	135.00	137.00	140.00	144.00	143.00	142.00	143.00	142.00	139.00	142.00	145.00	149.00	155.00	159.00	160.00	162.00	164.00	169.00	170.00	171.00	173.00	173.00	173.00	172.00	173.00	175.00	173.00	180.00	181.00	192.00	190.00	192.00	195.00	197.00	199.00	211.00	213.00	220.00	222.00	246.00	233.00	230.00	236.00	244.00	274.00	278.00	278.00	273.00	261.00	263.00	264.00	266.00	263.00	270.00	278.00	279.00	273.00	278.00	285.00	289.00	293.00	298.00	305.00	309.00	310.00	306.00	298.00	303.00	308.00	313.00	322.00	324.00	333.00	341.00	351.00	365.00	382.00	392.00	401.00	417.00	424.00	414.00	408.00	404.00	389.00	379.00	367.00	372.00	374.00	379.00	387.00	391.00	393.00	398.00	419.00	426.00	416.00	396.00	392.00	401.00	419.00	424.00	377.00	373.00	371.00	369.00	362.00	361.00	362.00	356.00	359.00	385.00	397.00	406.00	412.00	397.00	396.00	397.00	401.00	406.00	386.00	394.00	391.00	394.00	392.00	390.00	383.00	376.00	379.00	351.00	347.00	353.00	353.00	347.00	344.00	338.00	336.00	334.00	326.00	325.00	327.00	332.00	342.00	348.00	350.00	355.00	361.00	373.00	378.00	388.00	397.00	422.00	436.00	443.00	428.00	409.00	399.00	392.00	387.00	381.00	359.00	369.00	375.00	383.00	390.00	403.00	409.00	412.00
5.00	4.00	5.00	4.00	4.00	4.00	3.00	5.00	6.00	6.00	5.00	5.00	5.00	4.00	5.00	5.00	4.00	5.00	4.00	4.00	3.00	4.00	5.00	4.00	5.00	5.00	4.00	4.00	5.00	5.00	6.00	7.00	9.00	11.00	13.00	17.00	18.00	20.00	23.00	24.00	25.00	26.00	31.00	32.00	33.00	35.00	42.00	45.00	47.00	50.00	52.00	55.00	58.00	60.00	62.00	63.00	68.00	75.00	79.00	87.00	73.00	74.00	79.00	82.00	87.00	94.00	96.00	104.00	108.00	99.00	98.00	101.00	104.00	108.00	109.00	110.00	110.00	108.00	103.00	99.00	103.00	104.00	110.00	113.00	118.00	122.00	127.00	136.00	140.00	139.00	144.00	149.00	145.00	145.00	147.00	147.00	144.00	142.00	145.00	150.00	157.00	159.00	160.00	161.00	163.00	168.00	170.00	171.00	178.00	175.00	175.00	176.00	178.00	179.00	174.00	174.00	178.00	195.00	188.00	192.00	195.00	198.00	200.00	206.00	209.00	213.00	219.00	225.00	225.00	229.00	238.00	249.00	275.00	283.00	284.00	271.00	261.00	268.00	269.00	268.00	270.00	273.00	277.00	283.00	283.00	279.00	286.00	293.00	299.00	301.00	307.00	312.00	312.00	307.00	300.00	304.00	309.00	315.00	328.00	331.00	337.00	345.00	355.00	369.00	383.00	393.00	400.00	427.00	437.00	425.00	416.00	406.00	389.00	380.00	373.00	372.00	388.00	385.00	388.00	398.00	398.00	409.00	424.00	420.00	411.00	389.00	388.00	398.00	409.00	420.00	371.00	363.00	359.00	357.00	355.00	353.00	358.00	354.00	359.00	385.00	393.00	399.00	410.00	391.00	384.00	377.00	384.00	387.00	380.00	389.00	390.00	408.00	389.00	385.00	381.00	380.00	383.00	351.00	345.00	351.00	353.00	342.00	338.00	335.00	333.00	332.00	323.00	324.00	326.00	332.00	342.00	349.00	355.00	362.00	367.00	376.00	381.00	393.00	405.00	421.00	437.00	434.00	420.00	408.00	381.00	377.00	375.00	371.00	367.00	374.00	381.00	386.00	391.00	404.00	408.00	413.00
4.00	4.00	6.00	5.00	4.00	4.00	4.00	6.00	7.00	5.00	4.00	4.00	6.00	4.00	5.00	7.00	6.00	6.00	5.00	4.00	4.00	4.00	4.00	4.00	7.00	4.00	4.00	4.00	5.00	6.00	7.00	7.00	9.00	11.00	16.00	18.00	20.00	20.00	22.00	23.00	23.00	25.00	30.00	33.00	37.00	39.00	44.00	46.00	47.00	49.00	51.00	55.00	59.00	63.00	65.00	66.00	68.00	74.00	82.00	89.00	76.00	80.00	82.00	85.00	86.00	92.00	99.00	103.00	106.00	108.00	108.00	111.00	115.00	118.00	116.00	116.00	113.00	112.00	107.00	102.00	105.00	106.00	110.00	114.00	118.00	123.00	128.00	138.00	143.00	143.00	147.00	150.00	148.00	148.00	150.00	151.00	148.00	145.00	145.00	149.00	153.00	156.00	157.00	161.00	167.00	167.00	169.00	177.00	185.00	178.00	177.00	179.00	179.00	180.00	176.00	177.00	177.00	185.00	184.00	189.00	194.00	196.00	195.00	205.00	211.00	215.00	215.00	220.00	223.00	229.00	244.00	254.00	277.00	285.00	281.00	259.00	266.00	267.00	261.00	266.00	264.00	265.00	267.00	278.00	284.00	281.00	289.00	298.00	302.00	304.00	310.00	313.00	315.00	311.00	303.00	306.00	311.00	316.00	330.00	336.00	342.00	347.00	355.00	367.00	385.00	396.00	399.00	417.00	430.00	431.00	424.00	415.00	393.00	383.00	376.00	382.00	399.00	391.00	393.00	403.00	403.00	412.00	422.00	414.00	407.00	383.00	384.00	392.00	400.00	416.00	369.00	363.00	364.00	361.00	352.00	351.00	353.00	361.00	351.00	381.00	386.00	396.00	409.00	383.00	369.00	365.00	369.00	371.00	384.00	392.00	398.00	413.00	397.00	397.00	388.00	388.00	384.00	348.00	340.00	342.00	349.00	340.00	339.00	334.00	330.00	332.00	322.00	319.00	322.00	329.00	342.00	351.00	358.00	363.00	368.00	379.00	383.00	387.00	405.00	417.00	428.00	425.00	412.00	401.00	378.00	370.00	361.00	360.00	371.00	378.00	384.00	391.00	393.00	401.00	407.00	411.00
5.00	5.00	6.00	6.00	4.00	4.00	6.00	6.00	6.00	6.00	6.00	5.00	6.00	6.00	5.00	7.00	6.00	5.00	4.00	4.00	4.00	4.00	4.00	4.00	4.00	4.00	4.00	4.00	4.00	4.00	4.00	7.00	9.00	12.00	13.00	15.00	17.00	23.00	27.00	28.00	30.00	31.00	35.00	36.00	38.00	40.00	43.00	44.00	44.00	47.00	50.00	57.00	59.00	61.00	63.00	65.00	71.00	80.00	82.00	97.00	90.00	92.00	92.00	91.00	94.00	99.00	102.00	106.00	111.00	124.00	126.00	124.00	126.00	124.00	124.00	122.00	120.00	119.00	115.00	111.00	107.00	107.00	106.00	112.00	118.00	124.00	129.00	138.00	143.00	149.00	151.00	144.00	142.00	147.00	154.00	153.00	145.00	145.00	147.00	149.00	150.00	160.00	168.00	173.00	171.00	172.00	190.00	201.00	194.00	185.00	188.00	181.00	186.00	180.00	184.00	185.00	187.00	184.00	189.00	195.00	205.00	202.00	203.00	201.00	205.00	210.00	216.00	226.00	230.00	234.00	245.00	253.00	275.00	269.00	261.00	252.00	260.00	254.00	251.00	254.00	255.00	264.00	267.00	279.00	275.00	283.00	291.00	301.00	306.00	307.00	315.00	316.00	318.00	316.00	308.00	310.00	314.00	319.00	335.00	341.00	347.00	351.00	356.00	369.00	379.00	388.00	393.00	410.00	419.00	433.00	426.00	414.00	398.00	393.00	385.00	386.00	389.00	391.00	390.00	398.00	410.00	399.00	405.00	403.00	398.00	381.00	377.00	379.00	379.00	386.00	378.00	390.00	392.00	388.00	370.00	348.00	346.00	349.00	344.00	364.00	375.00	385.00	388.00	372.00	357.00	357.00	380.00	396.00	392.00	393.00	401.00	426.00	411.00	407.00	400.00	390.00	383.00	348.00	346.00	338.00	336.00	331.00	332.00	334.00	334.00	334.00	322.00	314.00	318.00	327.00	344.00	353.00	359.00	364.00	370.00	382.00	386.00	388.00	410.00	437.00	417.00	397.00	390.00	380.00	356.00	352.00	347.00	351.00	373.00	383.00	395.00	400.00	405.00	401.00	406.00	414.00
5.00	5.00	5.00	5.00	4.00	4.00	6.00	7.00	7.00	6.00	5.00	7.00	7.00	6.00	6.00	7.00	6.00	5.00	5.00	4.00	5.00	5.00	4.00	5.00	4.00	5.00	5.00	5.00	4.00	3.00	4.00	6.00	9.00	11.00	13.00	13.00	17.00	23.00	27.00	28.00	30.00	31.00	34.00	36.00	37.00	38.00	41.00	42.00	43.00	46.00	49.00	54.00	56.00	58.00	60.00	66.00	75.00	76.00	79.00	89.00	94.00	96.00	94.00	98.00	99.00	102.00	105.00	109.00	114.00	128.00	131.00	128.00	130.00	124.00	126.00	124.00	124.00	122.00	115.00	112.00	107.00	109.00	109.00	107.00	116.00	123.00	129.00	138.00	142.00	146.00	145.00	139.00	141.00	147.00	149.00	147.00	142.00	144.00	146.00	148.00	149.00	165.00	171.00	172.00	173.00	183.00	204.00	202.00	202.00	191.00	193.00	190.00	185.00	181.00	183.00	187.00	197.00	190.00	186.00	193.00	201.00	204.00	211.00	209.00	207.00	206.00	209.00	223.00	228.00	235.00	244.00	250.00	265.00	253.00	252.00	244.00	253.00	250.00	251.00	255.00	259.00	267.00	272.00	278.00	278.00	284.00	290.00	297.00	304.00	305.00	313.00	311.00	314.00	315.00	312.00	313.00	315.00	319.00	336.00	344.00	349.00	353.00	357.00	370.00	379.00	383.00	389.00	406.00	419.00	426.00	425.00	414.00	396.00	391.00	382.00	384.00	386.00	385.00	388.00	410.00	411.00	393.00	397.00	396.00	394.00	378.00	372.00	371.00	374.00	392.00	382.00	386.00	385.00	381.00	369.00	346.00	342.00	345.00	344.00	357.00	362.00	364.00	370.00	354.00	350.00	360.00	382.00	401.00	408.00	401.00	413.00	426.00	404.00	399.00	389.00	381.00	377.00	357.00	347.00	344.00	343.00	330.00	329.00	330.00	330.00	329.00	319.00	314.00	321.00	330.00	346.00	353.00	358.00	365.00	373.00	393.00	390.00	390.00	411.00	424.00	409.00	388.00	378.00	370.00	349.00	343.00	348.00	356.00	378.00	383.00	391.00	395.00	398.00	394.00	391.00	386.00
5.00	5.00	6.00	4.00	5.00	5.00	6.00	6.00	6.00	5.00	6.00	7.00	7.00	6.00	6.00	6.00	6.00	5.00	4.00	4.00	5.00	5.00	5.00	5.00	5.00	5.00	5.00	5.00	4.00	3.00	4.00	5.00	7.00	12.00	13.00	14.00	18.00	23.00	26.00	27.00	29.00	30.00	33.00	35.00	36.00	37.00	40.00	42.00	43.00	46.00	49.00	53.00	56.00	58.00	58.00	67.00	70.00	70.00	76.00	81.00	90.00	97.00	101.00	104.00	102.00	104.00	109.00	113.00	118.00	129.00	128.00	131.00	133.00	127.00	129.00	126.00	127.00	124.00	119.00	117.00	110.00	110.00	109.00	108.00	114.00	121.00	127.00	136.00	137.00	141.00	142.00	136.00	140.00	144.00	142.00	141.00	142.00	143.00	144.00	146.00	150.00	170.00	170.00	170.00	175.00	195.00	206.00	204.00	200.00	203.00	195.00	206.00	184.00	183.00	187.00	203.00	202.00	194.00	186.00	191.00	198.00	218.00	211.00	213.00	212.00	210.00	213.00	216.00	224.00	227.00	237.00	243.00	244.00	241.00	242.00	241.00	245.00	247.00	252.00	257.00	264.00	269.00	271.00	279.00	283.00	289.00	293.00	294.00	297.00	298.00	308.00	305.00	310.00	316.00	316.00	315.00	317.00	320.00	333.00	341.00	348.00	354.00	359.00	368.00	382.00	386.00	387.00	405.00	413.00	422.00	426.00	417.00	394.00	389.00	382.00	381.00	377.00	378.00	391.00	407.00	404.00	389.00	388.00	394.00	390.00	376.00	372.00	366.00	370.00	383.00	380.00	378.00	377.00	371.00	357.00	349.00	343.00	337.00	336.00	352.00	356.00	354.00	362.00	346.00	354.00	371.00	380.00	393.00	425.00	423.00	433.00	440.00	408.00	401.00	395.00	387.00	383.00	362.00	354.00	355.00	349.00	332.00	327.00	324.00	325.00	322.00	313.00	314.00	322.00	330.00	346.00	346.00	355.00	366.00	378.00	391.00	388.00	395.00	407.00	415.00	400.00	384.00	368.00	358.00	340.00	348.00	352.00	360.00	379.00	385.00	388.00	386.00	386.00	380.00	379.00	387.00
6.00	6.00	4.00	5.00	4.00	6.00	6.00	7.00	6.00	6.00	6.00	6.00	6.00	7.00	6.00	5.00	5.00	4.00	5.00	5.00	5.00	5.00	6.00	5.00	5.00	4.00	4.00	5.00	4.00	4.00	4.00	4.00	6.00	12.00	15.00	16.00	18.00	22.00	25.00	27.00	28.00	29.00	33.00	34.00	36.00	37.00	40.00	41.00	43.00	46.00	49.00	54.00	56.00	59.00	62.00	65.00	65.00	70.00	77.00	83.00	88.00	95.00	103.00	101.00	105.00	105.00	113.00	117.00	122.00	131.00	129.00	133.00	134.00	129.00	132.00	129.00	129.00	127.00	123.00	120.00	116.00	115.00	112.00	111.00	113.00	119.00	125.00	132.00	133.00	136.00	136.00	134.00	137.00	137.00	139.00	140.00	144.00	145.00	145.00	147.00	156.00	170.00	167.00	171.00	182.00	210.00	208.00	203.00	200.00	203.00	207.00	205.00	185.00	187.00	199.00	210.00	207.00	191.00	187.00	192.00	206.00	219.00	210.00	215.00	215.00	215.00	216.00	221.00	216.00	218.00	225.00	227.00	230.00	234.00	241.00	245.00	246.00	248.00	252.00	256.00	261.00	266.00	268.00	280.00	284.00	295.00	288.00	290.00	290.00	294.00	305.00	301.00	307.00	312.00	320.00	318.00	320.00	322.00	332.00	340.00	345.00	353.00	357.00	373.00	387.00	388.00	394.00	412.00	422.00	426.00	431.00	421.00	403.00	393.00	382.00	374.00	370.00	376.00	393.00	393.00	391.00	389.00	383.00	389.00	387.00	373.00	368.00	366.00	362.00	369.00	372.00	373.00	371.00	364.00	349.00	358.00	349.00	343.00	334.00	343.00	343.00	345.00	358.00	346.00	354.00	362.00	378.00	392.00	421.00	425.00	422.00	425.00	414.00	402.00	396.00	388.00	378.00	360.00	353.00	351.00	349.00	336.00	331.00	323.00	322.00	321.00	315.00	312.00	321.00	327.00	341.00	347.00	356.00	371.00	380.00	382.00	381.00	389.00	398.00	403.00	389.00	375.00	361.00	348.00	341.00	345.00	351.00	360.00	373.00	379.00	377.00	373.00	376.00	374.00	385.00	389.00
6.00	6.00	5.00	5.00	5.00	5.00	7.00	8.00	7.00	7.00	7.00	7.00	7.00	7.00	7.00	6.00	7.00	5.00	6.00	6.00	6.00	6.00	6.00	5.00	6.00	5.00	5.00	5.00	4.00	4.00	4.00	5.00	5.00	13.00	16.00	14.00	17.00	21.00	24.00	26.00	27.00	29.00	32.00	35.00	38.00	40.00	44.00	44.00	45.00	48.00	50.00	52.00	53.00	59.00	62.00	65.00	71.00	73.00	75.00	77.00	92.00	95.00	99.00	101.00	112.00	117.00	122.00	126.00	131.00	140.00	142.00	141.00	140.00	136.00	136.00	135.00	136.00	137.00	133.00	129.00	125.00	120.00	124.00	121.00	115.00	115.00	118.00	123.00	124.00	126.00	129.00	133.00	135.00	137.00	139.00	142.00	145.00	147.00	150.00	151.00	158.00	172.00	183.00	188.00	205.00	217.00	210.00	214.00	230.00	213.00	201.00	194.00	195.00	198.00	221.00	213.00	204.00	190.00	192.00	197.00	216.00	207.00	209.00	215.00	216.00	218.00	220.00	226.00	231.00	232.00	232.00	233.00	237.00	245.00	247.00	248.00	255.00	257.00	257.00	256.00	254.00	262.00	267.00	277.00	281.00	282.00	279.00	285.00	294.00	298.00	294.00	297.00	301.00	308.00	317.00	323.00	327.00	330.00	331.00	335.00	344.00	354.00	364.00	382.00	401.00	408.00	413.00	426.00	437.00	440.00	426.00	416.00	396.00	390.00	386.00	378.00	370.00	366.00	374.00	371.00	380.00	374.00	378.00	382.00	379.00	363.00	361.00	359.00	372.00	372.00	360.00	358.00	359.00	354.00	348.00	352.00	362.00	362.00	343.00	327.00	330.00	339.00	333.00	341.00	351.00	363.00	376.00	382.00	393.00	401.00	402.00	400.00	398.00	396.00	388.00	388.00	363.00	352.00	351.00	344.00	340.00	327.00	330.00	329.00	330.00	327.00	312.00	320.00	330.00	334.00	343.00	353.00	368.00	368.00	363.00	365.00	367.00	371.00	376.00	380.00	367.00	356.00	344.00	338.00	341.00	346.00	356.00	355.00	365.00	367.00	370.00	374.00	380.00	394.00	390.00	394.00
6.00	7.00	6.00	5.00	5.00	6.00	8.00	8.00	7.00	8.00	8.00	7.00	7.00	7.00	8.00	8.00	7.00	7.00	7.00	6.00	6.00	6.00	6.00	7.00	6.00	5.00	5.00	6.00	4.00	4.00	4.00	6.00	6.00	12.00	13.00	13.00	16.00	21.00	24.00	25.00	27.00	29.00	33.00	36.00	39.00	41.00	45.00	47.00	48.00	51.00	53.00	55.00	55.00	59.00	64.00	66.00	73.00	75.00	77.00	78.00	98.00	103.00	103.00	105.00	115.00	120.00	125.00	130.00	135.00	146.00	146.00	144.00	144.00	140.00	138.00	137.00	138.00	141.00	136.00	134.00	129.00	125.00	127.00	127.00	121.00	116.00	118.00	120.00	123.00	126.00	127.00	134.00	136.00	138.00	140.00	142.00	146.00	148.00	151.00	153.00	156.00	192.00	211.00	216.00	217.00	215.00	213.00	206.00	234.00	205.00	193.00	190.00	201.00	223.00	226.00	215.00	195.00	191.00	194.00	199.00	211.00	206.00	207.00	213.00	218.00	224.00	221.00	228.00	233.00	237.00	237.00	237.00	239.00	243.00	248.00	251.00	255.00	256.00	260.00	259.00	256.00	261.00	265.00	272.00	271.00	275.00	279.00	286.00	293.00	294.00	290.00	296.00	300.00	304.00	313.00	320.00	326.00	332.00	337.00	337.00	343.00	353.00	361.00	386.00	412.00	418.00	417.00	433.00	441.00	445.00	439.00	409.00	390.00	384.00	381.00	377.00	377.00	365.00	362.00	368.00	374.00	376.00	372.00	386.00	377.00	358.00	357.00	354.00	363.00	361.00	353.00	355.00	352.00	351.00	341.00	348.00	352.00	355.00	350.00	332.00	325.00	331.00	329.00	345.00	352.00	361.00	372.00	384.00	388.00	391.00	392.00	390.00	402.00	395.00	385.00	379.00	365.00	352.00	347.00	342.00	335.00	324.00	327.00	331.00	328.00	324.00	307.00	321.00	325.00	334.00	346.00	355.00	362.00	358.00	352.00	357.00	359.00	362.00	372.00	376.00	360.00	350.00	340.00	337.00	342.00	352.00	359.00	360.00	375.00	383.00	382.00	387.00	393.00	406.00	414.00	413.00
5.00	7.00	6.00	6.00	5.00	5.00	8.00	8.00	8.00	8.00	7.00	7.00	8.00	8.00	7.00	8.00	8.00	7.00	6.00	7.00	7.00	6.00	6.00	7.00	6.00	7.00	6.00	6.00	4.00	5.00	4.00	5.00	5.00	10.00	11.00	14.00	16.00	19.00	22.00	25.00	27.00	30.00	35.00	38.00	40.00	43.00	47.00	49.00	51.00	54.00	55.00	59.00	60.00	64.00	70.00	68.00	74.00	77.00	79.00	82.00	97.00	103.00	107.00	106.00	116.00	122.00	127.00	134.00	138.00	151.00	151.00	149.00	145.00	142.00	140.00	139.00	141.00	144.00	140.00	137.00	132.00	129.00	128.00	129.00	127.00	121.00	118.00	123.00	126.00	126.00	127.00	134.00	137.00	139.00	141.00	143.00	146.00	148.00	150.00	149.00	182.00	220.00	228.00	224.00	210.00	212.00	192.00	179.00	208.00	201.00	191.00	188.00	212.00	229.00	221.00	202.00	193.00	194.00	193.00	201.00	205.00	202.00	204.00	215.00	221.00	217.00	220.00	227.00	232.00	236.00	241.00	242.00	244.00	242.00	243.00	247.00	252.00	252.00	257.00	259.00	263.00	263.00	265.00	267.00	268.00	276.00	279.00	287.00	290.00	287.00	291.00	294.00	297.00	304.00	316.00	322.00	327.00	330.00	335.00	338.00	344.00	351.00	361.00	389.00	427.00	422.00	422.00	444.00	454.00	461.00	444.00	411.00	391.00	384.00	382.00	371.00	375.00	368.00	360.00	362.00	364.00	382.00	370.00	383.00	374.00	352.00	348.00	348.00	350.00	357.00	348.00	349.00	342.00	344.00	331.00	342.00	347.00	343.00	337.00	328.00	322.00	325.00	329.00	340.00	351.00	355.00	371.00	377.00	383.00	386.00	381.00	388.00	400.00	398.00	385.00	365.00	367.00	349.00	339.00	335.00	333.00	319.00	318.00	323.00	321.00	311.00	308.00	324.00	330.00	340.00	348.00	343.00	351.00	346.00	342.00	348.00	350.00	355.00	375.00	372.00	362.00	349.00	338.00	331.00	339.00	349.00	358.00	364.00	382.00	389.00	395.00	396.00	402.00	412.00	423.00	428.00
6.00	8.00	7.00	6.00	5.00	6.00	8.00	8.00	7.00	7.00	8.00	7.00	8.00	8.00	7.00	7.00	8.00	7.00	6.00	7.00	7.00	7.00	6.00	7.00	7.00	6.00	6.00	5.00	5.00	5.00	5.00	5.00	5.00	7.00	9.00	14.00	16.00	19.00	23.00	25.00	27.00	30.00	36.00	39.00	41.00	43.00	48.00	51.00	53.00	57.00	58.00	62.00	64.00	67.00	73.00	72.00	72.00	78.00	81.00	84.00	95.00	103.00	112.00	110.00	114.00	120.00	128.00	135.00	141.00	152.00	152.00	151.00	149.00	145.00	142.00	141.00	145.00	148.00	142.00	140.00	135.00	132.00	130.00	129.00	128.00	125.00	120.00	123.00	127.00	128.00	129.00	135.00	137.00	138.00	139.00	141.00	142.00	145.00	149.00	159.00	191.00	226.00	223.00	193.00	197.00	190.00	174.00	173.00	194.00	191.00	184.00	188.00	223.00	230.00	200.00	198.00	199.00	201.00	195.00	199.00	198.00	200.00	203.00	211.00	213.00	218.00	223.00	231.00	233.00	235.00	239.00	241.00	247.00	249.00	247.00	248.00	252.00	255.00	258.00	261.00	262.00	262.00	265.00	270.00	273.00	277.00	280.00	282.00	283.00	285.00	291.00	296.00	300.00	304.00	315.00	319.00	324.00	326.00	333.00	340.00	347.00	353.00	360.00	384.00	418.00	411.00	418.00	444.00	455.00	464.00	442.00	413.00	394.00	385.00	382.00	371.00	364.00	362.00	358.00	356.00	358.00	392.00	372.00	376.00	370.00	349.00	345.00	342.00	346.00	352.00	345.00	341.00	339.00	334.00	335.00	350.00	353.00	349.00	343.00	334.00	324.00	329.00	326.00	339.00	348.00	358.00	367.00	372.00	379.00	374.00	379.00	384.00	389.00	385.00	374.00	360.00	356.00	349.00	340.00	333.00	330.00	315.00	308.00	310.00	305.00	303.00	310.00	324.00	332.00	342.00	341.00	335.00	341.00	333.00	332.00	344.00	350.00	359.00	374.00	363.00	356.00	348.00	335.00	329.00	336.00	347.00	354.00	363.00	383.00	392.00	401.00	403.00	403.00	416.00	427.00	441.00
7.00	7.00	7.00	6.00	6.00	7.00	9.00	7.00	6.00	6.00	6.00	8.00	7.00	9.00	7.00	7.00	8.00	9.00	7.00	8.00	7.00	7.00	7.00	6.00	6.00	5.00	5.00	5.00	7.00	7.00	7.00	7.00	6.00	7.00	11.00	14.00	17.00	20.00	23.00	26.00	28.00	30.00	37.00	39.00	42.00	45.00	51.00	53.00	56.00	61.00	64.00	68.00	70.00	73.00	78.00	75.00	80.00	81.00	82.00	86.00	98.00	103.00	105.00	112.00	124.00	131.00	137.00	143.00	149.00	161.00	161.00	160.00	159.00	149.00	147.00	151.00	155.00	152.00	147.00	145.00	141.00	138.00	134.00	133.00	131.00	132.00	128.00	123.00	125.00	126.00	128.00	130.00	133.00	135.00	139.00	141.00	158.00	176.00	194.00	211.00	172.00	216.00	197.00	193.00	189.00	180.00	211.00	193.00	189.00	179.00	183.00	193.00	215.00	209.00	208.00	212.00	222.00	211.00	198.00	200.00	200.00	202.00	201.00	217.00	219.00	220.00	224.00	232.00	236.00	238.00	240.00	242.00	252.00	255.00	257.00	258.00	261.00	261.00	266.00	270.00	270.00	267.00	270.00	276.00	279.00	284.00	285.00	289.00	290.00	292.00	293.00	300.00	302.00	303.00	314.00	316.00	321.00	325.00	337.00	346.00	353.00	361.00	368.00	386.00	407.00	434.00	435.00	438.00	455.00	451.00	427.00	399.00	384.00	377.00	376.00	386.00	383.00	372.00	358.00	361.00	357.00	350.00	346.00	353.00	357.00	349.00	349.00	345.00	338.00	336.00	334.00	331.00	326.00	324.00	332.00	342.00	347.00	349.00	336.00	331.00	322.00	317.00	324.00	342.00	350.00	356.00	363.00	364.00	360.00	376.00	389.00	392.00	376.00	364.00	355.00	348.00	343.00	333.00	328.00	324.00	317.00	311.00	305.00	300.00	299.00	302.00	319.00	335.00	342.00	345.00	327.00	320.00	316.00	322.00	332.00	347.00	345.00	350.00	349.00	352.00	341.00	337.00	326.00	322.00	340.00	347.00	351.00	357.00	378.00	383.00	388.00	393.00	398.00	410.00	426.00	428.00
7.00	7.00	6.00	6.00	7.00	7.00	8.00	7.00	6.00	6.00	6.00	7.00	8.00	9.00	8.00	7.00	9.00	10.00	8.00	7.00	8.00	8.00	7.00	6.00	6.00	5.00	5.00	6.00	6.00	8.00	8.00	7.00	7.00	7.00	10.00	13.00	16.00	20.00	24.00	27.00	29.00	31.00	36.00	39.00	42.00	46.00	52.00	55.00	57.00	62.00	65.00	72.00	74.00	77.00	83.00	77.00	78.00	83.00	85.00	89.00	96.00	103.00	107.00	115.00	126.00	132.00	139.00	147.00	149.00	163.00	163.00	166.00	162.00	152.00	150.00	153.00	158.00	155.00	151.00	149.00	145.00	139.00	137.00	135.00	134.00	133.00	129.00	126.00	124.00	126.00	129.00	133.00	135.00	138.00	140.00	144.00	183.00	188.00	210.00	223.00	205.00	175.00	170.00	181.00	176.00	211.00	228.00	221.00	195.00	177.00	183.00	196.00	211.00	211.00	221.00	226.00	219.00	221.00	199.00	205.00	204.00	204.00	205.00	217.00	219.00	223.00	227.00	234.00	236.00	240.00	243.00	245.00	254.00	257.00	256.00	259.00	262.00	264.00	267.00	270.00	273.00	271.00	273.00	280.00	282.00	288.00	291.00	292.00	295.00	298.00	293.00	296.00	299.00	302.00	314.00	319.00	324.00	327.00	338.00	346.00	354.00	360.00	367.00	397.00	416.00	441.00	440.00	447.00	450.00	441.00	414.00	392.00	388.00	381.00	383.00	384.00	374.00	366.00	370.00	373.00	364.00	357.00	353.00	345.00	342.00	347.00	343.00	345.00	337.00	327.00	329.00	328.00	323.00	319.00	330.00	341.00	348.00	339.00	328.00	325.00	318.00	315.00	316.00	336.00	348.00	355.00	356.00	352.00	359.00	381.00	397.00	401.00	373.00	359.00	353.00	345.00	343.00	328.00	323.00	317.00	312.00	306.00	300.00	297.00	297.00	305.00	327.00	342.00	343.00	343.00	325.00	314.00	312.00	325.00	339.00	341.00	336.00	339.00	339.00	345.00	338.00	326.00	319.00	324.00	339.00	348.00	355.00	359.00	376.00	382.00	388.00	384.00	388.00	397.00	415.00	414.00
7.00	7.00	6.00	6.00	7.00	8.00	9.00	7.00	6.00	7.00	6.00	7.00	8.00	9.00	9.00	9.00	9.00	9.00	8.00	8.00	8.00	7.00	7.00	7.00	6.00	6.00	6.00	7.00	7.00	8.00	8.00	8.00	8.00	7.00	9.00	13.00	17.00	21.00	25.00	27.00	28.00	30.00	36.00	39.00	42.00	46.00	52.00	56.00	58.00	63.00	66.00	72.00	77.00	80.00	79.00	82.00	82.00	85.00	86.00	90.00	98.00	101.00	104.00	112.00	128.00	134.00	142.00	145.00	148.00	164.00	167.00	169.00	163.00	154.00	152.00	155.00	157.00	157.00	155.00	151.00	146.00	140.00	139.00	136.00	134.00	135.00	135.00	130.00	128.00	129.00	131.00	135.00	137.00	141.00	146.00	164.00	190.00	212.00	219.00	225.00	212.00	172.00	165.00	174.00	209.00	224.00	223.00	204.00	185.00	181.00	195.00	230.00	214.00	216.00	232.00	225.00	232.00	211.00	202.00	204.00	208.00	205.00	206.00	213.00	218.00	220.00	222.00	229.00	232.00	237.00	242.00	247.00	253.00	255.00	257.00	260.00	263.00	263.00	266.00	270.00	273.00	276.00	278.00	283.00	286.00	293.00	295.00	297.00	299.00	303.00	299.00	300.00	305.00	306.00	311.00	314.00	320.00	326.00	340.00	345.00	353.00	357.00	367.00	400.00	427.00	444.00	448.00	451.00	438.00	422.00	400.00	383.00	391.00	391.00	391.00	385.00	380.00	376.00	377.00	387.00	376.00	368.00	368.00	357.00	346.00	340.00	338.00	341.00	336.00	325.00	324.00	323.00	319.00	318.00	326.00	338.00	342.00	332.00	326.00	321.00	313.00	314.00	314.00	331.00	339.00	341.00	351.00	348.00	360.00	373.00	398.00	409.00	378.00	364.00	356.00	350.00	346.00	328.00	320.00	316.00	313.00	303.00	299.00	299.00	300.00	313.00	322.00	327.00	338.00	338.00	318.00	308.00	315.00	325.00	336.00	333.00	326.00	328.00	325.00	333.00	329.00	319.00	318.00	326.00	339.00	350.00	358.00	364.00	376.00	382.00	380.00	374.00	378.00	387.00	394.00	396.00
6.00	7.00	7.00	7.00	7.00	8.00	8.00	7.00	7.00	6.00	6.00	6.00	8.00	9.00	9.00	9.00	9.00	9.00	8.00	8.00	7.00	7.00	7.00	7.00	6.00	7.00	7.00	8.00	8.00	8.00	9.00	9.00	10.00	8.00	13.00	15.00	18.00	23.00	26.00	28.00	30.00	31.00	38.00	41.00	43.00	46.00	53.00	56.00	59.00	64.00	67.00	73.00	77.00	81.00	84.00	88.00	89.00	89.00	89.00	94.00	98.00	105.00	105.00	113.00	129.00	136.00	144.00	148.00	150.00	164.00	168.00	170.00	162.00	156.00	154.00	157.00	160.00	161.00	159.00	155.00	146.00	140.00	141.00	137.00	135.00	140.00	139.00	133.00	129.00	132.00	135.00	139.00	142.00	151.00	166.00	176.00	215.00	224.00	224.00	227.00	212.00	174.00	183.00	221.00	232.00	227.00	201.00	184.00	179.00	189.00	210.00	226.00	217.00	228.00	222.00	227.00	215.00	206.00	206.00	208.00	209.00	209.00	208.00	209.00	214.00	217.00	218.00	231.00	235.00	240.00	243.00	247.00	249.00	254.00	259.00	257.00	259.00	259.00	263.00	267.00	269.00	278.00	282.00	288.00	291.00	297.00	300.00	302.00	304.00	307.00	306.00	307.00	308.00	313.00	313.00	315.00	320.00	333.00	345.00	347.00	356.00	361.00	369.00	406.00	435.00	439.00	453.00	457.00	444.00	415.00	389.00	380.00	381.00	387.00	389.00	392.00	386.00	389.00	389.00	396.00	387.00	379.00	370.00	359.00	350.00	332.00	336.00	334.00	333.00	329.00	318.00	319.00	313.00	319.00	315.00	334.00	350.00	346.00	335.00	313.00	310.00	312.00	313.00	323.00	330.00	340.00	355.00	355.00	361.00	367.00	384.00	400.00	379.00	368.00	362.00	356.00	347.00	323.00	317.00	314.00	312.00	304.00	298.00	294.00	298.00	306.00	308.00	319.00	336.00	333.00	310.00	307.00	323.00	332.00	337.00	324.00	316.00	315.00	319.00	317.00	316.00	314.00	319.00	329.00	343.00	351.00	359.00	366.00	378.00	373.00	373.00	376.00	379.00	386.00	388.00	392.00
8.00	7.00	8.00	7.00	9.00	8.00	7.00	7.00	7.00	8.00	7.00	8.00	10.00	10.00	9.00	9.00	9.00	9.00	10.00	8.00	7.00	8.00	7.00	7.00	9.00	9.00	9.00	10.00	9.00	10.00	10.00	10.00	9.00	12.00	15.00	18.00	21.00	24.00	28.00	30.00	33.00	35.00	41.00	44.00	47.00	49.00	54.00	57.00	60.00	65.00	68.00	76.00	81.00	82.00	87.00	93.00	95.00	96.00	99.00	102.00	109.00	110.00	113.00	119.00	127.00	134.00	141.00	148.00	155.00	164.00	167.00	169.00	165.00	160.00	160.00	164.00	166.00	164.00	158.00	155.00	148.00	144.00	142.00	138.00	140.00	142.00	143.00	137.00	133.00	135.00	139.00	155.00	163.00	169.00	182.00	206.00	219.00	223.00	224.00	232.00	220.00	239.00	242.00	237.00	213.00	190.00	186.00	183.00	183.00	221.00	223.00	222.00	232.00	234.00	235.00	217.00	209.00	211.00	217.00	219.00	226.00	238.00	238.00	213.00	215.00	220.00	221.00	229.00	233.00	237.00	236.00	239.00	243.00	245.00	246.00	250.00	252.00	256.00	262.00	270.00	276.00	286.00	290.00	306.00	310.00	304.00	310.00	311.00	314.00	317.00	316.00	319.00	318.00	321.00	327.00	326.00	319.00	325.00	341.00	347.00	358.00	366.00	370.00	395.00	423.00	453.00	471.00	429.00	417.00	402.00	392.00	375.00	368.00	362.00	360.00	378.00	406.00	417.00	396.00	379.00	369.00	382.00	375.00	363.00	355.00	332.00	325.00	332.00	331.00	328.00	328.00	322.00	317.00	312.00	310.00	330.00	338.00	339.00	327.00	312.00	303.00	303.00	314.00	327.00	333.00	335.00	340.00	343.00	362.00	368.00	373.00	376.00	376.00	370.00	365.00	355.00	345.00	327.00	326.00	322.00	322.00	321.00	308.00	300.00	296.00	290.00	291.00	316.00	325.00	318.00	302.00	315.00	325.00	335.00	335.00	306.00	301.00	302.00	307.00	312.00	324.00	328.00	332.00	333.00	353.00	357.00	359.00	365.00	362.00	361.00	367.00	371.00	375.00	387.00	393.00	395.00
9.00	8.00	8.00	8.00	8.00	8.00	8.00	6.00	6.00	8.00	8.00	8.00	9.00	9.00	9.00	9.00	10.00	10.00	10.00	8.00	8.00	8.00	8.00	7.00	10.00	10.00	10.00	11.00	10.00	11.00	9.00	10.00	9.00	14.00	16.00	18.00	22.00	24.00	29.00	31.00	33.00	36.00	41.00	43.00	45.00	48.00	55.00	57.00	60.00	66.00	69.00	76.00	78.00	83.00	86.00	93.00	95.00	97.00	101.00	104.00	110.00	110.00	112.00	115.00	127.00	134.00	140.00	147.00	151.00	161.00	162.00	164.00	164.00	164.00	163.00	165.00	164.00	164.00	158.00	155.00	146.00	147.00	143.00	142.00	145.00	148.00	147.00	140.00	136.00	136.00	139.00	169.00	162.00	175.00	204.00	211.00	216.00	216.00	229.00	244.00	242.00	242.00	243.00	217.00	197.00	191.00	188.00	185.00	187.00	230.00	223.00	208.00	236.00	235.00	237.00	216.00	214.00	217.00	226.00	229.00	238.00	241.00	226.00	215.00	216.00	217.00	223.00	228.00	232.00	233.00	232.00	233.00	240.00	241.00	246.00	248.00	252.00	255.00	262.00	268.00	275.00	285.00	293.00	304.00	309.00	313.00	318.00	317.00	318.00	322.00	323.00	327.00	324.00	331.00	344.00	334.00	324.00	327.00	341.00	349.00	357.00	365.00	375.00	406.00	437.00	457.00	476.00	430.00	388.00	387.00	398.00	373.00	367.00	366.00	357.00	377.00	394.00	406.00	414.00	387.00	369.00	372.00	377.00	365.00	357.00	327.00	322.00	321.00	324.00	325.00	327.00	323.00	318.00	313.00	305.00	321.00	333.00	328.00	316.00	308.00	298.00	302.00	312.00	316.00	325.00	327.00	343.00	345.00	350.00	356.00	362.00	367.00	378.00	362.00	355.00	349.00	341.00	330.00	330.00	334.00	332.00	324.00	314.00	307.00	305.00	297.00	291.00	304.00	312.00	300.00	305.00	314.00	325.00	331.00	328.00	299.00	300.00	301.00	309.00	316.00	322.00	331.00	338.00	337.00	349.00	351.00	353.00	357.00	356.00	359.00	367.00	371.00	375.00	393.00	396.00	398.00
10.00	10.00	7.00	8.00	8.00	8.00	9.00	8.00	7.00	7.00	8.00	8.00	9.00	10.00	10.00	9.00	9.00	9.00	11.00	8.00	9.00	8.00	8.00	8.00	11.00	10.00	10.00	11.00	11.00	11.00	10.00	10.00	10.00	16.00	18.00	19.00	22.00	25.00	29.00	31.00	33.00	36.00	41.00	44.00	45.00	49.00	56.00	59.00	61.00	67.00	69.00	77.00	78.00	82.00	85.00	91.00	95.00	98.00	102.00	105.00	111.00	110.00	114.00	115.00	126.00	133.00	140.00	146.00	150.00	160.00	162.00	162.00	165.00	168.00	168.00	168.00	167.00	165.00	158.00	155.00	150.00	150.00	146.00	146.00	149.00	152.00	149.00	142.00	138.00	137.00	139.00	170.00	168.00	186.00	201.00	210.00	209.00	218.00	244.00	246.00	249.00	244.00	217.00	202.00	198.00	195.00	190.00	190.00	193.00	222.00	205.00	209.00	241.00	237.00	231.00	216.00	219.00	224.00	247.00	244.00	228.00	222.00	216.00	227.00	226.00	218.00	220.00	225.00	226.00	229.00	233.00	236.00	240.00	242.00	244.00	247.00	257.00	258.00	260.00	266.00	273.00	286.00	297.00	309.00	307.00	317.00	329.00	329.00	331.00	325.00	330.00	337.00	331.00	336.00	357.00	335.00	325.00	328.00	340.00	353.00	362.00	372.00	384.00	417.00	441.00	467.00	478.00	416.00	384.00	375.00	380.00	374.00	366.00	363.00	360.00	372.00	404.00	399.00	388.00	404.00	381.00	356.00	366.00	368.00	363.00	344.00	342.00	323.00	321.00	317.00	323.00	324.00	319.00	313.00	300.00	315.00	322.00	317.00	309.00	304.00	297.00	301.00	308.00	316.00	318.00	330.00	340.00	335.00	344.00	353.00	356.00	360.00	375.00	363.00	357.00	349.00	344.00	335.00	341.00	344.00	340.00	329.00	321.00	319.00	310.00	304.00	291.00	294.00	299.00	289.00	306.00	317.00	325.00	327.00	318.00	296.00	299.00	306.00	320.00	320.00	317.00	320.00	325.00	330.00	334.00	340.00	346.00	347.00	353.00	358.00	363.00	367.00	382.00	410.00	415.00	411.00
8.00	8.00	8.00	8.00	8.00	8.00	8.00	9.00	9.00	8.00	8.00	9.00	10.00	9.00	10.00	9.00	9.00	9.00	11.00	9.00	8.00	8.00	10.00	8.00	12.00	10.00	11.00	11.00	11.00	11.00	11.00	10.00	12.00	16.00	19.00	20.00	23.00	26.00	29.00	32.00	34.00	38.00	42.00	45.00	47.00	51.00	57.00	60.00	63.00	68.00	71.00	77.00	79.00	82.00	86.00	92.00	96.00	99.00	103.00	106.00	112.00	110.00	115.00	118.00	126.00	131.00	139.00	144.00	147.00	159.00	160.00	162.00	165.00	172.00	173.00	172.00	168.00	167.00	160.00	159.00	153.00	153.00	150.00	150.00	152.00	154.00	151.00	144.00	140.00	141.00	144.00	174.00	181.00	202.00	196.00	205.00	208.00	224.00	240.00	241.00	252.00	238.00	208.00	203.00	202.00	198.00	197.00	223.00	219.00	194.00	196.00	233.00	235.00	234.00	226.00	222.00	226.00	236.00	250.00	232.00	225.00	220.00	220.00	244.00	228.00	219.00	223.00	228.00	229.00	233.00	238.00	241.00	246.00	247.00	245.00	249.00	258.00	262.00	263.00	268.00	276.00	289.00	297.00	312.00	312.00	319.00	335.00	352.00	351.00	336.00	333.00	338.00	334.00	341.00	346.00	334.00	327.00	328.00	343.00	356.00	365.00	375.00	389.00	415.00	446.00	479.00	482.00	426.00	388.00	373.00	371.00	378.00	368.00	369.00	366.00	365.00	397.00	373.00	377.00	385.00	384.00	347.00	352.00	363.00	373.00	366.00	343.00	328.00	321.00	314.00	321.00	319.00	317.00	310.00	300.00	305.00	310.00	305.00	304.00	300.00	295.00	299.00	311.00	317.00	319.00	328.00	330.00	334.00	342.00	347.00	349.00	355.00	367.00	361.00	355.00	350.00	346.00	342.00	350.00	351.00	343.00	332.00	331.00	322.00	313.00	308.00	291.00	284.00	284.00	283.00	307.00	317.00	324.00	318.00	304.00	300.00	307.00	314.00	324.00	328.00	326.00	323.00	321.00	325.00	331.00	337.00	343.00	343.00	353.00	354.00	362.00	372.00	389.00	416.00	422.00	430.00
9.00	9.00	7.00	8.00	9.00	8.00	8.00	9.00	9.00	9.00	10.00	9.00	9.00	10.00	10.00	10.00	9.00	9.00	10.00	9.00	10.00	10.00	12.00	13.00	8.00	12.00	11.00	12.00	11.00	12.00	12.00	12.00	13.00	18.00	21.00	22.00	24.00	28.00	32.00	34.00	37.00	39.00	45.00	47.00	50.00	53.00	58.00	62.00	65.00	70.00	73.00	77.00	80.00	83.00	86.00	90.00	95.00	98.00	102.00	105.00	114.00	119.00	121.00	123.00	128.00	132.00	135.00	139.00	141.00	152.00	153.00	160.00	164.00	169.00	170.00	174.00	170.00	166.00	167.00	160.00	161.00	159.00	156.00	157.00	159.00	157.00	153.00	145.00	145.00	150.00	158.00	200.00	212.00	213.00	199.00	206.00	225.00	224.00	234.00	249.00	255.00	220.00	236.00	276.00	286.00	224.00	205.00	196.00	194.00	197.00	212.00	221.00	237.00	251.00	230.00	237.00	274.00	272.00	231.00	229.00	230.00	232.00	233.00	228.00	222.00	223.00	228.00	234.00	239.00	238.00	238.00	242.00	257.00	259.00	259.00	254.00	258.00	261.00	267.00	271.00	277.00	289.00	295.00	311.00	325.00	343.00	359.00	374.00	387.00	381.00	359.00	351.00	347.00	352.00	340.00	334.00	336.00	341.00	354.00	367.00	380.00	392.00	405.00	432.00	469.00	486.00	475.00	414.00	384.00	369.00	366.00	367.00	367.00	364.00	366.00	371.00	346.00	357.00	355.00	343.00	336.00	338.00	351.00	368.00	368.00	351.00	327.00	321.00	316.00	313.00	316.00	314.00	312.00	311.00	302.00	294.00	296.00	299.00	305.00	293.00	289.00	301.00	312.00	323.00	331.00	336.00	337.00	340.00	342.00	343.00	350.00	358.00	368.00	371.00	368.00	371.00	365.00	367.00	373.00	374.00	365.00	345.00	331.00	321.00	318.00	319.00	301.00	281.00	280.00	284.00	308.00	311.00	302.00	294.00	291.00	305.00	313.00	321.00	332.00	345.00	347.00	351.00	347.00	338.00	338.00	342.00	353.00	357.00	370.00	373.00	383.00	396.00	405.00	408.00	412.00	420.00
9.00	9.00	8.00	8.00	9.00	9.00	9.00	9.00	9.00	10.00	10.00	10.00	8.00	10.00	10.00	10.00	10.00	10.00	10.00	8.00	12.00	9.00	13.00	12.00	9.00	12.00	13.00	12.00	12.00	12.00	12.00	11.00	12.00	17.00	20.00	22.00	25.00	28.00	32.00	36.00	39.00	41.00	46.00	48.00	50.00	53.00	59.00	62.00	64.00	70.00	72.00	78.00	81.00	83.00	86.00	90.00	94.00	98.00	103.00	106.00	113.00	118.00	120.00	124.00	129.00	133.00	136.00	138.00	140.00	148.00	153.00	159.00	162.00	167.00	170.00	172.00	172.00	170.00	168.00	163.00	165.00	162.00	161.00	161.00	160.00	157.00	153.00	148.00	151.00	153.00	165.00	209.00	213.00	202.00	206.00	217.00	215.00	224.00	239.00	249.00	239.00	247.00	284.00	289.00	279.00	210.00	198.00	195.00	195.00	198.00	202.00	214.00	256.00	243.00	236.00	249.00	274.00	245.00	235.00	241.00	254.00	247.00	245.00	226.00	224.00	223.00	226.00	233.00	238.00	243.00	245.00	243.00	257.00	260.00	266.00	261.00	262.00	265.00	269.00	271.00	275.00	287.00	295.00	311.00	325.00	355.00	369.00	382.00	398.00	404.00	381.00	359.00	359.00	361.00	341.00	336.00	338.00	343.00	357.00	369.00	382.00	396.00	408.00	450.00	484.00	492.00	477.00	420.00	388.00	375.00	372.00	365.00	375.00	385.00	377.00	353.00	343.00	364.00	351.00	342.00	333.00	340.00	351.00	359.00	361.00	348.00	325.00	317.00	316.00	316.00	309.00	307.00	309.00	308.00	301.00	297.00	289.00	298.00	299.00	289.00	287.00	300.00	309.00	325.00	334.00	337.00	333.00	336.00	341.00	347.00	359.00	363.00	371.00	376.00	371.00	378.00	370.00	378.00	391.00	391.00	373.00	339.00	330.00	321.00	315.00	309.00	298.00	282.00	279.00	283.00	307.00	306.00	297.00	289.00	289.00	307.00	313.00	324.00	340.00	353.00	356.00	359.00	355.00	349.00	350.00	347.00	357.00	360.00	373.00	378.00	387.00	397.00	399.00	407.00	413.00	419.00
10.00	9.00	8.00	9.00	9.00	9.00	10.00	10.00	10.00	11.00	11.00	11.00	9.00	10.00	9.00	10.00	10.00	10.00	10.00	12.00	13.00	11.00	13.00	11.00	11.00	11.00	14.00	12.00	13.00	13.00	13.00	12.00	13.00	18.00	21.00	23.00	24.00	29.00	34.00	37.00	39.00	42.00	47.00	49.00	51.00	53.00	59.00	59.00	60.00	71.00	72.00	78.00	81.00	84.00	87.00	89.00	95.00	101.00	105.00	110.00	115.00	118.00	122.00	126.00	133.00	136.00	139.00	143.00	142.00	148.00	152.00	157.00	161.00	168.00	169.00	173.00	175.00	175.00	172.00	167.00	165.00	166.00	165.00	162.00	160.00	157.00	153.00	153.00	156.00	162.00	172.00	208.00	204.00	209.00	214.00	211.00	220.00	231.00	243.00	250.00	227.00	285.00	283.00	268.00	240.00	201.00	198.00	196.00	199.00	201.00	206.00	227.00	253.00	238.00	241.00	249.00	245.00	238.00	245.00	275.00	282.00	271.00	266.00	227.00	225.00	225.00	228.00	236.00	240.00	244.00	249.00	250.00	252.00	258.00	263.00	267.00	271.00	271.00	270.00	271.00	275.00	285.00	293.00	311.00	324.00	356.00	370.00	388.00	405.00	420.00	386.00	386.00	389.00	375.00	346.00	340.00	342.00	346.00	362.00	376.00	388.00	400.00	420.00	484.00	493.00	501.00	482.00	433.00	396.00	386.00	383.00	370.00	393.00	379.00	376.00	365.00	344.00	341.00	347.00	353.00	339.00	340.00	360.00	375.00	380.00	339.00	325.00	319.00	313.00	309.00	303.00	298.00	298.00	304.00	298.00	298.00	290.00	297.00	300.00	282.00	297.00	304.00	304.00	328.00	343.00	336.00	332.00	333.00	354.00	359.00	365.00	371.00	375.00	382.00	375.00	383.00	386.00	390.00	396.00	392.00	377.00	341.00	332.00	322.00	314.00	308.00	298.00	284.00	277.00	283.00	301.00	298.00	291.00	289.00	290.00	308.00	315.00	324.00	345.00	358.00	365.00	366.00	363.00	359.00	358.00	355.00	358.00	363.00	375.00	381.00	389.00	393.00	396.00	406.00	412.00	419.00
9.00	9.00	9.00	9.00	9.00	10.00	11.00	10.00	10.00	10.00	10.00	12.00	11.00	10.00	9.00	11.00	11.00	10.00	10.00	11.00	12.00	14.00	14.00	13.00	13.00	13.00	15.00	14.00	14.00	13.00	13.00	13.00	15.00	19.00	21.00	22.00	25.00	29.00	34.00	37.00	41.00	44.00	48.00	50.00	52.00	54.00	58.00	56.00	62.00	66.00	71.00	79.00	81.00	84.00	86.00	91.00	96.00	100.00	109.00	111.00	118.00	121.00	124.00	127.00	137.00	140.00	142.00	145.00	145.00	150.00	154.00	157.00	161.00	166.00	169.00	172.00	177.00	183.00	175.00	169.00	169.00	173.00	168.00	165.00	161.00	158.00	154.00	157.00	163.00	168.00	181.00	205.00	210.00	211.00	210.00	215.00	226.00	238.00	243.00	240.00	239.00	283.00	260.00	232.00	210.00	203.00	198.00	198.00	198.00	202.00	215.00	227.00	241.00	231.00	254.00	251.00	244.00	242.00	264.00	288.00	279.00	273.00	248.00	230.00	227.00	227.00	231.00	240.00	244.00	248.00	251.00	254.00	258.00	257.00	260.00	266.00	277.00	278.00	278.00	294.00	284.00	287.00	293.00	310.00	322.00	350.00	367.00	392.00	410.00	422.00	408.00	410.00	404.00	389.00	354.00	347.00	346.00	350.00	368.00	380.00	396.00	410.00	430.00	498.00	506.00	506.00	493.00	445.00	405.00	395.00	382.00	380.00	396.00	398.00	390.00	388.00	366.00	347.00	337.00	356.00	348.00	344.00	361.00	371.00	391.00	334.00	324.00	317.00	314.00	310.00	304.00	299.00	296.00	297.00	298.00	292.00	286.00	287.00	294.00	288.00	303.00	305.00	307.00	326.00	330.00	323.00	330.00	337.00	357.00	365.00	372.00	378.00	383.00	391.00	389.00	393.00	403.00	389.00	381.00	376.00	372.00	345.00	334.00	327.00	319.00	314.00	300.00	281.00	275.00	282.00	293.00	292.00	285.00	284.00	287.00	315.00	322.00	329.00	346.00	365.00	373.00	376.00	367.00	366.00	372.00	360.00	361.00	362.00	376.00	382.00	387.00	391.00	396.00	406.00	414.00	421.00
8.00	9.00	9.00	10.00	10.00	10.00	11.00	10.00	11.00	11.00	11.00	13.00	11.00	10.00	10.00	10.00	11.00	11.00	11.00	13.00	12.00	10.00	14.00	15.00	14.00	15.00	16.00	13.00	15.00	15.00	14.00	14.00	17.00	17.00	20.00	23.00	24.00	30.00	35.00	38.00	41.00	44.00	47.00	51.00	52.00	51.00	58.00	62.00	62.00	69.00	72.00	78.00	82.00	85.00	90.00	98.00	100.00	105.00	110.00	117.00	129.00	129.00	130.00	133.00	140.00	148.00	152.00	154.00	153.00	157.00	158.00	161.00	165.00	173.00	174.00	175.00	178.00	184.00	176.00	170.00	172.00	177.00	173.00	170.00	166.00	162.00	159.00	169.00	180.00	188.00	192.00	202.00	200.00	206.00	224.00	231.00	244.00	241.00	239.00	242.00	272.00	229.00	223.00	218.00	217.00	202.00	203.00	205.00	207.00	239.00	214.00	246.00	224.00	233.00	247.00	237.00	244.00	265.00	270.00	264.00	250.00	240.00	238.00	247.00	236.00	231.00	233.00	241.00	244.00	247.00	250.00	255.00	266.00	272.00	273.00	271.00	275.00	292.00	298.00	301.00	297.00	295.00	304.00	312.00	320.00	347.00	367.00	387.00	407.00	428.00	423.00	418.00	411.00	396.00	359.00	352.00	355.00	361.00	379.00	391.00	403.00	420.00	446.00	510.00	471.00	456.00	450.00	429.00	411.00	399.00	388.00	378.00	383.00	384.00	377.00	382.00	370.00	352.00	338.00	328.00	329.00	337.00	337.00	354.00	369.00	325.00	322.00	320.00	315.00	311.00	307.00	298.00	298.00	294.00	284.00	287.00	284.00	279.00	275.00	287.00	296.00	307.00	310.00	311.00	315.00	322.00	339.00	346.00	365.00	374.00	382.00	389.00	411.00	420.00	421.00	432.00	418.00	380.00	370.00	366.00	359.00	331.00	333.00	328.00	315.00	307.00	298.00	277.00	272.00	282.00	275.00	279.00	280.00	289.00	297.00	316.00	322.00	327.00	340.00	358.00	371.00	380.00	377.00	375.00	384.00	371.00	366.00	366.00	380.00	385.00	385.00	388.00	393.00	399.00	415.00	421.00
6.00	9.00	10.00	9.00	10.00	10.00	11.00	10.00	11.00	11.00	12.00	12.00	11.00	10.00	10.00	11.00	10.00	11.00	12.00	13.00	13.00	11.00	11.00	16.00	15.00	16.00	15.00	13.00	16.00	14.00	14.00	14.00	17.00	15.00	19.00	23.00	24.00	31.00	36.00	38.00	40.00	41.00	47.00	50.00	51.00	58.00	58.00	61.00	62.00	71.00	74.00	80.00	84.00	87.00	91.00	98.00	103.00	110.00	117.00	122.00	133.00	136.00	135.00	139.00	149.00	155.00	156.00	153.00	156.00	159.00	161.00	164.00	169.00	176.00	177.00	178.00	180.00	184.00	178.00	173.00	175.00	176.00	175.00	171.00	167.00	163.00	165.00	171.00	181.00	193.00	200.00	195.00	202.00	221.00	224.00	232.00	252.00	259.00	256.00	262.00	255.00	225.00	225.00	220.00	212.00	203.00	205.00	212.00	233.00	249.00	232.00	230.00	224.00	250.00	234.00	242.00	264.00	275.00	254.00	247.00	242.00	242.00	243.00	249.00	238.00	233.00	235.00	240.00	244.00	247.00	250.00	254.00	267.00	274.00	279.00	279.00	285.00	294.00	295.00	299.00	297.00	296.00	304.00	321.00	328.00	347.00	366.00	387.00	408.00	422.00	417.00	417.00	415.00	415.00	360.00	357.00	360.00	365.00	382.00	394.00	405.00	423.00	446.00	508.00	449.00	444.00	427.00	440.00	411.00	395.00	385.00	377.00	368.00	366.00	364.00	359.00	347.00	341.00	334.00	329.00	329.00	324.00	327.00	345.00	385.00	315.00	314.00	321.00	320.00	319.00	309.00	303.00	301.00	297.00	291.00	281.00	277.00	276.00	274.00	289.00	293.00	297.00	300.00	306.00	314.00	332.00	343.00	356.00	366.00	375.00	384.00	397.00	413.00	423.00	431.00	429.00	426.00	391.00	381.00	381.00	370.00	346.00	328.00	318.00	310.00	300.00	288.00	273.00	270.00	280.00	273.00	281.00	285.00	292.00	296.00	310.00	317.00	323.00	342.00	359.00	367.00	374.00	375.00	373.00	384.00	372.00	372.00	372.00	385.00	389.00	390.00	392.00	396.00	398.00	421.00	419.00
5.00	9.00	10.00	10.00	10.00	10.00	11.00	10.00	10.00	11.00	11.00	12.00	11.00	11.00	11.00	11.00	11.00	11.00	12.00	12.00	14.00	11.00	12.00	16.00	15.00	13.00	13.00	13.00	16.00	14.00	14.00	15.00	17.00	19.00	21.00	22.00	22.00	31.00	36.00	37.00	40.00	43.00	52.00	56.00	59.00	62.00	57.00	61.00	67.00	72.00	76.00	83.00	86.00	89.00	93.00	103.00	109.00	115.00	120.00	125.00	136.00	141.00	141.00	145.00	156.00	159.00	158.00	156.00	156.00	159.00	163.00	166.00	170.00	176.00	179.00	181.00	184.00	185.00	181.00	176.00	180.00	180.00	175.00	171.00	166.00	164.00	173.00	174.00	184.00	193.00	209.00	200.00	219.00	226.00	231.00	240.00	256.00	259.00	264.00	266.00	228.00	221.00	219.00	213.00	210.00	208.00	214.00	249.00	271.00	267.00	248.00	226.00	225.00	226.00	241.00	279.00	274.00	261.00	250.00	247.00	245.00	247.00	252.00	241.00	237.00	235.00	237.00	242.00	245.00	249.00	254.00	259.00	271.00	279.00	287.00	287.00	283.00	287.00	291.00	296.00	297.00	297.00	304.00	324.00	333.00	349.00	365.00	385.00	404.00	413.00	409.00	420.00	427.00	436.00	371.00	365.00	369.00	369.00	384.00	394.00	396.00	422.00	448.00	478.00	414.00	425.00	416.00	427.00	410.00	395.00	383.00	374.00	373.00	375.00	384.00	359.00	355.00	347.00	341.00	342.00	357.00	326.00	325.00	334.00	376.00	311.00	314.00	315.00	322.00	322.00	311.00	306.00	303.00	299.00	292.00	287.00	279.00	272.00	277.00	292.00	298.00	302.00	306.00	315.00	319.00	329.00	352.00	358.00	370.00	378.00	388.00	403.00	422.00	429.00	436.00	443.00	434.00	399.00	387.00	378.00	370.00	351.00	338.00	324.00	318.00	311.00	287.00	274.00	267.00	276.00	270.00	280.00	290.00	298.00	301.00	314.00	319.00	326.00	347.00	361.00	366.00	369.00	371.00	367.00	377.00	366.00	365.00	367.00	389.00	390.00	383.00	384.00	389.00	394.00	425.00	415.00
6.00	7.00	10.00	10.00	10.00	10.00	10.00	11.00	11.00	11.00	12.00	13.00	13.00	13.00	12.00	13.00	13.00	11.00	13.00	14.00	13.00	12.00	13.00	14.00	14.00	15.00	14.00	13.00	15.00	14.00	14.00	17.00	17.00	21.00	23.00	24.00	26.00	31.00	33.00	36.00	40.00	46.00	56.00	59.00	62.00	66.00	61.00	65.00	69.00	75.00	78.00	85.00	88.00	92.00	96.00	107.00	112.00	117.00	123.00	128.00	141.00	144.00	148.00	153.00	160.00	163.00	160.00	161.00	160.00	159.00	165.00	167.00	171.00	176.00	176.00	178.00	182.00	186.00	183.00	179.00	186.00	183.00	176.00	172.00	167.00	168.00	177.00	186.00	194.00	199.00	194.00	214.00	220.00	226.00	240.00	245.00	251.00	252.00	247.00	236.00	226.00	225.00	225.00	213.00	209.00	215.00	229.00	262.00	271.00	252.00	234.00	222.00	244.00	227.00	265.00	277.00	262.00	256.00	254.00	252.00	251.00	254.00	260.00	239.00	238.00	238.00	239.00	244.00	248.00	253.00	257.00	260.00	274.00	281.00	291.00	292.00	286.00	290.00	292.00	296.00	299.00	301.00	305.00	324.00	333.00	353.00	365.00	377.00	386.00	393.00	414.00	425.00	434.00	424.00	376.00	371.00	376.00	374.00	381.00	387.00	390.00	413.00	432.00	465.00	410.00	388.00	404.00	416.00	413.00	400.00	389.00	380.00	382.00	397.00	396.00	378.00	372.00	357.00	358.00	364.00	357.00	323.00	314.00	318.00	336.00	302.00	308.00	318.00	324.00	322.00	313.00	309.00	305.00	299.00	293.00	288.00	282.00	273.00	277.00	295.00	300.00	304.00	303.00	316.00	325.00	335.00	355.00	360.00	377.00	384.00	392.00	407.00	435.00	440.00	446.00	451.00	440.00	402.00	389.00	377.00	370.00	345.00	332.00	326.00	322.00	311.00	292.00	274.00	266.00	266.00	272.00	283.00	294.00	303.00	306.00	325.00	325.00	332.00	353.00	369.00	375.00	375.00	372.00	362.00	368.00	363.00	357.00	363.00	384.00	384.00	377.00	378.00	384.00	383.00	398.00	396.00
4.00	4.00	10.00	11.00	10.00	11.00	10.00	10.00	12.00	13.00	12.00	13.00	13.00	13.00	13.00	13.00	13.00	13.00	12.00	13.00	13.00	12.00	12.00	13.00	12.00	13.00	14.00	16.00	15.00	15.00	14.00	13.00	19.00	25.00	26.00	28.00	30.00	34.00	37.00	40.00	44.00	51.00	62.00	66.00	69.00	65.00	67.00	71.00	74.00	79.00	83.00	89.00	94.00	98.00	103.00	114.00	118.00	123.00	128.00	134.00	148.00	151.00	155.00	159.00	167.00	168.00	171.00	170.00	168.00	169.00	173.00	177.00	179.00	184.00	184.00	183.00	186.00	190.00	191.00	189.00	192.00	187.00	179.00	175.00	173.00	177.00	188.00	205.00	195.00	190.00	199.00	215.00	226.00	239.00	242.00	241.00	256.00	250.00	250.00	252.00	232.00	223.00	218.00	216.00	216.00	239.00	256.00	267.00	260.00	240.00	265.00	282.00	238.00	239.00	276.00	284.00	270.00	276.00	275.00	267.00	278.00	274.00	243.00	230.00	230.00	233.00	235.00	243.00	244.00	245.00	250.00	254.00	272.00	280.00	285.00	286.00	290.00	291.00	297.00	301.00	305.00	311.00	309.00	319.00	331.00	355.00	366.00	381.00	394.00	404.00	422.00	431.00	427.00	412.00	369.00	371.00	375.00	373.00	370.00	370.00	371.00	414.00	440.00	430.00	371.00	372.00	385.00	393.00	401.00	395.00	388.00	390.00	397.00	419.00	419.00	374.00	358.00	351.00	354.00	338.00	325.00	327.00	315.00	308.00	309.00	306.00	309.00	316.00	320.00	320.00	307.00	301.00	302.00	301.00	286.00	278.00	268.00	273.00	279.00	283.00	289.00	296.00	307.00	320.00	325.00	335.00	349.00	359.00	378.00	387.00	399.00	407.00	426.00	440.00	440.00	420.00	406.00	393.00	384.00	376.00	366.00	349.00	336.00	330.00	322.00	314.00	290.00	274.00	261.00	264.00	284.00	292.00	292.00	297.00	304.00	318.00	326.00	335.00	346.00	362.00	383.00	383.00	373.00	360.00	350.00	349.00	351.00	358.00	373.00	369.00	369.00	363.00	366.00	377.00	385.00	361.00
8.00	4.00	10.00	11.00	11.00	11.00	11.00	11.00	11.00	13.00	14.00	13.00	13.00	13.00	14.00	13.00	13.00	13.00	12.00	12.00	14.00	13.00	11.00	12.00	11.00	13.00	13.00	16.00	13.00	14.00	14.00	15.00	20.00	26.00	27.00	29.00	30.00	35.00	39.00	42.00	46.00	53.00	61.00	59.00	57.00	58.00	67.00	74.00	76.00	81.00	84.00	92.00	96.00	100.00	105.00	117.00	122.00	126.00	131.00	137.00	150.00	154.00	157.00	161.00	169.00	169.00	174.00	178.00	170.00	170.00	175.00	178.00	180.00	188.00	190.00	187.00	192.00	196.00	197.00	193.00	191.00	188.00	181.00	177.00	176.00	188.00	190.00	192.00	189.00	196.00	202.00	215.00	229.00	236.00	238.00	246.00	241.00	244.00	249.00	250.00	231.00	223.00	222.00	219.00	221.00	262.00	267.00	266.00	257.00	261.00	281.00	267.00	246.00	282.00	274.00	283.00	267.00	287.00	263.00	288.00	289.00	259.00	234.00	227.00	227.00	230.00	233.00	239.00	242.00	247.00	251.00	255.00	272.00	278.00	283.00	287.00	290.00	292.00	296.00	302.00	306.00	313.00	314.00	324.00	333.00	351.00	363.00	379.00	391.00	397.00	405.00	414.00	413.00	400.00	366.00	369.00	373.00	370.00	367.00	363.00	361.00	404.00	387.00	370.00	366.00	385.00	392.00	377.00	399.00	400.00	386.00	383.00	395.00	413.00	397.00	352.00	355.00	343.00	337.00	337.00	336.00	319.00	313.00	318.00	327.00	301.00	305.00	310.00	306.00	313.00	295.00	289.00	291.00	296.00	285.00	280.00	271.00	265.00	267.00	284.00	288.00	295.00	305.00	327.00	335.00	336.00	346.00	358.00	382.00	393.00	407.00	417.00	428.00	436.00	434.00	416.00	400.00	387.00	384.00	371.00	362.00	347.00	333.00	318.00	314.00	313.00	295.00	277.00	261.00	261.00	284.00	281.00	285.00	294.00	303.00	318.00	326.00	341.00	347.00	365.00	384.00	378.00	369.00	359.00	344.00	347.00	345.00	353.00	373.00	365.00	367.00	363.00	360.00	379.00	378.00	357.00
11.00	8.00	10.00	11.00	10.00	11.00	12.00	11.00	11.00	12.00	13.00	14.00	13.00	14.00	14.00	14.00	13.00	15.00	14.00	12.00	12.00	13.00	14.00	14.00	11.00	12.00	13.00	14.00	14.00	13.00	14.00	16.00	23.00	26.00	28.00	31.00	33.00	37.00	41.00	42.00	49.00	54.00	50.00	51.00	55.00	61.00	69.00	73.00	75.00	83.00	87.00	94.00	99.00	103.00	108.00	119.00	125.00	130.00	134.00	139.00	152.00	155.00	157.00	161.00	168.00	171.00	176.00	176.00	170.00	170.00	174.00	178.00	179.00	185.00	189.00	192.00	197.00	196.00	196.00	194.00	190.00	188.00	182.00	178.00	180.00	183.00	183.00	186.00	193.00	196.00	203.00	232.00	232.00	237.00	243.00	235.00	238.00	243.00	243.00	238.00	231.00	227.00	223.00	223.00	233.00	276.00	274.00	263.00	261.00	275.00	268.00	248.00	276.00	281.00	287.00	270.00	254.00	254.00	269.00	298.00	273.00	241.00	231.00	225.00	227.00	230.00	232.00	238.00	243.00	248.00	251.00	254.00	275.00	279.00	281.00	282.00	289.00	293.00	298.00	301.00	306.00	314.00	316.00	325.00	333.00	344.00	355.00	367.00	372.00	374.00	387.00	393.00	395.00	384.00	364.00	367.00	370.00	364.00	358.00	356.00	356.00	354.00	355.00	355.00	360.00	364.00	364.00	365.00	388.00	397.00	394.00	388.00	385.00	388.00	378.00	342.00	346.00	341.00	342.00	355.00	343.00	326.00	319.00	326.00	321.00	300.00	306.00	306.00	297.00	302.00	288.00	283.00	282.00	288.00	276.00	270.00	271.00	264.00	265.00	279.00	285.00	292.00	304.00	328.00	337.00	345.00	355.00	362.00	383.00	397.00	408.00	426.00	435.00	430.00	419.00	413.00	399.00	375.00	374.00	369.00	361.00	340.00	330.00	322.00	315.00	304.00	297.00	279.00	270.00	257.00	277.00	280.00	285.00	298.00	303.00	313.00	324.00	339.00	348.00	363.00	381.00	374.00	363.00	354.00	338.00	340.00	348.00	354.00	365.00	365.00	361.00	363.00	354.00	374.00	365.00	355.00
11.00	12.00	7.00	9.00	9.00	9.00	12.00	12.00	12.00	12.00	12.00	14.00	14.00	14.00	14.00	14.00	14.00	15.00	13.00	14.00	12.00	13.00	13.00	14.00	12.00	12.00	14.00	13.00	14.00	15.00	15.00	15.00	23.00	27.00	29.00	31.00	33.00	35.00	40.00	42.00	47.00	45.00	49.00	54.00	59.00	63.00	70.00	73.00	77.00	85.00	88.00	96.00	101.00	105.00	111.00	121.00	127.00	132.00	136.00	141.00	152.00	155.00	158.00	161.00	167.00	174.00	178.00	177.00	173.00	170.00	174.00	177.00	180.00	187.00	190.00	195.00	200.00	194.00	193.00	190.00	187.00	184.00	180.00	179.00	178.00	178.00	178.00	190.00	192.00	197.00	202.00	232.00	231.00	231.00	233.00	236.00	239.00	244.00	245.00	241.00	238.00	229.00	228.00	232.00	254.00	279.00	273.00	264.00	284.00	258.00	249.00	248.00	296.00	275.00	277.00	253.00	247.00	249.00	286.00	283.00	248.00	233.00	228.00	224.00	227.00	230.00	233.00	240.00	245.00	247.00	250.00	255.00	273.00	276.00	280.00	283.00	291.00	296.00	301.00	305.00	308.00	318.00	323.00	324.00	327.00	338.00	342.00	350.00	354.00	355.00	367.00	373.00	376.00	371.00	362.00	364.00	366.00	363.00	352.00	351.00	352.00	347.00	349.00	349.00	355.00	354.00	352.00	374.00	404.00	405.00	396.00	381.00	382.00	365.00	356.00	346.00	346.00	351.00	351.00	358.00	342.00	322.00	321.00	324.00	316.00	300.00	300.00	302.00	294.00	290.00	282.00	277.00	275.00	279.00	272.00	264.00	263.00	260.00	275.00	280.00	287.00	296.00	306.00	326.00	336.00	343.00	360.00	367.00	386.00	400.00	410.00	421.00	434.00	421.00	406.00	395.00	386.00	362.00	362.00	359.00	355.00	343.00	330.00	317.00	308.00	305.00	296.00	278.00	271.00	259.00	272.00	278.00	283.00	288.00	293.00	309.00	319.00	330.00	343.00	360.00	372.00	364.00	355.00	346.00	336.00	338.00	345.00	348.00	361.00	365.00	359.00	356.00	353.00	357.00	351.00	366.00
11.00	11.00	10.00	7.00	8.00	9.00	9.00	9.00	9.00	11.00	12.00	13.00	13.00	14.00	15.00	14.00	14.00	14.00	14.00	14.00	16.00	14.00	13.00	13.00	14.00	13.00	14.00	15.00	14.00	14.00	15.00	16.00	21.00	26.00	29.00	31.00	33.00	38.00	44.00	46.00	48.00	50.00	56.00	59.00	62.00	69.00	75.00	77.00	81.00	87.00	91.00	101.00	105.00	110.00	115.00	125.00	130.00	135.00	138.00	139.00	149.00	152.00	155.00	161.00	166.00	179.00	184.00	178.00	179.00	175.00	178.00	182.00	182.00	188.00	194.00	199.00	194.00	189.00	183.00	181.00	179.00	178.00	173.00	173.00	175.00	178.00	182.00	191.00	205.00	212.00	219.00	230.00	249.00	258.00	267.00	263.00	277.00	307.00	287.00	290.00	243.00	237.00	250.00	282.00	291.00	289.00	298.00	290.00	275.00	266.00	280.00	294.00	298.00	301.00	250.00	239.00	244.00	257.00	268.00	239.00	231.00	226.00	222.00	222.00	226.00	228.00	232.00	252.00	249.00	251.00	251.00	255.00	267.00	275.00	283.00	289.00	297.00	301.00	307.00	313.00	319.00	331.00	340.00	340.00	342.00	343.00	344.00	353.00	360.00	358.00	354.00	351.00	352.00	354.00	363.00	364.00	365.00	362.00	359.00	356.00	342.00	339.00	341.00	346.00	357.00	356.00	345.00	372.00	420.00	419.00	401.00	386.00	373.00	365.00	369.00	371.00	363.00	367.00	383.00	306.00	298.00	307.00	309.00	304.00	302.00	303.00	294.00	292.00	294.00	290.00	290.00	297.00	295.00	280.00	275.00	267.00	256.00	259.00	270.00	282.00	291.00	300.00	306.00	327.00	340.00	351.00	366.00	375.00	398.00	406.00	417.00	431.00	445.00	426.00	413.00	398.00	382.00	345.00	338.00	340.00	340.00	342.00	342.00	332.00	317.00	318.00	305.00	290.00	284.00	274.00	254.00	263.00	274.00	283.00	290.00	305.00	309.00	313.00	325.00	346.00	349.00	348.00	340.00	329.00	332.00	336.00	334.00	340.00	357.00	359.00	360.00	356.00	355.00	338.00	362.00	389.00
11.00	11.00	10.00	7.00	8.00	9.00	9.00	9.00	9.00	11.00	12.00	13.00	13.00	14.00	15.00	14.00	14.00	14.00	14.00	14.00	16.00	14.00	13.00	13.00	14.00	13.00	14.00	15.00	14.00	14.00	15.00	16.00	21.00	26.00	29.00	31.00	33.00	38.00	44.00	46.00	48.00	50.00	56.00	59.00	62.00	69.00	75.00	77.00	81.00	87.00	91.00	101.00	105.00	110.00	115.00	125.00	130.00	135.00	138.00	139.00	149.00	152.00	155.00	161.00	166.00	179.00	184.00	178.00	179.00	175.00	178.00	182.00	182.00	188.00	194.00	199.00	194.00	189.00	183.00	181.00	179.00	178.00	173.00	173.00	175.00	178.00	182.00	191.00	205.00	212.00	219.00	230.00	249.00	258.00	267.00	263.00	277.00	307.00	287.00	290.00	243.00	237.00	250.00	282.00	291.00	289.00	298.00	290.00	275.00	266.00	280.00	294.00	298.00	301.00	250.00	239.00	244.00	257.00	268.00	239.00	231.00	226.00	222.00	222.00	226.00	228.00	232.00	252.00	249.00	251.00	251.00	255.00	267.00	275.00	283.00	289.00	297.00	301.00	307.00	313.00	319.00	331.00	340.00	340.00	342.00	343.00	344.00	353.00	360.00	358.00	354.00	351.00	352.00	354.00	363.00	364.00	365.00	362.00	359.00	356.00	342.00	339.00	341.00	346.00	357.00	356.00	345.00	372.00	420.00	419.00	401.00	386.00	373.00	365.00	369.00	371.00	363.00	367.00	383.00	306.00	298.00	307.00	309.00	304.00	302.00	303.00	294.00	292.00	294.00	290.00	290.00	297.00	295.00	280.00	275.00	267.00	256.00	259.00	270.00	282.00	291.00	300.00	306.00	327.00	340.00	351.00	366.00	375.00	398.00	406.00	417.00	431.00	445.00	426.00	413.00	398.00	382.00	345.00	338.00	340.00	340.00	342.00	342.00	332.00	317.00	318.00	305.00	290.00	284.00	274.00	254.00	263.00	274.00	283.00	290.00	305.00	309.00	313.00	325.00	346.00	349.00	348.00	340.00	329.00	332.00	336.00	334.00	340.00	357.00	359.00	360.00	356.00	355.00	338.00	362.00	389.00
13.00	12.00	12.00	11.00	9.00	8.00	9.00	9.00	9.00	9.00	11.00	13.00	12.00	14.00	16.00	15.00	15.00	15.00	14.00	15.00	15.00	16.00	16.00	15.00	14.00	14.00	13.00	13.00	15.00	15.00	15.00	16.00	21.00	27.00	28.00	32.00	31.00	40.00	45.00	46.00	49.00	50.00	56.00	58.00	64.00	70.00	78.00	81.00	85.00	91.00	93.00	103.00	108.00	112.00	117.00	127.00	131.00	133.00	134.00	137.00	150.00	156.00	160.00	166.00	167.00	174.00	176.00	174.00	179.00	173.00	176.00	180.00	182.00	189.00	198.00	195.00	191.00	187.00	181.00	179.00	176.00	175.00	169.00	172.00	177.00	179.00	183.00	193.00	198.00	208.00	216.00	236.00	244.00	254.00	265.00	257.00	314.00	324.00	327.00	315.00	244.00	246.00	281.00	301.00	298.00	306.00	298.00	299.00	302.00	266.00	261.00	276.00	312.00	297.00	241.00	236.00	244.00	274.00	242.00	233.00	229.00	225.00	220.00	220.00	223.00	230.00	239.00	254.00	254.00	252.00	250.00	256.00	271.00	279.00	285.00	292.00	301.00	303.00	310.00	319.00	328.00	339.00	347.00	350.00	353.00	359.00	367.00	378.00	383.00	375.00	370.00	364.00	362.00	362.00	364.00	364.00	367.00	362.00	365.00	380.00	344.00	335.00	336.00	349.00	355.00	356.00	347.00	372.00	427.00	415.00	399.00	397.00	383.00	378.00	381.00	380.00	376.00	349.00	324.00	294.00	290.00	297.00	300.00	296.00	307.00	311.00	310.00	306.00	300.00	295.00	293.00	307.00	295.00	283.00	281.00	270.00	261.00	256.00	273.00	287.00	295.00	300.00	307.00	322.00	334.00	349.00	364.00	376.00	399.00	407.00	419.00	433.00	446.00	426.00	413.00	397.00	375.00	345.00	338.00	335.00	330.00	327.00	326.00	318.00	314.00	319.00	303.00	287.00	278.00	266.00	253.00	260.00	271.00	279.00	282.00	299.00	300.00	305.00	320.00	336.00	337.00	335.00	330.00	321.00	328.00	330.00	327.00	334.00	353.00	353.00	358.00	367.00	347.00	341.00	377.00	396.00
15.00	13.00	11.00	11.00	11.00	11.00	9.00	9.00	9.00	9.00	9.00	14.00	13.00	13.00	15.00	15.00	16.00	15.00	15.00	14.00	14.00	16.00	18.00	17.00	16.00	14.00	14.00	13.00	14.00	16.00	16.00	15.00	22.00	27.00	30.00	32.00	34.00	40.00	44.00	47.00	50.00	48.00	55.00	58.00	60.00	66.00	76.00	82.00	87.00	93.00	96.00	105.00	110.00	115.00	119.00	128.00	128.00	130.00	134.00	138.00	151.00	158.00	166.00	174.00	179.00	176.00	170.00	172.00	176.00	171.00	171.00	175.00	178.00	187.00	189.00	190.00	187.00	184.00	178.00	177.00	173.00	171.00	169.00	171.00	177.00	178.00	182.00	191.00	200.00	215.00	226.00	232.00	245.00	259.00	262.00	263.00	297.00	310.00	294.00	258.00	241.00	259.00	306.00	308.00	300.00	299.00	294.00	314.00	299.00	252.00	258.00	281.00	301.00	284.00	236.00	238.00	251.00	275.00	231.00	229.00	226.00	223.00	220.00	220.00	225.00	233.00	240.00	253.00	250.00	249.00	250.00	257.00	276.00	281.00	286.00	294.00	302.00	306.00	314.00	325.00	334.00	347.00	355.00	359.00	364.00	375.00	390.00	405.00	411.00	400.00	386.00	381.00	381.00	377.00	371.00	364.00	365.00	361.00	357.00	354.00	340.00	332.00	334.00	354.00	351.00	353.00	342.00	378.00	430.00	412.00	402.00	416.00	396.00	390.00	395.00	388.00	397.00	382.00	321.00	290.00	285.00	291.00	292.00	295.00	318.00	312.00	310.00	305.00	303.00	295.00	289.00	301.00	292.00	293.00	288.00	276.00	265.00	252.00	276.00	289.00	300.00	306.00	311.00	324.00	336.00	347.00	365.00	380.00	397.00	412.00	421.00	434.00	446.00	426.00	410.00	393.00	380.00	363.00	354.00	343.00	334.00	318.00	315.00	306.00	304.00	308.00	297.00	284.00	272.00	265.00	248.00	255.00	262.00	270.00	279.00	291.00	293.00	299.00	313.00	327.00	327.00	321.00	316.00	314.00	321.00	327.00	322.00	329.00	349.00	351.00	367.00	364.00	346.00	350.00	388.00	407.00
15.00	14.00	16.00	15.00	13.00	12.00	11.00	12.00	13.00	11.00	9.00	10.00	12.00	14.00	14.00	15.00	15.00	15.00	16.00	17.00	15.00	16.00	18.00	17.00	18.00	14.00	14.00	15.00	16.00	16.00	16.00	15.00	15.00	23.00	29.00	32.00	32.00	34.00	42.00	44.00	46.00	50.00	57.00	60.00	62.00	69.00	76.00	82.00	88.00	93.00	97.00	106.00	111.00	112.00	117.00	121.00	125.00	126.00	130.00	135.00	155.00	159.00	164.00	171.00	167.00	169.00	165.00	165.00	164.00	168.00	172.00	177.00	183.00	184.00	187.00	186.00	183.00	177.00	173.00	173.00	168.00	165.00	168.00	169.00	172.00	175.00	179.00	194.00	191.00	197.00	208.00	251.00	255.00	261.00	268.00	262.00	279.00	252.00	235.00	230.00	266.00	321.00	298.00	292.00	311.00	321.00	303.00	260.00	241.00	295.00	320.00	317.00	269.00	242.00	230.00	255.00	271.00	238.00	220.00	220.00	221.00	217.00	220.00	218.00	221.00	225.00	231.00	240.00	240.00	246.00	251.00	257.00	284.00	291.00	292.00	291.00	303.00	312.00	322.00	332.00	343.00	358.00	362.00	376.00	387.00	400.00	413.00	430.00	440.00	444.00	433.00	430.00	425.00	412.00	387.00	376.00	366.00	365.00	345.00	331.00	329.00	333.00	346.00	351.00	341.00	330.00	329.00	379.00	418.00	425.00	441.00	423.00	452.00	465.00	468.00	332.00	326.00	350.00	299.00	281.00	277.00	281.00	291.00	319.00	336.00	308.00	299.00	295.00	289.00	288.00	278.00	283.00	286.00	288.00	282.00	276.00	262.00	248.00	262.00	284.00	292.00	301.00	306.00	322.00	331.00	341.00	359.00	369.00	395.00	405.00	416.00	426.00	429.00	421.00	409.00	412.00	412.00	379.00	366.00	358.00	356.00	345.00	331.00	322.00	307.00	301.00	283.00	275.00	274.00	271.00	257.00	247.00	251.00	254.00	269.00	278.00	280.00	284.00	301.00	319.00	312.00	308.00	300.00	304.00	313.00	317.00	324.00	334.00	342.00	357.00	369.00	365.00	362.00	339.00	384.00	408.00
16.00	16.00	15.00	15.00	15.00	13.00	12.00	12.00	12.00	13.00	13.00	10.00	11.00	12.00	15.00	15.00	16.00	16.00	16.00	17.00	16.00	17.00	17.00	17.00	18.00	14.00	13.00	14.00	17.00	17.00	15.00	19.00	23.00	22.00	27.00	29.00	27.00	33.00	40.00	44.00	47.00	50.00	58.00	62.00	65.00	69.00	78.00	81.00	86.00	93.00	97.00	107.00	111.00	114.00	116.00	122.00	125.00	125.00	131.00	137.00	157.00	154.00	158.00	158.00	161.00	163.00	161.00	164.00	161.00	170.00	173.00	178.00	184.00	186.00	183.00	183.00	180.00	176.00	171.00	169.00	166.00	164.00	165.00	167.00	171.00	174.00	177.00	182.00	192.00	200.00	220.00	254.00	271.00	287.00	250.00	234.00	235.00	226.00	225.00	228.00	262.00	278.00	261.00	288.00	278.00	318.00	260.00	239.00	244.00	321.00	299.00	305.00	242.00	230.00	233.00	258.00	248.00	226.00	218.00	216.00	216.00	214.00	217.00	214.00	218.00	221.00	225.00	236.00	243.00	248.00	249.00	256.00	287.00	295.00	300.00	296.00	305.00	320.00	329.00	340.00	349.00	365.00	369.00	387.00	394.00	412.00	423.00	437.00	449.00	461.00	457.00	454.00	441.00	425.00	400.00	387.00	377.00	364.00	345.00	326.00	327.00	335.00	352.00	350.00	343.00	327.00	324.00	381.00	430.00	458.00	451.00	422.00	476.00	427.00	406.00	327.00	332.00	321.00	296.00	283.00	273.00	288.00	299.00	321.00	337.00	311.00	301.00	295.00	291.00	286.00	278.00	275.00	279.00	285.00	276.00	272.00	255.00	246.00	259.00	282.00	292.00	300.00	309.00	321.00	322.00	336.00	351.00	365.00	385.00	394.00	403.00	408.00	413.00	416.00	419.00	425.00	423.00	386.00	372.00	373.00	367.00	356.00	350.00	327.00	315.00	310.00	287.00	271.00	266.00	262.00	252.00	249.00	247.00	245.00	262.00	273.00	278.00	281.00	297.00	313.00	307.00	302.00	295.00	303.00	321.00	321.00	325.00	333.00	335.00	358.00	369.00	363.00	355.00	335.00	384.00	403.00
14.00	16.00	15.00	15.00	15.00	15.00	12.00	12.00	12.00	13.00	14.00	11.00	11.00	11.00	12.00	16.00	16.00	17.00	16.00	17.00	17.00	17.00	16.00	17.00	17.00	14.00	14.00	14.00	17.00	17.00	16.00	21.00	23.00	23.00	24.00	23.00	24.00	26.00	36.00	43.00	47.00	52.00	58.00	62.00	66.00	70.00	78.00	81.00	84.00	93.00	97.00	107.00	112.00	115.00	119.00	126.00	129.00	129.00	133.00	139.00	158.00	148.00	147.00	148.00	155.00	158.00	159.00	163.00	158.00	178.00	178.00	184.00	185.00	182.00	180.00	179.00	177.00	174.00	169.00	168.00	164.00	162.00	163.00	166.00	169.00	174.00	178.00	187.00	194.00	211.00	233.00	267.00	279.00	264.00	226.00	223.00	219.00	221.00	226.00	224.00	301.00	239.00	240.00	281.00	324.00	274.00	235.00	237.00	255.00	319.00	277.00	250.00	222.00	226.00	243.00	270.00	239.00	220.00	216.00	213.00	212.00	211.00	213.00	216.00	219.00	221.00	226.00	235.00	245.00	248.00	250.00	259.00	284.00	292.00	298.00	300.00	311.00	325.00	338.00	349.00	357.00	376.00	378.00	391.00	400.00	419.00	430.00	442.00	456.00	470.00	476.00	466.00	448.00	432.00	417.00	402.00	388.00	367.00	342.00	327.00	327.00	340.00	354.00	349.00	345.00	324.00	320.00	380.00	458.00	469.00	437.00	433.00	390.00	339.00	335.00	321.00	352.00	296.00	291.00	279.00	271.00	289.00	305.00	325.00	332.00	298.00	293.00	290.00	286.00	285.00	277.00	273.00	274.00	271.00	270.00	269.00	261.00	246.00	255.00	279.00	291.00	301.00	308.00	296.00	308.00	329.00	345.00	359.00	383.00	386.00	391.00	392.00	401.00	409.00	427.00	437.00	435.00	391.00	386.00	384.00	381.00	362.00	351.00	331.00	325.00	316.00	294.00	272.00	263.00	258.00	249.00	244.00	244.00	249.00	264.00	275.00	284.00	291.00	303.00	303.00	302.00	290.00	294.00	302.00	322.00	316.00	320.00	331.00	334.00	366.00	365.00	356.00	348.00	343.00	398.00	401.00
12.00	15.00	16.00	16.00	15.00	15.00	14.00	13.00	14.00	12.00	13.00	11.00	13.00	11.00	12.00	12.00	15.00	17.00	16.00	16.00	17.00	18.00	17.00	19.00	16.00	15.00	15.00	13.00	17.00	16.00	17.00	18.00	17.00	18.00	18.00	19.00	20.00	19.00	28.00	36.00	44.00	50.00	58.00	62.00	65.00	68.00	79.00	82.00	85.00	95.00	99.00	107.00	112.00	116.00	121.00	129.00	132.00	132.00	136.00	141.00	151.00	145.00	140.00	144.00	152.00	158.00	157.00	157.00	159.00	170.00	173.00	179.00	180.00	178.00	179.00	176.00	174.00	171.00	164.00	166.00	162.00	160.00	162.00	164.00	168.00	173.00	178.00	193.00	199.00	216.00	224.00	270.00	284.00	237.00	215.00	217.00	217.00	225.00	219.00	222.00	298.00	227.00	239.00	312.00	317.00	228.00	232.00	235.00	258.00	297.00	270.00	238.00	221.00	246.00	246.00	267.00	233.00	217.00	212.00	213.00	209.00	208.00	210.00	216.00	219.00	222.00	225.00	233.00	241.00	245.00	251.00	261.00	283.00	289.00	295.00	301.00	325.00	336.00	348.00	356.00	367.00	389.00	391.00	391.00	400.00	419.00	430.00	440.00	455.00	473.00	477.00	464.00	450.00	441.00	426.00	412.00	399.00	374.00	341.00	330.00	331.00	350.00	361.00	343.00	336.00	324.00	323.00	383.00	437.00	463.00	447.00	433.00	327.00	333.00	326.00	309.00	298.00	284.00	276.00	270.00	269.00	287.00	297.00	306.00	319.00	300.00	293.00	292.00	281.00	284.00	288.00	277.00	271.00	265.00	261.00	260.00	256.00	248.00	250.00	275.00	282.00	292.00	287.00	300.00	316.00	324.00	344.00	358.00	370.00	374.00	380.00	380.00	398.00	410.00	421.00	440.00	437.00	402.00	405.00	393.00	384.00	362.00	346.00	339.00	332.00	320.00	298.00	275.00	264.00	257.00	247.00	241.00	242.00	248.00	256.00	279.00	285.00	289.00	293.00	295.00	295.00	285.00	289.00	299.00	311.00	313.00	322.00	331.00	341.00	364.00	356.00	348.00	341.00	344.00	389.00	387.00
13.00	15.00	14.00	15.00	16.00	16.00	15.00	15.00	13.00	14.00	14.00	13.00	12.00	12.00	12.00	13.00	14.00	13.00	13.00	17.00	17.00	18.00	18.00	19.00	19.00	18.00	19.00	17.00	16.00	19.00	20.00	18.00	18.00	15.00	15.00	15.00	19.00	25.00	31.00	35.00	37.00	40.00	51.00	59.00	66.00	68.00	80.00	85.00	89.00	97.00	101.00	110.00	114.00	117.00	121.00	124.00	128.00	133.00	139.00	137.00	134.00	134.00	136.00	149.00	156.00	153.00	149.00	149.00	153.00	165.00	168.00	172.00	172.00	170.00	169.00	167.00	166.00	166.00	160.00	159.00	155.00	155.00	160.00	164.00	168.00	170.00	178.00	217.00	223.00	222.00	231.00	249.00	228.00	227.00	210.00	208.00	222.00	216.00	208.00	209.00	217.00	269.00	300.00	261.00	228.00	219.00	225.00	231.00	222.00	226.00	212.00	209.00	217.00	220.00	218.00	218.00	211.00	206.00	211.00	213.00	207.00	204.00	206.00	215.00	218.00	222.00	225.00	234.00	238.00	243.00	253.00	261.00	281.00	293.00	306.00	318.00	341.00	351.00	355.00	357.00	344.00	346.00	356.00	394.00	412.00	434.00	442.00	444.00	444.00	464.00	467.00	463.00	452.00	470.00	434.00	418.00	399.00	374.00	326.00	320.00	316.00	318.00	341.00	320.00	328.00	319.00	333.00	366.00	417.00	469.00	402.00	330.00	303.00	294.00	296.00	292.00	286.00	277.00	267.00	265.00	274.00	272.00	277.00	284.00	293.00	303.00	300.00	295.00	291.00	300.00	303.00	293.00	286.00	276.00	272.00	263.00	264.00	258.00	251.00	244.00	254.00	266.00	277.00	290.00	310.00	328.00	352.00	350.00	362.00	372.00	376.00	379.00	405.00	413.00	423.00	439.00	447.00	420.00	412.00	409.00	400.00	373.00	361.00	350.00	336.00	325.00	297.00	280.00	274.00	268.00	255.00	255.00	240.00	235.00	243.00	260.00	271.00	276.00	279.00	279.00	277.00	285.00	291.00	297.00	310.00	319.00	340.00	326.00	340.00	357.00	352.00	337.00	318.00	363.00	348.00	325.00
13.00	14.00	14.00	15.00	16.00	18.00	16.00	16.00	14.00	14.00	14.00	14.00	14.00	16.00	15.00	15.00	13.00	14.00	13.00	16.00	18.00	17.00	18.00	18.00	17.00	17.00	19.00	18.00	17.00	18.00	18.00	19.00	19.00	16.00	16.00	18.00	25.00	28.00	36.00	41.00	41.00	41.00	49.00	56.00	66.00	72.00	82.00	85.00	90.00	98.00	102.00	110.00	114.00	117.00	120.00	127.00	127.00	130.00	132.00	128.00	134.00	141.00	139.00	146.00	150.00	150.00	148.00	149.00	152.00	165.00	172.00	169.00	168.00	164.00	164.00	163.00	161.00	162.00	159.00	157.00	153.00	154.00	162.00	168.00	176.00	176.00	186.00	215.00	218.00	221.00	236.00	229.00	219.00	213.00	204.00	208.00	207.00	212.00	206.00	202.00	210.00	273.00	251.00	234.00	223.00	220.00	221.00	218.00	222.00	204.00	204.00	206.00	215.00	215.00	210.00	208.00	207.00	204.00	213.00	212.00	205.00	202.00	205.00	220.00	223.00	226.00	229.00	241.00	247.00	249.00	252.00	262.00	293.00	299.00	311.00	325.00	346.00	350.00	347.00	352.00	330.00	326.00	347.00	397.00	413.00	429.00	436.00	435.00	430.00	440.00	451.00	453.00	441.00	463.00	433.00	413.00	397.00	367.00	328.00	329.00	318.00	313.00	315.00	313.00	316.00	316.00	328.00	397.00	423.00	390.00	372.00	361.00	303.00	286.00	281.00	288.00	278.00	273.00	264.00	263.00	272.00	268.00	275.00	285.00	291.00	298.00	304.00	297.00	296.00	309.00	310.00	304.00	295.00	284.00	277.00	274.00	268.00	257.00	249.00	238.00	247.00	265.00	280.00	293.00	320.00	331.00	339.00	337.00	365.00	380.00	386.00	388.00	406.00	411.00	424.00	430.00	435.00	425.00	418.00	410.00	400.00	374.00	363.00	352.00	341.00	329.00	298.00	287.00	282.00	276.00	261.00	255.00	251.00	242.00	236.00	260.00	266.00	268.00	274.00	273.00	275.00	282.00	293.00	298.00	311.00	314.00	335.00	325.00	328.00	356.00	356.00	348.00	310.00	349.00	324.00	343.00
14.00	14.00	15.00	15.00	15.00	16.00	16.00	16.00	16.00	16.00	14.00	14.00	15.00	17.00	16.00	20.00	20.00	13.00	13.00	15.00	15.00	17.00	17.00	19.00	16.00	19.00	18.00	18.00	17.00	18.00	18.00	18.00	20.00	17.00	16.00	19.00	23.00	31.00	36.00	40.00	44.00	45.00	53.00	56.00	64.00	73.00	83.00	87.00	91.00	99.00	103.00	110.00	114.00	117.00	121.00	129.00	124.00	124.00	123.00	123.00	138.00	137.00	138.00	151.00	165.00	173.00	155.00	150.00	150.00	164.00	166.00	166.00	165.00	159.00	161.00	159.00	157.00	155.00	158.00	155.00	151.00	153.00	167.00	175.00	180.00	185.00	196.00	217.00	225.00	238.00	260.00	253.00	217.00	208.00	201.00	201.00	201.00	211.00	203.00	197.00	208.00	225.00	218.00	231.00	223.00	211.00	212.00	210.00	205.00	201.00	201.00	205.00	212.00	209.00	205.00	203.00	204.00	204.00	213.00	208.00	203.00	202.00	210.00	226.00	228.00	232.00	236.00	248.00	252.00	258.00	264.00	275.00	302.00	308.00	316.00	327.00	336.00	329.00	317.00	315.00	314.00	321.00	352.00	395.00	404.00	420.00	424.00	421.00	412.00	402.00	420.00	429.00	415.00	420.00	435.00	412.00	388.00	357.00	351.00	342.00	328.00	314.00	306.00	307.00	307.00	315.00	368.00	366.00	392.00	346.00	375.00	340.00	292.00	275.00	277.00	284.00	275.00	267.00	261.00	261.00	265.00	273.00	276.00	287.00	290.00	282.00	283.00	285.00	303.00	315.00	315.00	299.00	285.00	290.00	283.00	270.00	262.00	249.00	241.00	236.00	247.00	269.00	280.00	300.00	311.00	316.00	326.00	338.00	364.00	376.00	385.00	392.00	406.00	412.00	419.00	421.00	425.00	418.00	411.00	405.00	395.00	372.00	362.00	354.00	344.00	331.00	304.00	289.00	282.00	277.00	265.00	260.00	250.00	241.00	234.00	257.00	261.00	264.00	271.00	270.00	274.00	284.00	295.00	303.00	305.00	305.00	320.00	322.00	322.00	357.00	357.00	350.00	315.00	321.00	324.00	366.00
14.00	13.00	15.00	16.00	16.00	15.00	17.00	17.00	16.00	16.00	15.00	14.00	15.00	16.00	17.00	19.00	20.00	13.00	13.00	13.00	14.00	15.00	18.00	18.00	17.00	18.00	18.00	19.00	16.00	18.00	19.00	19.00	20.00	18.00	19.00	19.00	23.00	32.00	38.00	43.00	47.00	50.00	57.00	59.00	65.00	70.00	82.00	89.00	92.00	99.00	103.00	109.00	113.00	117.00	122.00	120.00	119.00	118.00	120.00	121.00	136.00	136.00	147.00	154.00	182.00	187.00	166.00	151.00	152.00	163.00	163.00	162.00	161.00	156.00	157.00	155.00	155.00	150.00	154.00	152.00	149.00	154.00	172.00	176.00	180.00	191.00	206.00	219.00	226.00	245.00	265.00	256.00	214.00	206.00	199.00	197.00	201.00	201.00	190.00	196.00	209.00	210.00	209.00	214.00	211.00	207.00	205.00	200.00	199.00	200.00	201.00	202.00	211.00	204.00	201.00	199.00	201.00	199.00	207.00	203.00	200.00	204.00	210.00	227.00	232.00	237.00	241.00	253.00	257.00	264.00	276.00	288.00	316.00	324.00	325.00	322.00	306.00	300.00	300.00	302.00	305.00	330.00	350.00	388.00	386.00	398.00	394.00	407.00	400.00	394.00	387.00	392.00	398.00	403.00	439.00	416.00	384.00	350.00	383.00	378.00	341.00	319.00	307.00	310.00	303.00	324.00	367.00	345.00	339.00	320.00	305.00	293.00	279.00	271.00	272.00	279.00	272.00	260.00	260.00	261.00	269.00	274.00	277.00	288.00	284.00	273.00	278.00	290.00	301.00	308.00	308.00	300.00	279.00	276.00	276.00	257.00	250.00	247.00	236.00	236.00	250.00	268.00	277.00	295.00	300.00	306.00	323.00	336.00	361.00	369.00	374.00	376.00	389.00	407.00	408.00	414.00	416.00	407.00	401.00	395.00	383.00	371.00	360.00	350.00	338.00	322.00	306.00	292.00	285.00	280.00	270.00	260.00	250.00	236.00	231.00	252.00	258.00	260.00	270.00	267.00	273.00	286.00	301.00	309.00	301.00	298.00	306.00	312.00	336.00	359.00	360.00	345.00	292.00	311.00	329.00	382.00
13.00	15.00	18.00	17.00	16.00	15.00	18.00	18.00	17.00	17.00	15.00	16.00	17.00	18.00	18.00	19.00	20.00	15.00	18.00	15.00	13.00	15.00	15.00	18.00	18.00	17.00	18.00	18.00	17.00	18.00	18.00	20.00	20.00	21.00	21.00	20.00	23.00	31.00	42.00	48.00	50.00	50.00	57.00	62.00	68.00	76.00	86.00	88.00	92.00	99.00	103.00	109.00	113.00	116.00	120.00	116.00	113.00	118.00	115.00	119.00	135.00	141.00	141.00	153.00	176.00	188.00	154.00	146.00	148.00	155.00	156.00	153.00	151.00	149.00	149.00	147.00	149.00	149.00	142.00	145.00	151.00	159.00	168.00	174.00	181.00	192.00	202.00	225.00	255.00	274.00	280.00	222.00	216.00	211.00	205.00	204.00	190.00	182.00	188.00	191.00	196.00	198.00	195.00	204.00	204.00	204.00	199.00	194.00	190.00	194.00	193.00	195.00	211.00	205.00	195.00	194.00	194.00	198.00	196.00	194.00	197.00	209.00	218.00	233.00	237.00	240.00	246.00	265.00	272.00	278.00	291.00	299.00	333.00	328.00	302.00	292.00	289.00	287.00	287.00	296.00	297.00	312.00	336.00	330.00	336.00	357.00	361.00	363.00	374.00	375.00	370.00	371.00	380.00	396.00	441.00	411.00	368.00	342.00	332.00	328.00	327.00	316.00	319.00	305.00	298.00	325.00	330.00	310.00	298.00	317.00	290.00	282.00	267.00	264.00	265.00	268.00	264.00	257.00	255.00	262.00	265.00	279.00	286.00	291.00	280.00	270.00	278.00	295.00	303.00	305.00	284.00	274.00	271.00	270.00	269.00	248.00	246.00	238.00	230.00	250.00	259.00	267.00	269.00	287.00	302.00	310.00	319.00	329.00	339.00	346.00	339.00	344.00	377.00	386.00	386.00	385.00	389.00	386.00	381.00	380.00	380.00	354.00	350.00	346.00	335.00	330.00	314.00	304.00	300.00	297.00	278.00	267.00	255.00	238.00	225.00	238.00	248.00	259.00	257.00	261.00	268.00	276.00	287.00	294.00	294.00	302.00	289.00	283.00	354.00	350.00	320.00	307.00	302.00	326.00	370.00	413.00
13.00	13.00	16.00	17.00	18.00	16.00	19.00	18.00	17.00	16.00	17.00	16.00	18.00	19.00	19.00	18.00	21.00	14.00	17.00	18.00	17.00	14.00	14.00	15.00	19.00	18.00	18.00	19.00	19.00	19.00	21.00	20.00	18.00	21.00	21.00	22.00	22.00	35.00	42.00	50.00	56.00	58.00	57.00	63.00	67.00	69.00	81.00	84.00	86.00	97.00	99.00	107.00	112.00	116.00	118.00	115.00	110.00	113.00	119.00	124.00	132.00	129.00	138.00	161.00	195.00	197.00	155.00	142.00	146.00	151.00	147.00	151.00	148.00	150.00	148.00	145.00	145.00	145.00	142.00	144.00	157.00	172.00	178.00	184.00	185.00	195.00	199.00	255.00	263.00	273.00	292.00	228.00	222.00	217.00	216.00	220.00	200.00	182.00	180.00	182.00	191.00	190.00	192.00	200.00	202.00	197.00	193.00	192.00	189.00	191.00	189.00	195.00	199.00	199.00	193.00	190.00	194.00	200.00	193.00	197.00	200.00	212.00	220.00	241.00	244.00	247.00	251.00	270.00	280.00	289.00	299.00	309.00	322.00	300.00	286.00	282.00	278.00	280.00	285.00	288.00	294.00	312.00	310.00	321.00	338.00	343.00	347.00	346.00	354.00	361.00	362.00	365.00	380.00	388.00	430.00	395.00	353.00	335.00	325.00	317.00	326.00	322.00	312.00	312.00	303.00	309.00	301.00	283.00	286.00	286.00	304.00	288.00	262.00	260.00	258.00	259.00	265.00	260.00	254.00	256.00	272.00	280.00	295.00	298.00	286.00	270.00	275.00	281.00	287.00	300.00	292.00	280.00	273.00	267.00	261.00	246.00	243.00	246.00	232.00	249.00	256.00	252.00	253.00	281.00	295.00	298.00	310.00	319.00	320.00	325.00	327.00	339.00	367.00	372.00	373.00	373.00	376.00	374.00	369.00	371.00	371.00	355.00	343.00	333.00	331.00	331.00	324.00	317.00	314.00	308.00	283.00	266.00	252.00	242.00	227.00	237.00	245.00	255.00	254.00	259.00	265.00	267.00	274.00	283.00	294.00	298.00	291.00	282.00	349.00	344.00	323.00	291.00	301.00	355.00	357.00	388.00
12.00	13.00	15.00	15.00	16.00	17.00	18.00	18.00	17.00	17.00	18.00	16.00	18.00	19.00	19.00	18.00	19.00	16.00	16.00	18.00	19.00	14.00	14.00	15.00	19.00	19.00	18.00	18.00	20.00	21.00	19.00	19.00	18.00	22.00	21.00	22.00	23.00	32.00	45.00	50.00	57.00	60.00	66.00	66.00	69.00	75.00	77.00	80.00	81.00	87.00	92.00	107.00	112.00	112.00	113.00	108.00	114.00	112.00	114.00	120.00	123.00	128.00	142.00	158.00	189.00	183.00	149.00	139.00	141.00	145.00	143.00	148.00	144.00	149.00	148.00	142.00	142.00	141.00	142.00	145.00	159.00	170.00	177.00	178.00	185.00	192.00	201.00	262.00	275.00	289.00	311.00	259.00	246.00	221.00	236.00	278.00	223.00	187.00	177.00	181.00	187.00	185.00	188.00	192.00	196.00	196.00	194.00	190.00	188.00	184.00	191.00	203.00	193.00	195.00	187.00	190.00	197.00	202.00	192.00	197.00	202.00	213.00	225.00	248.00	250.00	253.00	257.00	274.00	285.00	298.00	309.00	314.00	301.00	293.00	283.00	281.00	274.00	276.00	279.00	281.00	285.00	297.00	302.00	314.00	326.00	332.00	334.00	340.00	347.00	352.00	356.00	360.00	369.00	377.00	420.00	384.00	343.00	339.00	322.00	312.00	315.00	312.00	315.00	317.00	303.00	298.00	290.00	323.00	280.00	281.00	280.00	275.00	261.00	260.00	255.00	254.00	261.00	251.00	250.00	257.00	266.00	290.00	297.00	292.00	299.00	260.00	266.00	272.00	284.00	293.00	301.00	284.00	281.00	273.00	267.00	245.00	240.00	238.00	232.00	239.00	240.00	237.00	256.00	275.00	289.00	288.00	301.00	308.00	308.00	316.00	330.00	345.00	352.00	357.00	359.00	360.00	363.00	361.00	356.00	357.00	350.00	348.00	341.00	339.00	347.00	339.00	347.00	333.00	332.00	324.00	285.00	270.00	257.00	247.00	229.00	230.00	238.00	247.00	250.00	254.00	256.00	258.00	265.00	277.00	290.00	298.00	292.00	285.00	343.00	337.00	335.00	312.00	300.00	334.00	361.00	394.00
11.00	13.00	14.00	14.00	15.00	16.00	18.00	18.00	17.00	17.00	17.00	16.00	17.00	19.00	19.00	17.00	18.00	19.00	15.00	18.00	18.00	14.00	15.00	15.00	19.00	20.00	19.00	19.00	19.00	21.00	21.00	19.00	19.00	21.00	22.00	23.00	30.00	40.00	47.00	50.00	58.00	60.00	72.00	73.00	79.00	85.00	85.00	80.00	85.00	88.00	99.00	108.00	109.00	109.00	109.00	109.00	114.00	110.00	113.00	118.00	122.00	136.00	144.00	166.00	184.00	171.00	142.00	137.00	139.00	140.00	141.00	144.00	139.00	146.00	143.00	140.00	138.00	138.00	142.00	148.00	162.00	165.00	167.00	174.00	185.00	201.00	230.00	262.00	296.00	302.00	309.00	287.00	258.00	229.00	256.00	315.00	227.00	190.00	178.00	181.00	182.00	182.00	184.00	189.00	198.00	202.00	194.00	187.00	182.00	185.00	204.00	211.00	188.00	190.00	186.00	189.00	190.00	187.00	196.00	197.00	204.00	213.00	223.00	254.00	256.00	261.00	265.00	276.00	291.00	308.00	300.00	290.00	294.00	297.00	284.00	280.00	270.00	275.00	280.00	284.00	291.00	296.00	297.00	309.00	315.00	322.00	328.00	334.00	340.00	345.00	350.00	355.00	364.00	381.00	416.00	376.00	335.00	334.00	327.00	316.00	311.00	307.00	304.00	299.00	337.00	316.00	329.00	324.00	298.00	296.00	314.00	336.00	267.00	267.00	251.00	252.00	260.00	250.00	249.00	253.00	262.00	296.00	295.00	290.00	283.00	259.00	263.00	266.00	273.00	284.00	295.00	287.00	282.00	286.00	267.00	252.00	247.00	243.00	243.00	227.00	223.00	224.00	243.00	273.00	277.00	277.00	290.00	293.00	312.00	311.00	320.00	343.00	338.00	341.00	347.00	354.00	354.00	349.00	346.00	347.00	338.00	346.00	349.00	348.00	352.00	348.00	360.00	354.00	347.00	332.00	289.00	272.00	258.00	248.00	237.00	226.00	231.00	237.00	242.00	248.00	252.00	259.00	266.00	275.00	292.00	302.00	290.00	274.00	336.00	324.00	320.00	310.00	295.00	328.00	350.00	371.00
