88.00	68.00	75.00	68.00	63.00	53.00	53.00	52.00	75.00	69.00	51.00	49.00	42.00	38.00	35.00	32.00	30.00	27.00	26.00	26.00	25.00	25.00	30.00	25.00	23.00	25.00	31.00	27.00	22.00	16.00	27.00	17.00	16.00	17.00	19.00	23.00	22.00	21.00	18.00	19.00	24.00	28.00	26.00	26.00	23.00	24.00	25.00	25.00	23.00	19.00	16.00	13.00	16.00	17.00	23.00	15.00	18.00	18.00	19.00	22.00	23.00	18.00	22.00	20.00	22.00	19.00	18.00	16.00	19.00	22.00	19.00	18.00	17.00	19.00	20.00	19.00	21.00	21.00	20.00	22.00	20.00	18.00	19.00	18.00	18.00	19.00	13.00	13.00	17.00	15.00	19.00	17.00	17.00	15.00	16.00	13.00	12.00	15.00	16.00	16.00	17.00	17.00	15.00	14.00	15.00	15.00	17.00	17.00	17.00	16.00	19.00	17.00	16.00	17.00	15.00	17.00	16.00	15.00	17.00	19.00	18.00	16.00	20.00	15.00	17.00	18.00	19.00	15.00	16.00	20.00	29.00	23.00	28.00	33.00	37.00	37.00	42.00	47.00	47.00	46.00	44.00	45.00	48.00	38.00	40.00	44.00	43.00	53.00	89.00	273.00	375.00	395.00	367.00	335.00	378.00	467.00	623.00	703.00	569.00	640.00	778.00	913.00	934.00	937.00	933.00	969.00	1019.00	1198.00	1313.00	1511.00	1531.00	1685.00	1507.00	1409.00	1409.00	1416.00	1407.00	1458.00	1561.00	1636.00	1848.00	1932.00	1764.00	1610.00	1610.00	1670.00	1783.00	1704.00	1608.00	1939.00	1957.00	1890.00	1938.00	1950.00	2350.00	2550.00	2554.00	2506.00	2666.00	2748.00	3142.00	3139.00	3112.00	3202.00	3237.00	3284.00	3193.00	3040.00	3116.00	3149.00	3173.00	3229.00	3194.00	3149.00	3187.00	3208.00	3226.00	3188.00	3128.00	3053.00	3155.00	3340.00	3351.00	3465.00	3636.00	3994.00	4116.00	4190.00	4147.00	4149.00	4278.00	4212.00	4262.00	4277.00	4172.00	4141.00	4060.00	4041.00	4044.00	4097.00	4011.00	4102.00	4228.00	3936.00	4094.00	4107.00	4091.00	4107.00	4044.00	4032.00	3967.00	3918.00	3775.00	3674.00	3634.00	3619.00
106.00	68.00	61.00	59.00	59.00	73.00	69.00	73.00	65.00	55.00	56.00	44.00	40.00	40.00	34.00	26.00	26.00	27.00	25.00	25.00	24.00	24.00	24.00	22.00	25.00	27.00	27.00	24.00	21.00	18.00	27.00	22.00	17.00	20.00	23.00	21.00	22.00	20.00	18.00	25.00	29.00	29.00	25.00	27.00	25.00	23.00	23.00	24.00	23.00	19.00	12.00	13.00	15.00	16.00	17.00	14.00	18.00	16.00	16.00	21.00	18.00	20.00	23.00	19.00	22.00	17.00	17.00	16.00	20.00	22.00	18.00	18.00	18.00	21.00	19.00	21.00	19.00	22.00	19.00	18.00	19.00	18.00	18.00	17.00	15.00	18.00	13.00	18.00	17.00	17.00	19.00	16.00	14.00	14.00	13.00	15.00	15.00	15.00	16.00	16.00	17.00	15.00	14.00	14.00	14.00	13.00	17.00	17.00	17.00	18.00	17.00	18.00	18.00	16.00	17.00	14.00	14.00	16.00	15.00	19.00	16.00	15.00	16.00	15.00	16.00	17.00	18.00	16.00	15.00	18.00	27.00	24.00	32.00	36.00	32.00	37.00	38.00	46.00	47.00	47.00	39.00	36.00	34.00	34.00	33.00	36.00	42.00	45.00	69.00	277.00	383.00	423.00	498.00	454.00	428.00	518.00	678.00	748.00	638.00	698.00	750.00	929.00	1011.00	1022.00	1023.00	1089.00	1097.00	1249.00	1352.00	1585.00	1512.00	1674.00	1540.00	1485.00	1511.00	1501.00	1480.00	1547.00	1632.00	1607.00	1571.00	1847.00	1764.00	1531.00	1489.00	1522.00	1524.00	1456.00	1511.00	2097.00	2160.00	2048.00	2132.00	1989.00	2295.00	2567.00	2630.00	2752.00	2871.00	2870.00	3149.00	3193.00	3139.00	3091.00	3150.00	3228.00	3156.00	3027.00	3091.00	3100.00	3114.00	3170.00	3131.00	3113.00	3172.00	3253.00	3221.00	3171.00	3052.00	3077.00	3224.00	3448.00	3407.00	3483.00	3743.00	3877.00	4033.00	4068.00	3984.00	4094.00	4224.00	4159.00	4251.00	4207.00	4151.00	4140.00	4048.00	4044.00	4008.00	3941.00	3988.00	3992.00	4132.00	3882.00	3991.00	4031.00	4007.00	3980.00	3914.00	3926.00	3881.00	3835.00	3728.00	3648.00	3572.00	3562.00
89.00	59.00	78.00	77.00	66.00	80.00	69.00	69.00	74.00	65.00	48.00	39.00	38.00	39.00	34.00	29.00	29.00	31.00	28.00	24.00	21.00	21.00	23.00	22.00	26.00	24.00	18.00	20.00	19.00	18.00	15.00	14.00	19.00	21.00	21.00	21.00	24.00	20.00	25.00	25.00	25.00	26.00	27.00	26.00	25.00	24.00	25.00	24.00	23.00	21.00	16.00	10.00	12.00	18.00	15.00	14.00	15.00	16.00	19.00	18.00	15.00	18.00	15.00	20.00	20.00	19.00	17.00	18.00	17.00	21.00	16.00	17.00	19.00	20.00	20.00	17.00	17.00	18.00	16.00	17.00	17.00	17.00	17.00	17.00	17.00	13.00	17.00	15.00	18.00	15.00	14.00	12.00	14.00	15.00	14.00	17.00	18.00	18.00	18.00	17.00	15.00	13.00	12.00	12.00	15.00	13.00	15.00	16.00	15.00	15.00	15.00	15.00	16.00	17.00	15.00	12.00	14.00	13.00	12.00	14.00	14.00	14.00	13.00	16.00	15.00	15.00	17.00	15.00	17.00	18.00	22.00	20.00	33.00	30.00	32.00	37.00	33.00	34.00	35.00	36.00	39.00	37.00	33.00	29.00	30.00	44.00	43.00	48.00	73.00	205.00	242.00	275.00	282.00	345.00	565.00	631.00	653.00	632.00	804.00	838.00	930.00	1022.00	1119.00	1179.00	1185.00	1248.00	1337.00	1409.00	1519.00	1416.00	1378.00	1392.00	1558.00	1582.00	1500.00	1445.00	1421.00	1502.00	1485.00	1514.00	1307.00	1457.00	1426.00	1354.00	1244.00	1388.00	1489.00	1611.00	1757.00	2339.00	2418.00	2394.00	2379.00	2227.00	2246.00	2270.00	2424.00	2510.00	2870.00	3065.00	3267.00	3330.00	3280.00	3021.00	3007.00	3084.00	2991.00	2995.00	3020.00	3057.00	3070.00	3077.00	3044.00	3050.00	3126.00	3163.00	3187.00	3023.00	3009.00	3174.00	3235.00	3334.00	3259.00	3318.00	3426.00	3551.00	3735.00	3885.00	4041.00	4109.00	4081.00	4198.00	4271.00	4254.00	4141.00	4179.00	4174.00	4151.00	4181.00	3936.00	3895.00	3813.00	3849.00	3805.00	3791.00	3868.00	3878.00	3862.00	3739.00	3758.00	3722.00	3690.00	3547.00	3542.00	3524.00	3468.00
71.00	58.00	66.00	65.00	69.00	59.00	57.00	59.00	48.00	41.00	43.00	41.00	37.00	35.00	31.00	31.00	31.00	29.00	26.00	23.00	22.00	20.00	25.00	23.00	22.00	19.00	16.00	19.00	22.00	18.00	16.00	24.00	18.00	20.00	21.00	22.00	23.00	26.00	27.00	28.00	26.00	26.00	26.00	25.00	26.00	25.00	22.00	23.00	23.00	22.00	13.00	12.00	16.00	20.00	16.00	14.00	14.00	15.00	17.00	18.00	15.00	14.00	15.00	19.00	17.00	17.00	20.00	15.00	16.00	18.00	20.00	17.00	18.00	20.00	18.00	18.00	18.00	17.00	16.00	14.00	14.00	17.00	17.00	18.00	16.00	11.00	13.00	12.00	15.00	14.00	14.00	15.00	14.00	12.00	13.00	15.00	16.00	16.00	16.00	16.00	13.00	13.00	12.00	14.00	16.00	15.00	14.00	13.00	14.00	14.00	16.00	15.00	13.00	17.00	18.00	18.00	14.00	13.00	14.00	17.00	12.00	12.00	13.00	13.00	12.00	15.00	16.00	17.00	18.00	14.00	16.00	18.00	12.00	26.00	29.00	30.00	37.00	27.00	30.00	31.00	32.00	35.00	26.00	26.00	30.00	41.00	41.00	57.00	65.00	97.00	112.00	132.00	177.00	244.00	493.00	462.00	445.00	468.00	806.00	990.00	1156.00	1215.00	1387.00	1367.00	1411.00	1403.00	1524.00	1359.00	1299.00	1094.00	1082.00	1150.00	1344.00	1379.00	1285.00	1268.00	1282.00	1353.00	1236.00	1142.00	1083.00	1119.00	1096.00	1157.00	1272.00	1451.00	1687.00	1876.00	2011.00	2334.00	2254.00	2303.00	2317.00	2396.00	2577.00	2529.00	2592.00	2795.00	3127.00	3258.00	3245.00	3172.00	3140.00	3067.00	2989.00	2921.00	2908.00	3017.00	3063.00	3033.00	3028.00	3020.00	2954.00	2971.00	2983.00	3161.00	2984.00	2943.00	3062.00	3105.00	3122.00	3366.00	3320.00	3387.00	3515.00	3674.00	3678.00	3682.00	3821.00	3932.00	4115.00	4229.00	4159.00	4203.00	4215.00	4212.00	4174.00	4170.00	4121.00	3943.00	3864.00	3887.00	3716.00	3750.00	3727.00	3695.00	3774.00	3785.00	3679.00	3647.00	3650.00	3607.00	3495.00	3469.00	3440.00	3400.00
59.00	67.00	64.00	50.00	56.00	46.00	49.00	49.00	50.00	44.00	38.00	39.00	36.00	37.00	35.00	31.00	29.00	28.00	27.00	25.00	22.00	21.00	21.00	26.00	22.00	21.00	17.00	17.00	19.00	19.00	28.00	21.00	15.00	20.00	22.00	23.00	26.00	25.00	27.00	28.00	27.00	26.00	25.00	24.00	23.00	25.00	21.00	22.00	22.00	21.00	12.00	10.00	13.00	20.00	19.00	14.00	13.00	14.00	17.00	16.00	12.00	13.00	19.00	18.00	19.00	20.00	19.00	14.00	18.00	21.00	20.00	18.00	17.00	18.00	17.00	18.00	15.00	18.00	16.00	15.00	16.00	16.00	15.00	16.00	15.00	13.00	13.00	14.00	12.00	12.00	14.00	12.00	15.00	16.00	16.00	15.00	16.00	14.00	14.00	15.00	12.00	13.00	12.00	10.00	13.00	13.00	13.00	13.00	16.00	15.00	15.00	14.00	12.00	17.00	17.00	14.00	12.00	13.00	12.00	19.00	20.00	13.00	12.00	13.00	12.00	12.00	15.00	14.00	15.00	16.00	13.00	17.00	16.00	33.00	35.00	27.00	32.00	32.00	27.00	29.00	31.00	25.00	24.00	24.00	27.00	40.00	46.00	56.00	81.00	94.00	112.00	133.00	152.00	208.00	458.00	380.00	395.00	452.00	786.00	1008.00	1156.00	1254.00	1310.00	1300.00	1358.00	1445.00	1493.00	1252.00	1135.00	1029.00	923.00	1190.00	1355.00	1297.00	1206.00	1155.00	1204.00	1241.00	1166.00	1056.00	1090.00	1099.00	1151.00	1245.00	1382.00	1460.00	1531.00	1736.00	1920.00	2183.00	2129.00	2114.00	2105.00	2262.00	2404.00	2381.00	2542.00	2814.00	3192.00	3310.00	3199.00	3163.00	3158.00	3100.00	3057.00	2984.00	2904.00	2987.00	3037.00	2999.00	3008.00	3004.00	2917.00	2910.00	2909.00	3063.00	2888.00	2939.00	3074.00	3164.00	3281.00	3563.00	3513.00	3413.00	3505.00	3849.00	3935.00	3853.00	3980.00	4111.00	4128.00	4201.00	4098.00	4083.00	4217.00	4178.00	4190.00	4183.00	4097.00	3970.00	3938.00	3974.00	3756.00	3679.00	3651.00	3684.00	3711.00	3737.00	3633.00	3618.00	3631.00	3568.00	3480.00	3437.00	3399.00	3374.00
62.00	39.00	49.00	39.00	39.00	48.00	43.00	47.00	50.00	45.00	40.00	33.00	37.00	37.00	36.00	29.00	26.00	29.00	30.00	25.00	24.00	26.00	24.00	27.00	19.00	17.00	20.00	14.00	16.00	20.00	24.00	19.00	14.00	18.00	19.00	24.00	26.00	26.00	28.00	25.00	25.00	24.00	23.00	23.00	20.00	24.00	23.00	22.00	21.00	20.00	11.00	11.00	14.00	17.00	17.00	11.00	14.00	14.00	17.00	18.00	13.00	14.00	16.00	18.00	17.00	22.00	22.00	14.00	17.00	19.00	20.00	18.00	16.00	19.00	16.00	16.00	15.00	17.00	15.00	16.00	17.00	17.00	15.00	14.00	17.00	11.00	11.00	13.00	14.00	18.00	16.00	17.00	17.00	16.00	16.00	15.00	14.00	14.00	15.00	15.00	13.00	12.00	12.00	11.00	13.00	14.00	12.00	14.00	15.00	14.00	15.00	13.00	15.00	15.00	14.00	14.00	16.00	12.00	12.00	13.00	14.00	12.00	13.00	15.00	13.00	15.00	16.00	13.00	14.00	15.00	14.00	14.00	21.00	28.00	38.00	36.00	27.00	27.00	29.00	32.00	32.00	26.00	24.00	24.00	29.00	61.00	53.00	56.00	134.00	147.00	152.00	158.00	150.00	183.00	338.00	320.00	391.00	445.00	769.00	845.00	1051.00	1126.00	1191.00	1229.00	1321.00	1433.00	1443.00	1133.00	1040.00	921.00	828.00	1150.00	1213.00	1148.00	1140.00	1053.00	1115.00	1116.00	1033.00	946.00	1300.00	1304.00	1275.00	1279.00	1412.00	1652.00	1677.00	1739.00	1872.00	2028.00	1973.00	1941.00	2013.00	2103.00	2205.00	2331.00	2456.00	2641.00	3192.00	3293.00	3222.00	3206.00	3190.00	3049.00	3050.00	3001.00	2929.00	2946.00	2986.00	2978.00	2974.00	2979.00	2896.00	2874.00	2875.00	2965.00	2963.00	2993.00	3066.00	3172.00	3340.00	3706.00	3627.00	3507.00	3550.00	3807.00	3954.00	4055.00	4112.00	4165.00	4186.00	4225.00	4146.00	4045.00	4127.00	4077.00	4176.00	4136.00	4091.00	3949.00	3955.00	4009.00	3839.00	3631.00	3605.00	3628.00	3686.00	3696.00	3634.00	3598.00	3611.00	3543.00	3468.00	3428.00	3386.00	3355.00
69.00	36.00	36.00	35.00	37.00	42.00	40.00	44.00	48.00	46.00	42.00	34.00	36.00	35.00	30.00	29.00	32.00	32.00	30.00	23.00	23.00	23.00	20.00	22.00	20.00	18.00	19.00	16.00	16.00	18.00	18.00	18.00	13.00	18.00	22.00	24.00	27.00	26.00	27.00	24.00	23.00	24.00	23.00	19.00	17.00	23.00	24.00	22.00	20.00	19.00	12.00	10.00	14.00	15.00	16.00	14.00	14.00	15.00	15.00	17.00	16.00	14.00	14.00	16.00	16.00	17.00	21.00	19.00	18.00	18.00	20.00	17.00	14.00	18.00	18.00	17.00	15.00	16.00	15.00	15.00	14.00	15.00	15.00	15.00	13.00	11.00	14.00	14.00	16.00	19.00	15.00	14.00	15.00	14.00	15.00	15.00	14.00	14.00	15.00	16.00	12.00	11.00	12.00	11.00	14.00	13.00	12.00	13.00	15.00	13.00	14.00	14.00	15.00	14.00	13.00	13.00	14.00	13.00	11.00	11.00	11.00	11.00	16.00	14.00	13.00	16.00	15.00	13.00	13.00	13.00	14.00	13.00	18.00	26.00	29.00	30.00	23.00	22.00	25.00	35.00	24.00	29.00	29.00	30.00	35.00	109.00	80.00	77.00	169.00	285.00	279.00	285.00	185.00	175.00	249.00	303.00	354.00	405.00	628.00	814.00	972.00	973.00	1054.00	1219.00	1359.00	1466.00	1371.00	1042.00	950.00	866.00	775.00	981.00	1047.00	994.00	1073.00	984.00	987.00	987.00	900.00	960.00	1448.00	1492.00	1372.00	1359.00	1526.00	1758.00	1918.00	1948.00	1999.00	1835.00	1796.00	1846.00	1911.00	1980.00	2252.00	2332.00	2492.00	2661.00	3136.00	3303.00	3153.00	3100.00	3075.00	2983.00	3032.00	2968.00	2896.00	2903.00	2940.00	2956.00	2938.00	2950.00	2895.00	2850.00	2828.00	2834.00	3018.00	3108.00	3083.00	3117.00	3214.00	3750.00	3671.00	3597.00	3656.00	3947.00	4047.00	4066.00	4027.00	3998.00	4035.00	4191.00	4138.00	3999.00	4005.00	4064.00	4168.00	4123.00	4040.00	3958.00	4003.00	4055.00	3958.00	3801.00	3663.00	3579.00	3612.00	3653.00	3634.00	3591.00	3613.00	3532.00	3442.00	3407.00	3369.00	3330.00
41.00	37.00	44.00	37.00	33.00	36.00	37.00	36.00	42.00	42.00	38.00	34.00	32.00	34.00	32.00	31.00	26.00	29.00	27.00	20.00	21.00	24.00	23.00	18.00	26.00	21.00	22.00	19.00	15.00	17.00	16.00	18.00	14.00	21.00	23.00	26.00	24.00	22.00	23.00	22.00	23.00	21.00	22.00	19.00	20.00	25.00	21.00	24.00	21.00	21.00	21.00	14.00	13.00	11.00	16.00	12.00	12.00	14.00	11.00	15.00	18.00	17.00	18.00	17.00	13.00	13.00	15.00	15.00	16.00	18.00	18.00	16.00	17.00	16.00	18.00	19.00	16.00	16.00	15.00	14.00	13.00	14.00	13.00	14.00	11.00	12.00	13.00	14.00	14.00	16.00	13.00	12.00	12.00	11.00	12.00	14.00	16.00	12.00	15.00	13.00	10.00	12.00	13.00	13.00	12.00	13.00	12.00	14.00	13.00	12.00	14.00	14.00	14.00	16.00	17.00	12.00	12.00	14.00	13.00	12.00	10.00	11.00	15.00	18.00	18.00	16.00	16.00	16.00	16.00	12.00	12.00	15.00	14.00	21.00	22.00	29.00	20.00	23.00	27.00	32.00	24.00	30.00	40.00	70.00	169.00	189.00	234.00	258.00	319.00	355.00	422.00	419.00	328.00	295.00	272.00	284.00	343.00	436.00	722.00	680.00	729.00	844.00	1227.00	1254.00	1363.00	1458.00	1276.00	1039.00	919.00	724.00	678.00	692.00	722.00	788.00	785.00	788.00	858.00	951.00	1070.00	1187.00	1449.00	1332.00	1261.00	1275.00	1458.00	1468.00	1709.00	1855.00	1779.00	1780.00	1980.00	2106.00	2180.00	2349.00	2662.00	2795.00	2889.00	3031.00	3242.00	3211.00	3134.00	3073.00	3043.00	2947.00	2930.00	2900.00	2844.00	2933.00	2926.00	2900.00	2896.00	2900.00	2851.00	2805.00	2775.00	2847.00	3160.00	3209.00	3281.00	3359.00	3392.00	3528.00	3698.00	3703.00	3614.00	3633.00	3729.00	3807.00	3947.00	4028.00	4052.00	4187.00	3970.00	3910.00	4054.00	4149.00	4128.00	4091.00	4095.00	4009.00	4079.00	4051.00	3888.00	3673.00	3611.00	3533.00	3579.00	3560.00	3561.00	3583.00	3590.00	3527.00	3455.00	3420.00	3343.00	3302.00
48.00	41.00	45.00	42.00	36.00	32.00	32.00	32.00	37.00	37.00	37.00	36.00	34.00	35.00	31.00	27.00	28.00	26.00	26.00	20.00	23.00	21.00	19.00	19.00	20.00	24.00	25.00	23.00	14.00	15.00	15.00	15.00	14.00	20.00	23.00	23.00	22.00	22.00	22.00	23.00	23.00	23.00	22.00	21.00	23.00	25.00	23.00	23.00	19.00	21.00	20.00	23.00	16.00	13.00	12.00	12.00	13.00	15.00	14.00	16.00	17.00	16.00	17.00	15.00	13.00	13.00	14.00	14.00	18.00	16.00	18.00	15.00	16.00	15.00	18.00	18.00	17.00	17.00	14.00	13.00	14.00	14.00	14.00	13.00	13.00	11.00	13.00	14.00	13.00	14.00	13.00	12.00	11.00	11.00	12.00	13.00	13.00	12.00	13.00	13.00	11.00	14.00	17.00	12.00	13.00	13.00	11.00	12.00	12.00	13.00	12.00	13.00	14.00	15.00	16.00	14.00	12.00	13.00	12.00	13.00	11.00	10.00	11.00	13.00	16.00	17.00	16.00	13.00	12.00	12.00	12.00	14.00	12.00	18.00	15.00	20.00	21.00	21.00	23.00	21.00	30.00	30.00	41.00	61.00	185.00	254.00	314.00	367.00	421.00	421.00	470.00	499.00	441.00	385.00	387.00	341.00	355.00	435.00	817.00	840.00	925.00	1019.00	1261.00	1307.00	1410.00	1442.00	1306.00	1025.00	910.00	754.00	643.00	705.00	801.00	809.00	884.00	972.00	1036.00	1109.00	1195.00	1320.00	1306.00	1183.00	1174.00	1301.00	1363.00	1458.00	1603.00	1638.00	1638.00	1932.00	2065.00	2131.00	2114.00	2189.00	2645.00	2707.00	2766.00	3022.00	3203.00	3169.00	3079.00	3036.00	3005.00	3021.00	2979.00	2988.00	2941.00	2907.00	2903.00	2883.00	2868.00	2872.00	2804.00	2754.00	2802.00	2874.00	3140.00	3108.00	3234.00	3346.00	3481.00	3627.00	3717.00	3732.00	3610.00	3567.00	3754.00	3863.00	3870.00	3896.00	4063.00	4121.00	3813.00	3823.00	3933.00	4016.00	4001.00	4011.00	4061.00	4058.00	4120.00	4077.00	3969.00	3813.00	3727.00	3592.00	3517.00	3536.00	3495.00	3524.00	3523.00	3517.00	3445.00	3357.00	3308.00	3279.00
47.00	47.00	46.00	41.00	38.00	37.00	32.00	32.00	37.00	31.00	35.00	39.00	38.00	39.00	34.00	31.00	28.00	28.00	26.00	23.00	23.00	22.00	22.00	18.00	19.00	22.00	20.00	14.00	16.00	16.00	14.00	14.00	16.00	22.00	24.00	21.00	21.00	21.00	23.00	23.00	22.00	24.00	26.00	22.00	24.00	27.00	23.00	21.00	18.00	21.00	20.00	22.00	17.00	15.00	11.00	10.00	12.00	12.00	12.00	15.00	15.00	16.00	14.00	14.00	15.00	18.00	15.00	13.00	17.00	16.00	16.00	14.00	17.00	13.00	15.00	17.00	14.00	16.00	15.00	14.00	14.00	14.00	16.00	13.00	15.00	10.00	16.00	14.00	13.00	14.00	12.00	11.00	10.00	11.00	13.00	13.00	12.00	13.00	15.00	15.00	10.00	11.00	14.00	17.00	11.00	11.00	10.00	10.00	15.00	13.00	11.00	11.00	13.00	15.00	16.00	14.00	12.00	11.00	12.00	11.00	12.00	10.00	11.00	12.00	15.00	15.00	14.00	12.00	12.00	12.00	12.00	13.00	12.00	14.00	14.00	16.00	17.00	19.00	20.00	18.00	31.00	28.00	37.00	49.00	122.00	227.00	292.00	369.00	529.00	480.00	413.00	402.00	462.00	463.00	503.00	427.00	432.00	416.00	694.00	784.00	972.00	1128.00	1250.00	1376.00	1388.00	1268.00	1204.00	1022.00	901.00	693.00	622.00	843.00	996.00	996.00	1065.00	1094.00	1190.00	1241.00	1310.00	1299.00	1132.00	1096.00	1208.00	1136.00	1168.00	1427.00	1458.00	1432.00	1442.00	1836.00	1838.00	1876.00	2022.00	2211.00	2478.00	2511.00	2598.00	2884.00	3153.00	3174.00	3111.00	3058.00	3068.00	3117.00	3069.00	3040.00	2988.00	2887.00	2884.00	2859.00	2846.00	2812.00	2756.00	2752.00	2818.00	2889.00	2979.00	3012.00	3094.00	3250.00	3423.00	3720.00	3852.00	3789.00	3658.00	3430.00	3580.00	3744.00	3683.00	3744.00	4068.00	4038.00	3724.00	3688.00	3842.00	3930.00	3980.00	4016.00	4100.00	4107.00	4086.00	3995.00	4034.00	3900.00	3836.00	3706.00	3500.00	3498.00	3468.00	3465.00	3464.00	3479.00	3485.00	3348.00	3283.00	3286.00
44.00	46.00	44.00	43.00	43.00	37.00	34.00	33.00	35.00	39.00	34.00	39.00	40.00	39.00	36.00	28.00	27.00	24.00	24.00	22.00	25.00	23.00	23.00	24.00	19.00	24.00	13.00	14.00	14.00	14.00	13.00	12.00	17.00	20.00	25.00	22.00	19.00	23.00	23.00	23.00	21.00	21.00	24.00	23.00	23.00	24.00	22.00	22.00	19.00	18.00	19.00	18.00	19.00	16.00	13.00	11.00	11.00	12.00	13.00	14.00	13.00	16.00	15.00	13.00	16.00	18.00	14.00	16.00	17.00	16.00	15.00	16.00	17.00	13.00	12.00	16.00	15.00	14.00	16.00	15.00	14.00	13.00	15.00	18.00	11.00	14.00	15.00	13.00	11.00	13.00	11.00	11.00	10.00	11.00	13.00	12.00	12.00	13.00	11.00	10.00	11.00	11.00	12.00	12.00	11.00	11.00	10.00	13.00	13.00	12.00	11.00	13.00	15.00	15.00	16.00	14.00	12.00	9.00	11.00	12.00	10.00	11.00	8.00	11.00	15.00	16.00	15.00	13.00	12.00	13.00	11.00	12.00	12.00	14.00	13.00	13.00	16.00	20.00	19.00	20.00	32.00	34.00	38.00	48.00	89.00	224.00	317.00	417.00	577.00	486.00	379.00	336.00	411.00	511.00	535.00	487.00	471.00	479.00	642.00	725.00	841.00	1056.00	1137.00	1327.00	1316.00	1229.00	1049.00	911.00	828.00	634.00	569.00	788.00	899.00	912.00	1000.00	1055.00	1164.00	1221.00	1163.00	1123.00	977.00	1142.00	1195.00	1073.00	1152.00	1338.00	1320.00	1418.00	1542.00	1668.00	1731.00	1844.00	2011.00	2162.00	2235.00	2369.00	2523.00	2746.00	3073.00	3210.00	3115.00	3143.00	3158.00	3104.00	3044.00	3005.00	2945.00	2861.00	2869.00	2843.00	2819.00	2775.00	2719.00	2759.00	2802.00	2836.00	3033.00	3154.00	3132.00	3142.00	3347.00	3684.00	3897.00	3910.00	3726.00	3375.00	3506.00	3578.00	3540.00	3650.00	4060.00	3931.00	3610.00	3655.00	4009.00	4076.00	4102.00	4096.00	4128.00	4044.00	4067.00	3964.00	3940.00	3747.00	3743.00	3667.00	3523.00	3445.00	3450.00	3437.00	3437.00	3488.00	3411.00	3312.00	3252.00	3247.00
40.00	40.00	41.00	43.00	38.00	34.00	42.00	41.00	41.00	36.00	40.00	32.00	36.00	35.00	35.00	35.00	29.00	27.00	26.00	25.00	28.00	28.00	18.00	18.00	22.00	19.00	18.00	16.00	15.00	12.00	11.00	11.00	10.00	10.00	16.00	21.00	20.00	22.00	22.00	22.00	24.00	21.00	26.00	24.00	24.00	23.00	22.00	18.00	20.00	17.00	15.00	13.00	16.00	15.00	13.00	10.00	11.00	12.00	14.00	14.00	14.00	13.00	14.00	15.00	16.00	19.00	18.00	13.00	17.00	16.00	16.00	14.00	14.00	15.00	13.00	16.00	14.00	11.00	12.00	14.00	13.00	12.00	13.00	14.00	12.00	15.00	13.00	14.00	13.00	11.00	13.00	11.00	12.00	12.00	12.00	12.00	10.00	10.00	12.00	10.00	12.00	11.00	11.00	10.00	10.00	10.00	12.00	13.00	13.00	12.00	15.00	16.00	15.00	17.00	13.00	12.00	9.00	9.00	11.00	12.00	10.00	11.00	11.00	13.00	15.00	15.00	13.00	12.00	12.00	11.00	11.00	12.00	13.00	14.00	13.00	15.00	16.00	17.00	24.00	27.00	39.00	40.00	31.00	45.00	148.00	310.00	406.00	537.00	501.00	323.00	234.00	245.00	304.00	386.00	392.00	361.00	358.00	387.00	676.00	779.00	826.00	935.00	998.00	955.00	995.00	1034.00	895.00	793.00	699.00	580.00	522.00	612.00	668.00	771.00	685.00	689.00	962.00	891.00	821.00	839.00	926.00	984.00	996.00	1117.00	1255.00	1289.00	1424.00	1630.00	1791.00	2001.00	1949.00	1913.00	1930.00	2050.00	2499.00	2596.00	2598.00	2773.00	3175.00	3256.00	3169.00	3077.00	3051.00	3010.00	2980.00	2948.00	2884.00	2772.00	2805.00	2824.00	2811.00	2707.00	2731.00	2769.00	2791.00	2870.00	2988.00	3148.00	3244.00	3356.00	3419.00	3843.00	3881.00	3804.00	3618.00	3294.00	3351.00	3526.00	3667.00	3783.00	3888.00	3700.00	3509.00	3652.00	3900.00	3961.00	4015.00	4117.00	4119.00	4051.00	3959.00	3812.00	3708.00	3625.00	3657.00	3660.00	3566.00	3490.00	3395.00	3394.00	3394.00	3458.00	3331.00	3229.00	3219.00	3217.00
42.00	39.00	39.00	37.00	40.00	39.00	37.00	37.00	41.00	41.00	36.00	38.00	38.00	36.00	35.00	30.00	31.00	30.00	30.00	26.00	22.00	23.00	20.00	15.00	14.00	16.00	15.00	16.00	18.00	14.00	13.00	12.00	11.00	12.00	17.00	20.00	21.00	22.00	21.00	22.00	22.00	21.00	21.00	18.00	20.00	22.00	20.00	20.00	20.00	17.00	16.00	16.00	13.00	14.00	11.00	11.00	12.00	11.00	12.00	14.00	13.00	17.00	11.00	11.00	16.00	14.00	13.00	14.00	18.00	16.00	14.00	13.00	16.00	13.00	11.00	9.00	10.00	12.00	15.00	15.00	15.00	12.00	13.00	11.00	12.00	15.00	13.00	12.00	12.00	13.00	13.00	14.00	12.00	10.00	11.00	11.00	10.00	10.00	11.00	10.00	9.00	9.00	9.00	9.00	9.00	10.00	13.00	10.00	10.00	13.00	14.00	13.00	11.00	16.00	11.00	11.00	10.00	14.00	15.00	16.00	12.00	11.00	12.00	12.00	11.00	12.00	15.00	15.00	11.00	10.00	11.00	12.00	12.00	12.00	12.00	12.00	15.00	16.00	20.00	20.00	23.00	26.00	27.00	37.00	92.00	225.00	309.00	372.00	354.00	222.00	162.00	167.00	226.00	338.00	289.00	270.00	264.00	327.00	555.00	630.00	588.00	632.00	714.00	824.00	782.00	853.00	812.00	589.00	530.00	492.00	557.00	664.00	677.00	683.00	803.00	899.00	951.00	1015.00	1090.00	1118.00	1190.00	1069.00	1089.00	1310.00	1438.00	1403.00	1299.00	1377.00	1568.00	2127.00	2269.00	2335.00	2272.00	2248.00	2367.00	2523.00	2796.00	2950.00	3121.00	3258.00	3195.00	3189.00	3162.00	3048.00	2987.00	2947.00	2892.00	2805.00	2729.00	2761.00	2694.00	2679.00	2704.00	2739.00	2804.00	2869.00	3092.00	3072.00	3153.00	3345.00	3467.00	3625.00	3653.00	3490.00	3361.00	3240.00	3345.00	3544.00	3679.00	3739.00	3648.00	3519.00	3544.00	3706.00	3925.00	4027.00	4020.00	4107.00	4098.00	4045.00	3916.00	3987.00	3893.00	3926.00	3830.00	3686.00	3584.00	3533.00	3430.00	3364.00	3381.00	3517.00	3238.00	3209.00	3202.00	3199.00
42.00	40.00	37.00	35.00	35.00	42.00	35.00	38.00	38.00	36.00	41.00	36.00	34.00	34.00	31.00	30.00	27.00	27.00	27.00	24.00	23.00	20.00	19.00	16.00	14.00	14.00	16.00	15.00	24.00	16.00	13.00	12.00	13.00	11.00	20.00	19.00	17.00	22.00	21.00	22.00	21.00	18.00	20.00	16.00	19.00	18.00	18.00	20.00	20.00	20.00	14.00	12.00	13.00	11.00	11.00	10.00	10.00	12.00	12.00	12.00	14.00	16.00	14.00	15.00	15.00	13.00	14.00	16.00	16.00	16.00	16.00	13.00	16.00	13.00	11.00	12.00	13.00	11.00	13.00	13.00	16.00	15.00	13.00	12.00	12.00	15.00	14.00	13.00	16.00	14.00	11.00	12.00	11.00	11.00	12.00	10.00	11.00	9.00	9.00	9.00	9.00	9.00	9.00	9.00	9.00	12.00	10.00	9.00	10.00	13.00	15.00	10.00	11.00	14.00	10.00	8.00	9.00	11.00	12.00	13.00	13.00	10.00	12.00	14.00	13.00	12.00	11.00	10.00	10.00	11.00	10.00	12.00	11.00	12.00	11.00	11.00	13.00	16.00	22.00	30.00	31.00	37.00	43.00	37.00	63.00	143.00	206.00	260.00	272.00	169.00	149.00	153.00	206.00	333.00	274.00	228.00	258.00	305.00	459.00	552.00	529.00	576.00	634.00	759.00	682.00	685.00	670.00	531.00	478.00	518.00	607.00	851.00	851.00	756.00	913.00	1066.00	1061.00	1106.00	1164.00	1250.00	1281.00	1152.00	1078.00	1146.00	1209.00	1345.00	1455.00	1389.00	1437.00	2079.00	2310.00	2487.00	2461.00	2382.00	2480.00	2593.00	2803.00	2971.00	3043.00	3233.00	3273.00	3224.00	3168.00	3080.00	3050.00	3000.00	2979.00	2842.00	2705.00	2706.00	2660.00	2625.00	2732.00	2763.00	2824.00	2925.00	2996.00	3029.00	3166.00	3392.00	3512.00	3389.00	3446.00	3361.00	3275.00	3179.00	3316.00	3393.00	3548.00	3568.00	3513.00	3383.00	3578.00	3633.00	3888.00	3976.00	3981.00	4052.00	4001.00	4026.00	3950.00	3985.00	3841.00	3943.00	3789.00	3656.00	3579.00	3490.00	3395.00	3344.00	3405.00	3538.00	3276.00	3205.00	3194.00	3193.00
46.00	36.00	37.00	40.00	44.00	42.00	38.00	42.00	43.00	41.00	39.00	39.00	39.00	35.00	34.00	32.00	30.00	25.00	25.00	24.00	20.00	22.00	16.00	15.00	14.00	14.00	14.00	14.00	15.00	16.00	14.00	14.00	12.00	17.00	22.00	19.00	17.00	22.00	20.00	21.00	21.00	18.00	18.00	16.00	20.00	17.00	20.00	18.00	19.00	20.00	13.00	12.00	12.00	11.00	12.00	13.00	11.00	10.00	10.00	18.00	15.00	15.00	14.00	14.00	13.00	12.00	18.00	17.00	15.00	16.00	15.00	13.00	13.00	14.00	12.00	10.00	13.00	13.00	13.00	13.00	13.00	14.00	16.00	10.00	12.00	15.00	15.00	16.00	18.00	14.00	14.00	13.00	11.00	12.00	12.00	10.00	10.00	10.00	9.00	9.00	9.00	9.00	10.00	9.00	10.00	13.00	8.00	9.00	10.00	14.00	10.00	12.00	13.00	12.00	10.00	8.00	8.00	11.00	8.00	12.00	14.00	12.00	12.00	14.00	13.00	13.00	11.00	11.00	11.00	10.00	11.00	11.00	12.00	12.00	10.00	10.00	12.00	19.00	24.00	42.00	39.00	53.00	57.00	63.00	55.00	75.00	121.00	200.00	193.00	146.00	146.00	157.00	213.00	311.00	251.00	205.00	232.00	247.00	384.00	488.00	445.00	533.00	663.00	661.00	588.00	569.00	552.00	480.00	439.00	539.00	628.00	971.00	913.00	848.00	922.00	1186.00	1160.00	1162.00	1266.00	1397.00	1375.00	1204.00	1195.00	1294.00	1361.00	1286.00	1422.00	1557.00	1488.00	1679.00	2132.00	2291.00	2341.00	2381.00	2637.00	2640.00	2719.00	2764.00	3038.00	3185.00	3247.00	3204.00	3160.00	3155.00	3118.00	3110.00	3037.00	2885.00	2695.00	2703.00	2629.00	2628.00	2748.00	2790.00	2862.00	2916.00	2962.00	3096.00	3291.00	3420.00	3443.00	3245.00	3304.00	3285.00	3247.00	3135.00	3140.00	3200.00	3292.00	3304.00	3358.00	3355.00	3779.00	3822.00	3969.00	3981.00	3889.00	3939.00	3950.00	4030.00	4043.00	4015.00	3880.00	3954.00	3808.00	3631.00	3511.00	3432.00	3349.00	3326.00	3356.00	3482.00	3226.00	3204.00	3190.00	3182.00
43.00	59.00	52.00	45.00	42.00	45.00	46.00	48.00	48.00	43.00	41.00	41.00	38.00	36.00	33.00	34.00	30.00	30.00	27.00	25.00	27.00	23.00	14.00	12.00	12.00	12.00	12.00	12.00	13.00	15.00	16.00	14.00	18.00	17.00	21.00	18.00	16.00	21.00	20.00	19.00	21.00	21.00	19.00	16.00	19.00	19.00	18.00	16.00	19.00	16.00	12.00	12.00	12.00	10.00	11.00	17.00	14.00	11.00	11.00	12.00	14.00	14.00	13.00	14.00	12.00	15.00	17.00	17.00	15.00	15.00	14.00	11.00	9.00	15.00	13.00	11.00	10.00	12.00	11.00	12.00	10.00	11.00	14.00	15.00	15.00	11.00	13.00	11.00	14.00	11.00	11.00	11.00	12.00	15.00	12.00	11.00	10.00	9.00	8.00	11.00	9.00	9.00	9.00	9.00	9.00	9.00	9.00	10.00	14.00	14.00	13.00	14.00	13.00	12.00	8.00	8.00	10.00	15.00	8.00	11.00	13.00	14.00	13.00	14.00	13.00	12.00	16.00	12.00	10.00	11.00	12.00	11.00	10.00	9.00	10.00	10.00	12.00	16.00	31.00	51.00	61.00	67.00	72.00	87.00	95.00	96.00	88.00	147.00	145.00	167.00	166.00	152.00	199.00	294.00	188.00	198.00	207.00	220.00	272.00	323.00	390.00	488.00	681.00	573.00	605.00	536.00	435.00	417.00	456.00	576.00	689.00	980.00	1084.00	1114.00	1133.00	1227.00	1357.00	1424.00	1449.00	1569.00	1448.00	1290.00	1373.00	1499.00	1664.00	1521.00	1460.00	1495.00	1702.00	1689.00	1709.00	1769.00	1924.00	1950.00	2256.00	2319.00	2359.00	2538.00	2894.00	3152.00	3062.00	3071.00	3086.00	2993.00	3006.00	2978.00	3016.00	2777.00	2752.00	2616.00	2566.00	2686.00	2687.00	2733.00	2745.00	2834.00	2910.00	3045.00	3104.00	3041.00	2989.00	3015.00	3149.00	3129.00	3080.00	3068.00	3147.00	3468.00	3571.00	3391.00	3543.00	3437.00	3634.00	3658.00	3796.00	3760.00	3896.00	3958.00	4000.00	4070.00	3979.00	3920.00	3866.00	3829.00	3730.00	3600.00	3519.00	3437.00	3308.00	3332.00	3401.00	3468.00	3352.00	3240.00	3189.00	3180.00
47.00	55.00	48.00	50.00	45.00	43.00	50.00	48.00	49.00	44.00	41.00	38.00	36.00	33.00	30.00	28.00	30.00	25.00	25.00	24.00	25.00	22.00	14.00	13.00	11.00	11.00	12.00	12.00	13.00	15.00	13.00	13.00	15.00	18.00	22.00	18.00	17.00	21.00	21.00	18.00	20.00	20.00	20.00	16.00	17.00	19.00	17.00	15.00	18.00	15.00	12.00	12.00	10.00	11.00	12.00	14.00	16.00	15.00	12.00	11.00	13.00	12.00	12.00	13.00	16.00	15.00	15.00	15.00	11.00	13.00	14.00	14.00	12.00	15.00	15.00	12.00	11.00	12.00	11.00	10.00	12.00	11.00	12.00	16.00	13.00	11.00	13.00	11.00	11.00	12.00	12.00	11.00	11.00	13.00	12.00	10.00	9.00	8.00	11.00	11.00	9.00	9.00	9.00	8.00	9.00	9.00	9.00	11.00	14.00	14.00	15.00	12.00	10.00	9.00	10.00	11.00	11.00	14.00	8.00	9.00	12.00	14.00	13.00	15.00	12.00	11.00	12.00	10.00	10.00	10.00	11.00	9.00	9.00	10.00	9.00	9.00	14.00	23.00	32.00	43.00	71.00	77.00	82.00	92.00	98.00	113.00	106.00	189.00	152.00	178.00	187.00	179.00	168.00	206.00	193.00	207.00	216.00	227.00	273.00	309.00	388.00	447.00	612.00	542.00	478.00	470.00	405.00	418.00	450.00	574.00	677.00	934.00	956.00	1127.00	1255.00	1297.00	1485.00	1579.00	1710.00	1702.00	1434.00	1372.00	1426.00	1580.00	1733.00	1670.00	1537.00	1575.00	1813.00	1901.00	1921.00	1843.00	1928.00	1969.00	2162.00	2229.00	2293.00	2502.00	2876.00	3077.00	3104.00	3035.00	3001.00	2920.00	2899.00	2880.00	2890.00	2739.00	2691.00	2610.00	2572.00	2648.00	2658.00	2702.00	2711.00	2813.00	2803.00	2839.00	2875.00	2883.00	2968.00	2947.00	2983.00	2984.00	3002.00	3132.00	3270.00	3498.00	3685.00	3496.00	3747.00	3661.00	3477.00	3529.00	3676.00	3790.00	3886.00	3893.00	4003.00	4088.00	4045.00	3989.00	3859.00	3619.00	3560.00	3505.00	3602.00	3537.00	3291.00	3354.00	3422.00	3501.00	3378.00	3239.00	3194.00	3186.00
50.00	50.00	58.00	50.00	45.00	43.00	50.00	49.00	46.00	43.00	41.00	37.00	36.00	34.00	33.00	28.00	27.00	26.00	26.00	23.00	22.00	22.00	14.00	11.00	11.00	11.00	11.00	12.00	15.00	14.00	18.00	14.00	14.00	16.00	19.00	18.00	14.00	18.00	20.00	18.00	20.00	20.00	20.00	15.00	14.00	16.00	13.00	17.00	19.00	16.00	12.00	12.00	11.00	10.00	11.00	11.00	12.00	13.00	15.00	12.00	14.00	12.00	12.00	12.00	13.00	11.00	14.00	11.00	10.00	10.00	12.00	12.00	15.00	15.00	15.00	13.00	12.00	11.00	11.00	14.00	14.00	12.00	15.00	13.00	13.00	11.00	13.00	10.00	9.00	11.00	13.00	10.00	10.00	10.00	14.00	10.00	10.00	10.00	11.00	12.00	9.00	12.00	12.00	12.00	10.00	11.00	13.00	14.00	14.00	16.00	18.00	12.00	9.00	10.00	12.00	11.00	12.00	11.00	8.00	9.00	10.00	12.00	11.00	13.00	9.00	10.00	15.00	9.00	10.00	9.00	9.00	9.00	9.00	8.00	9.00	10.00	14.00	28.00	31.00	44.00	78.00	84.00	85.00	94.00	108.00	121.00	116.00	145.00	169.00	204.00	208.00	205.00	192.00	179.00	199.00	210.00	223.00	233.00	277.00	280.00	334.00	394.00	512.00	450.00	396.00	396.00	379.00	430.00	469.00	584.00	663.00	826.00	987.00	1219.00	1330.00	1427.00	1629.00	1772.00	1916.00	1865.00	1561.00	1458.00	1500.00	1570.00	1739.00	1835.00	1645.00	1575.00	1779.00	2065.00	2050.00	1981.00	2145.00	2145.00	2440.00	2431.00	2491.00	2506.00	2851.00	3006.00	3112.00	3075.00	2989.00	2926.00	2837.00	2834.00	2796.00	2699.00	2671.00	2613.00	2538.00	2610.00	2657.00	2667.00	2691.00	2725.00	2870.00	2957.00	3022.00	3106.00	3179.00	3074.00	3136.00	3059.00	3137.00	3301.00	3417.00	3653.00	3795.00	3585.00	3839.00	3696.00	3584.00	3635.00	3662.00	3697.00	3738.00	3811.00	3890.00	4030.00	3975.00	3884.00	3693.00	3513.00	3456.00	3406.00	3452.00	3469.00	3273.00	3398.00	3478.00	3544.00	3271.00	3222.00	3202.00	3195.00
62.00	59.00	58.00	51.00	47.00	44.00	50.00	49.00	48.00	44.00	40.00	39.00	36.00	35.00	36.00	31.00	32.00	29.00	27.00	21.00	21.00	22.00	14.00	11.00	11.00	11.00	11.00	11.00	14.00	16.00	19.00	16.00	16.00	18.00	20.00	19.00	15.00	19.00	20.00	19.00	19.00	18.00	20.00	14.00	13.00	14.00	14.00	16.00	17.00	17.00	11.00	11.00	12.00	10.00	10.00	11.00	10.00	10.00	9.00	12.00	12.00	12.00	12.00	11.00	11.00	10.00	15.00	11.00	10.00	9.00	10.00	12.00	12.00	16.00	16.00	14.00	11.00	12.00	10.00	12.00	16.00	15.00	13.00	12.00	14.00	12.00	12.00	13.00	11.00	11.00	11.00	10.00	9.00	12.00	15.00	10.00	9.00	10.00	12.00	14.00	12.00	14.00	14.00	14.00	12.00	16.00	13.00	14.00	14.00	12.00	13.00	8.00	10.00	13.00	9.00	11.00	13.00	12.00	9.00	8.00	10.00	15.00	9.00	10.00	12.00	10.00	13.00	9.00	8.00	9.00	9.00	9.00	9.00	9.00	9.00	12.00	13.00	32.00	29.00	39.00	72.00	86.00	95.00	100.00	111.00	124.00	136.00	144.00	180.00	198.00	195.00	198.00	210.00	208.00	196.00	212.00	221.00	233.00	265.00	276.00	292.00	346.00	395.00	363.00	374.00	367.00	371.00	433.00	484.00	598.00	663.00	846.00	962.00	1200.00	1418.00	1530.00	1746.00	1848.00	1875.00	1911.00	1576.00	1521.00	1642.00	1679.00	1815.00	1966.00	1797.00	1701.00	1699.00	2232.00	2110.00	2132.00	2325.00	2340.00	2637.00	2606.00	2676.00	2732.00	2861.00	2971.00	3035.00	3040.00	2992.00	2911.00	2816.00	2777.00	2738.00	2638.00	2595.00	2549.00	2535.00	2681.00	2753.00	2767.00	2774.00	2780.00	2863.00	3062.00	3224.00	3330.00	3348.00	3173.00	3198.00	3105.00	3231.00	3350.00	3522.00	3777.00	3902.00	3720.00	3911.00	3752.00	3733.00	3764.00	3769.00	3837.00	3814.00	3777.00	3822.00	4036.00	4021.00	3949.00	3692.00	3519.00	3397.00	3351.00	3317.00	3296.00	3270.00	3405.00	3399.00	3491.00	3271.00	3233.00	3212.00	3204.00
77.00	57.00	48.00	47.00	43.00	40.00	44.00	47.00	40.00	40.00	36.00	36.00	35.00	34.00	31.00	29.00	26.00	27.00	29.00	20.00	16.00	19.00	11.00	11.00	11.00	12.00	14.00	15.00	19.00	14.00	14.00	15.00	21.00	20.00	16.00	18.00	16.00	18.00	19.00	17.00	19.00	21.00	20.00	18.00	13.00	15.00	14.00	14.00	16.00	18.00	15.00	13.00	14.00	11.00	11.00	10.00	10.00	11.00	10.00	12.00	12.00	12.00	10.00	12.00	12.00	13.00	13.00	12.00	11.00	11.00	10.00	10.00	12.00	11.00	17.00	15.00	14.00	14.00	10.00	11.00	9.00	8.00	14.00	13.00	14.00	10.00	11.00	10.00	10.00	10.00	9.00	11.00	10.00	10.00	11.00	10.00	9.00	10.00	8.00	7.00	11.00	12.00	12.00	13.00	15.00	14.00	14.00	13.00	11.00	11.00	8.00	8.00	8.00	11.00	12.00	8.00	8.00	11.00	15.00	13.00	10.00	9.00	8.00	11.00	15.00	14.00	10.00	8.00	9.00	8.00	9.00	9.00	9.00	9.00	8.00	10.00	13.00	28.00	29.00	33.00	57.00	73.00	92.00	108.00	120.00	151.00	158.00	164.00	172.00	169.00	168.00	177.00	189.00	195.00	222.00	240.00	250.00	265.00	298.00	294.00	302.00	316.00	326.00	347.00	337.00	359.00	373.00	440.00	494.00	712.00	828.00	976.00	1057.00	1240.00	1439.00	1588.00	1550.00	1541.00	1624.00	1726.00	1690.00	1688.00	1808.00	1937.00	2059.00	2156.00	2121.00	2016.00	1918.00	2282.00	2453.00	2463.00	2673.00	2835.00	2961.00	3051.00	3087.00	3075.00	3067.00	3028.00	2955.00	2906.00	2890.00	2884.00	2896.00	2858.00	2843.00	2780.00	2753.00	2567.00	2586.00	2733.00	2725.00	2781.00	2815.00	2879.00	3043.00	3083.00	3144.00	3293.00	3416.00	3380.00	3270.00	3244.00	3302.00	3694.00	3756.00	3793.00	3910.00	4028.00	4112.00	4048.00	3897.00	4042.00	3942.00	4072.00	3990.00	3849.00	3889.00	4037.00	3898.00	3816.00	3576.00	3646.00	3557.00	3464.00	3386.00	3322.00	3241.00	3265.00	3323.00	3425.00	3316.00	3241.00	3230.00	3222.00
77.00	57.00	48.00	47.00	43.00	40.00	44.00	47.00	40.00	40.00	36.00	36.00	35.00	34.00	31.00	29.00	26.00	27.00	29.00	20.00	16.00	19.00	11.00	11.00	11.00	12.00	14.00	15.00	19.00	14.00	14.00	15.00	21.00	20.00	16.00	18.00	16.00	18.00	19.00	17.00	19.00	21.00	20.00	18.00	13.00	15.00	14.00	14.00	16.00	18.00	15.00	13.00	14.00	11.00	11.00	10.00	10.00	11.00	10.00	12.00	12.00	12.00	10.00	12.00	12.00	13.00	13.00	12.00	11.00	11.00	10.00	10.00	12.00	11.00	17.00	15.00	14.00	14.00	10.00	11.00	9.00	8.00	14.00	13.00	14.00	10.00	11.00	10.00	10.00	10.00	9.00	11.00	10.00	10.00	11.00	10.00	9.00	10.00	8.00	7.00	11.00	12.00	12.00	13.00	15.00	14.00	14.00	13.00	11.00	11.00	8.00	8.00	8.00	11.00	12.00	8.00	8.00	11.00	15.00	13.00	10.00	9.00	8.00	11.00	15.00	14.00	10.00	8.00	9.00	8.00	9.00	9.00	9.00	9.00	8.00	10.00	13.00	28.00	29.00	33.00	57.00	73.00	92.00	108.00	120.00	151.00	158.00	164.00	172.00	169.00	168.00	177.00	189.00	195.00	222.00	240.00	250.00	265.00	298.00	294.00	302.00	316.00	326.00	347.00	337.00	359.00	373.00	440.00	494.00	712.00	828.00	976.00	1057.00	1240.00	1439.00	1588.00	1550.00	1541.00	1624.00	1726.00	1690.00	1688.00	1808.00	1937.00	2059.00	2156.00	2121.00	2016.00	1918.00	2282.00	2453.00	2463.00	2673.00	2835.00	2961.00	3051.00	3087.00	3075.00	3067.00	3028.00	2955.00	2906.00	2890.00	2884.00	2896.00	2858.00	2843.00	2780.00	2753.00	2567.00	2586.00	2733.00	2725.00	2781.00	2815.00	2879.00	3043.00	3083.00	3144.00	3293.00	3416.00	3380.00	3270.00	3244.00	3302.00	3694.00	3756.00	3793.00	3910.00	4028.00	4112.00	4048.00	3897.00	4042.00	3942.00	4072.00	3990.00	3849.00	3889.00	4037.00	3898.00	3816.00	3576.00	3646.00	3557.00	3464.00	3386.00	3322.00	3241.00	3265.00	3323.00	3425.00	3316.00	3241.00	3230.00	3222.00
76.00	45.00	42.00	41.00	41.00	38.00	46.00	48.00	44.00	39.00	36.00	35.00	34.00	31.00	31.00	29.00	24.00	20.00	24.00	19.00	15.00	16.00	12.00	11.00	12.00	12.00	16.00	14.00	14.00	12.00	12.00	14.00	18.00	18.00	16.00	16.00	15.00	18.00	19.00	18.00	19.00	20.00	20.00	19.00	17.00	12.00	14.00	15.00	17.00	16.00	17.00	15.00	14.00	13.00	11.00	10.00	9.00	11.00	9.00	11.00	11.00	9.00	10.00	10.00	14.00	14.00	14.00	13.00	13.00	14.00	14.00	11.00	10.00	9.00	14.00	15.00	13.00	10.00	9.00	10.00	9.00	8.00	12.00	13.00	12.00	10.00	9.00	11.00	9.00	10.00	11.00	10.00	10.00	11.00	12.00	9.00	9.00	8.00	8.00	7.00	8.00	9.00	8.00	12.00	13.00	11.00	16.00	15.00	12.00	8.00	7.00	9.00	9.00	17.00	14.00	8.00	10.00	11.00	10.00	10.00	6.00	7.00	9.00	11.00	16.00	10.00	9.00	8.00	8.00	9.00	9.00	11.00	10.00	10.00	9.00	10.00	14.00	23.00	27.00	38.00	65.00	78.00	93.00	108.00	122.00	142.00	135.00	132.00	150.00	187.00	183.00	180.00	193.00	204.00	254.00	234.00	224.00	232.00	277.00	297.00	308.00	321.00	339.00	331.00	337.00	361.00	372.00	467.00	503.00	688.00	754.00	950.00	1077.00	1290.00	1450.00	1468.00	1414.00	1483.00	1575.00	1680.00	1819.00	1791.00	1835.00	1885.00	2020.00	2312.00	2317.00	2184.00	2065.00	2308.00	2593.00	2618.00	2752.00	2964.00	2955.00	2981.00	3010.00	3047.00	3142.00	3109.00	3026.00	2981.00	2952.00	2874.00	2841.00	2845.00	2779.00	2811.00	2726.00	2543.00	2583.00	2666.00	2701.00	2739.00	2770.00	2835.00	2971.00	3052.00	3204.00	3332.00	3417.00	3432.00	3417.00	3362.00	3379.00	3542.00	3577.00	3745.00	3884.00	4041.00	4148.00	4168.00	3943.00	4039.00	4020.00	4115.00	4015.00	3874.00	3924.00	4042.00	3877.00	3739.00	3665.00	3771.00	3587.00	3525.00	3460.00	3338.00	3240.00	3233.00	3288.00	3353.00	3262.00	3245.00	3234.00	3228.00
73.00	44.00	43.00	41.00	47.00	38.00	41.00	43.00	44.00	41.00	36.00	31.00	32.00	26.00	27.00	27.00	22.00	17.00	20.00	21.00	18.00	12.00	12.00	12.00	13.00	12.00	13.00	13.00	13.00	14.00	12.00	13.00	16.00	16.00	15.00	15.00	14.00	19.00	20.00	19.00	18.00	18.00	21.00	17.00	16.00	13.00	16.00	17.00	17.00	16.00	14.00	13.00	14.00	12.00	11.00	10.00	9.00	8.00	7.00	9.00	10.00	10.00	9.00	8.00	13.00	14.00	12.00	12.00	15.00	10.00	10.00	14.00	10.00	8.00	16.00	17.00	14.00	10.00	9.00	14.00	11.00	9.00	12.00	11.00	13.00	10.00	11.00	11.00	9.00	8.00	9.00	10.00	9.00	11.00	14.00	9.00	8.00	8.00	7.00	7.00	8.00	11.00	9.00	10.00	13.00	14.00	15.00	15.00	14.00	8.00	6.00	7.00	9.00	11.00	11.00	8.00	10.00	10.00	9.00	10.00	8.00	7.00	10.00	11.00	18.00	14.00	10.00	8.00	8.00	8.00	8.00	10.00	11.00	9.00	9.00	12.00	18.00	39.00	41.00	47.00	69.00	81.00	91.00	100.00	111.00	117.00	133.00	146.00	175.00	238.00	211.00	193.00	186.00	223.00	349.00	334.00	275.00	262.00	288.00	278.00	287.00	317.00	324.00	330.00	354.00	385.00	431.00	457.00	539.00	686.00	783.00	996.00	1148.00	1286.00	1350.00	1344.00	1426.00	1561.00	1675.00	1729.00	1744.00	1750.00	1719.00	1828.00	1898.00	2146.00	2424.00	2329.00	2225.00	2516.00	2690.00	2837.00	2864.00	2993.00	2882.00	2883.00	2935.00	2964.00	3082.00	3051.00	2970.00	2937.00	2943.00	2917.00	2913.00	2906.00	2710.00	2645.00	2645.00	2522.00	2523.00	2661.00	2667.00	2702.00	2747.00	2859.00	3019.00	3131.00	3269.00	3384.00	3460.00	3304.00	3260.00	3268.00	3349.00	3578.00	3684.00	3714.00	3797.00	3879.00	4018.00	4137.00	4001.00	4030.00	4114.00	4135.00	4015.00	3892.00	3996.00	4040.00	3883.00	3751.00	3707.00	3720.00	3610.00	3579.00	3502.00	3383.00	3275.00	3210.00	3219.00	3239.00	3247.00	3239.00	3233.00	3237.00
44.00	55.00	45.00	42.00	45.00	41.00	40.00	44.00	42.00	39.00	35.00	32.00	29.00	29.00	24.00	21.00	21.00	21.00	19.00	19.00	17.00	20.00	15.00	13.00	14.00	15.00	12.00	13.00	14.00	14.00	13.00	12.00	11.00	12.00	16.00	15.00	16.00	17.00	17.00	16.00	17.00	17.00	16.00	16.00	17.00	15.00	11.00	11.00	13.00	14.00	14.00	11.00	12.00	10.00	10.00	11.00	11.00	8.00	7.00	9.00	9.00	13.00	15.00	14.00	14.00	16.00	12.00	13.00	10.00	9.00	8.00	8.00	9.00	16.00	13.00	11.00	9.00	11.00	15.00	15.00	12.00	11.00	8.00	7.00	7.00	9.00	11.00	8.00	8.00	8.00	9.00	10.00	7.00	6.00	11.00	9.00	8.00	7.00	8.00	9.00	12.00	16.00	14.00	13.00	12.00	13.00	13.00	11.00	13.00	14.00	13.00	12.00	12.00	10.00	10.00	11.00	11.00	11.00	10.00	10.00	18.00	18.00	8.00	8.00	10.00	10.00	8.00	7.00	6.00	8.00	7.00	11.00	9.00	9.00	12.00	19.00	28.00	53.00	52.00	65.00	73.00	71.00	70.00	72.00	83.00	110.00	207.00	298.00	400.00	395.00	404.00	439.00	449.00	467.00	479.00	470.00	424.00	441.00	479.00	532.00	454.00	462.00	459.00	415.00	458.00	521.00	595.00	659.00	653.00	929.00	1051.00	930.00	1001.00	1007.00	1047.00	1189.00	1458.00	1607.00	1697.00	1606.00	1557.00	1490.00	1478.00	1640.00	1763.00	1819.00	1973.00	2098.00	2323.00	2680.00	2804.00	2982.00	2987.00	2959.00	2966.00	2900.00	2782.00	2765.00	2745.00	2834.00	2892.00	2858.00	2818.00	2749.00	2785.00	2734.00	2656.00	2615.00	2537.00	2451.00	2504.00	2568.00	2626.00	2671.00	2743.00	2794.00	2865.00	2931.00	3063.00	3299.00	3369.00	3207.00	3218.00	3401.00	3602.00	3789.00	3864.00	3836.00	3938.00	4018.00	4171.00	4180.00	4129.00	4148.00	4161.00	4089.00	4022.00	3972.00	3997.00	4016.00	4030.00	3927.00	3878.00	3870.00	3828.00	3681.00	3570.00	3627.00	3641.00	3441.00	3413.00	3269.00	3191.00	3212.00	3224.00	3173.00
45.00	55.00	49.00	48.00	52.00	42.00	37.00	39.00	42.00	40.00	38.00	33.00	30.00	27.00	25.00	23.00	25.00	24.00	23.00	18.00	20.00	18.00	15.00	12.00	11.00	13.00	13.00	13.00	13.00	12.00	13.00	14.00	11.00	11.00	11.00	14.00	18.00	18.00	17.00	13.00	15.00	17.00	17.00	16.00	15.00	15.00	12.00	10.00	15.00	14.00	13.00	10.00	12.00	10.00	9.00	9.00	12.00	10.00	9.00	8.00	10.00	11.00	15.00	13.00	15.00	16.00	14.00	12.00	10.00	10.00	9.00	9.00	9.00	15.00	8.00	8.00	8.00	15.00	15.00	13.00	11.00	12.00	8.00	7.00	8.00	8.00	9.00	6.00	6.00	6.00	8.00	8.00	10.00	8.00	9.00	9.00	10.00	8.00	10.00	10.00	13.00	13.00	13.00	12.00	13.00	13.00	10.00	10.00	11.00	14.00	13.00	13.00	13.00	11.00	11.00	12.00	10.00	9.00	9.00	13.00	12.00	13.00	10.00	8.00	10.00	10.00	8.00	7.00	7.00	7.00	9.00	9.00	9.00	9.00	12.00	24.00	29.00	47.00	53.00	55.00	59.00	60.00	62.00	70.00	77.00	130.00	229.00	325.00	468.00	500.00	538.00	567.00	571.00	564.00	500.00	529.00	493.00	499.00	497.00	415.00	407.00	439.00	379.00	430.00	497.00	566.00	679.00	652.00	737.00	972.00	945.00	850.00	909.00	995.00	1122.00	1234.00	1369.00	1438.00	1460.00	1533.00	1450.00	1398.00	1455.00	1610.00	1598.00	1792.00	1937.00	2048.00	2217.00	2752.00	2912.00	3010.00	2964.00	2928.00	2896.00	2864.00	2774.00	2732.00	2680.00	2704.00	2819.00	2777.00	2755.00	2699.00	2770.00	2703.00	2629.00	2559.00	2531.00	2446.00	2482.00	2578.00	2624.00	2695.00	2749.00	2807.00	2883.00	2950.00	3057.00	3250.00	3280.00	3080.00	3155.00	3309.00	3389.00	3643.00	3675.00	3696.00	3771.00	3854.00	4065.00	4041.00	4017.00	4050.00	4159.00	4089.00	4043.00	4007.00	4038.00	4075.00	4045.00	4013.00	3938.00	3912.00	3813.00	3747.00	3674.00	3718.00	3755.00	3600.00	3503.00	3311.00	3162.00	3162.00	3168.00	3086.00
45.00	50.00	49.00	42.00	43.00	44.00	37.00	38.00	41.00	38.00	37.00	33.00	31.00	27.00	27.00	28.00	27.00	26.00	25.00	21.00	18.00	15.00	14.00	13.00	14.00	10.00	11.00	11.00	14.00	13.00	13.00	14.00	10.00	10.00	9.00	13.00	15.00	17.00	17.00	13.00	15.00	17.00	18.00	16.00	15.00	15.00	11.00	10.00	14.00	11.00	12.00	10.00	11.00	10.00	9.00	7.00	9.00	13.00	9.00	9.00	12.00	14.00	15.00	11.00	13.00	14.00	13.00	10.00	9.00	7.00	8.00	9.00	11.00	14.00	7.00	7.00	7.00	10.00	10.00	14.00	11.00	10.00	10.00	8.00	9.00	10.00	7.00	6.00	6.00	6.00	5.00	10.00	9.00	10.00	9.00	10.00	8.00	8.00	11.00	10.00	11.00	12.00	14.00	13.00	13.00	12.00	8.00	10.00	11.00	11.00	12.00	14.00	14.00	11.00	11.00	12.00	9.00	9.00	8.00	7.00	10.00	13.00	9.00	8.00	9.00	9.00	6.00	6.00	6.00	9.00	10.00	10.00	10.00	10.00	14.00	15.00	26.00	42.00	48.00	51.00	56.00	59.00	60.00	66.00	70.00	152.00	256.00	344.00	505.00	580.00	635.00	691.00	662.00	645.00	515.00	451.00	483.00	434.00	406.00	360.00	334.00	345.00	351.00	398.00	449.00	540.00	673.00	577.00	715.00	934.00	832.00	875.00	944.00	1032.00	1105.00	1157.00	1249.00	1280.00	1382.00	1456.00	1326.00	1337.00	1420.00	1471.00	1579.00	1829.00	2007.00	2152.00	2288.00	2701.00	2775.00	2978.00	2983.00	2921.00	2844.00	2841.00	2869.00	2857.00	2755.00	2677.00	2676.00	2673.00	2687.00	2663.00	2773.00	2737.00	2639.00	2565.00	2520.00	2456.00	2484.00	2562.00	2667.00	2700.00	2760.00	2772.00	2870.00	2977.00	3127.00	3228.00	3196.00	3001.00	3108.00	3172.00	3287.00	3450.00	3488.00	3557.00	3626.00	3694.00	3850.00	3877.00	3934.00	3958.00	4161.00	4123.00	4057.00	4049.00	4121.00	4119.00	4126.00	4120.00	3930.00	3943.00	3866.00	3861.00	3733.00	3817.00	3764.00	3568.00	3452.00	3361.00	3116.00	3116.00	3108.00	3075.00
47.00	51.00	45.00	41.00	46.00	45.00	40.00	39.00	39.00	39.00	34.00	35.00	34.00	31.00	31.00	31.00	28.00	28.00	24.00	19.00	15.00	13.00	13.00	18.00	11.00	13.00	11.00	12.00	12.00	12.00	11.00	11.00	10.00	10.00	9.00	9.00	13.00	19.00	16.00	16.00	15.00	18.00	17.00	17.00	15.00	15.00	11.00	10.00	13.00	11.00	9.00	10.00	12.00	10.00	8.00	9.00	9.00	9.00	11.00	11.00	16.00	15.00	10.00	9.00	9.00	12.00	15.00	10.00	10.00	7.00	8.00	8.00	12.00	14.00	8.00	8.00	10.00	9.00	9.00	14.00	11.00	9.00	11.00	12.00	10.00	10.00	6.00	6.00	6.00	9.00	6.00	8.00	8.00	8.00	7.00	10.00	10.00	8.00	8.00	10.00	9.00	12.00	13.00	14.00	12.00	9.00	10.00	9.00	12.00	11.00	12.00	15.00	14.00	12.00	11.00	12.00	12.00	10.00	7.00	7.00	12.00	14.00	8.00	8.00	12.00	9.00	7.00	6.00	6.00	8.00	9.00	10.00	14.00	15.00	24.00	22.00	25.00	38.00	41.00	43.00	49.00	52.00	58.00	64.00	65.00	193.00	281.00	386.00	563.00	611.00	610.00	696.00	733.00	685.00	454.00	366.00	375.00	361.00	315.00	303.00	302.00	318.00	336.00	384.00	448.00	497.00	591.00	534.00	635.00	856.00	746.00	791.00	844.00	933.00	1014.00	1059.00	1148.00	1166.00	1296.00	1305.00	1299.00	1415.00	1479.00	1573.00	1684.00	1952.00	2116.00	2262.00	2378.00	2575.00	2754.00	2899.00	2983.00	2951.00	2907.00	2886.00	2907.00	2894.00	2821.00	2777.00	2591.00	2582.00	2650.00	2634.00	2725.00	2756.00	2724.00	2618.00	2555.00	2449.00	2479.00	2624.00	2634.00	2702.00	2787.00	2803.00	2904.00	2980.00	3100.00	3109.00	3003.00	3190.00	3311.00	3425.00	3551.00	3499.00	3558.00	3641.00	3746.00	3831.00	3901.00	3921.00	4019.00	4030.00	4073.00	4149.00	4092.00	4055.00	4161.00	4190.00	4171.00	4072.00	3911.00	3951.00	3962.00	3897.00	3796.00	3837.00	3721.00	3506.00	3393.00	3329.00	3186.00	3142.00	3096.00	3113.00
52.00	57.00	59.00	45.00	45.00	50.00	35.00	30.00	34.00	31.00	28.00	29.00	29.00	30.00	32.00	24.00	19.00	18.00	23.00	22.00	17.00	14.00	12.00	13.00	19.00	14.00	12.00	12.00	10.00	12.00	11.00	11.00	8.00	7.00	8.00	9.00	19.00	17.00	16.00	16.00	17.00	16.00	14.00	16.00	15.00	13.00	12.00	10.00	14.00	10.00	10.00	11.00	11.00	9.00	10.00	8.00	8.00	11.00	11.00	15.00	14.00	10.00	10.00	9.00	11.00	13.00	14.00	10.00	9.00	8.00	8.00	9.00	10.00	8.00	6.00	7.00	9.00	11.00	10.00	11.00	13.00	10.00	10.00	11.00	6.00	5.00	6.00	6.00	6.00	7.00	6.00	6.00	8.00	8.00	8.00	9.00	8.00	8.00	8.00	12.00	9.00	11.00	11.00	13.00	11.00	7.00	9.00	13.00	15.00	13.00	10.00	12.00	10.00	11.00	13.00	11.00	7.00	8.00	8.00	7.00	12.00	12.00	9.00	8.00	9.00	11.00	12.00	8.00	9.00	9.00	8.00	12.00	14.00	20.00	13.00	15.00	23.00	39.00	32.00	34.00	39.00	47.00	50.00	52.00	86.00	259.00	314.00	355.00	463.00	422.00	478.00	613.00	691.00	640.00	437.00	378.00	274.00	218.00	254.00	267.00	283.00	300.00	318.00	354.00	376.00	403.00	423.00	518.00	560.00	594.00	705.00	1014.00	1042.00	973.00	910.00	849.00	965.00	974.00	1023.00	1073.00	1457.00	1599.00	1695.00	1649.00	1639.00	1787.00	1806.00	1961.00	2151.00	2593.00	2731.00	2853.00	2800.00	2810.00	2737.00	2698.00	2667.00	2628.00	2592.00	2560.00	2619.00	2600.00	2530.00	2578.00	2648.00	2758.00	2771.00	2599.00	2480.00	2424.00	2499.00	2646.00	2791.00	2790.00	2811.00	2868.00	2933.00	2911.00	2895.00	2823.00	2912.00	3010.00	3154.00	3362.00	3559.00	3862.00	3856.00	3915.00	4045.00	4095.00	4214.00	4097.00	4104.00	4194.00	4079.00	4170.00	4196.00	4160.00	4194.00	4103.00	4074.00	4075.00	3842.00	3926.00	3934.00	3860.00	3768.00	3720.00	3604.00	3543.00	3373.00	3287.00	3241.00	3153.00	3116.00	3124.00
52.00	54.00	51.00	48.00	48.00	51.00	35.00	31.00	37.00	30.00	27.00	27.00	28.00	29.00	29.00	22.00	18.00	13.00	14.00	12.00	13.00	12.00	13.00	13.00	11.00	13.00	12.00	12.00	11.00	10.00	10.00	10.00	8.00	8.00	7.00	11.00	18.00	18.00	16.00	14.00	14.00	14.00	14.00	15.00	15.00	13.00	12.00	10.00	11.00	9.00	9.00	8.00	9.00	9.00	10.00	11.00	14.00	12.00	10.00	13.00	12.00	10.00	9.00	9.00	10.00	12.00	13.00	11.00	8.00	9.00	8.00	7.00	12.00	7.00	6.00	7.00	7.00	11.00	8.00	11.00	12.00	11.00	10.00	8.00	9.00	5.00	8.00	8.00	7.00	8.00	8.00	6.00	8.00	8.00	10.00	10.00	11.00	11.00	8.00	11.00	9.00	12.00	12.00	13.00	11.00	8.00	11.00	13.00	13.00	13.00	11.00	13.00	9.00	8.00	12.00	11.00	7.00	7.00	7.00	10.00	12.00	10.00	9.00	10.00	10.00	11.00	11.00	7.00	9.00	8.00	10.00	15.00	15.00	18.00	15.00	16.00	22.00	33.00	29.00	32.00	37.00	42.00	42.00	49.00	94.00	209.00	230.00	271.00	357.00	366.00	500.00	577.00	563.00	532.00	392.00	342.00	258.00	202.00	257.00	277.00	338.00	363.00	341.00	362.00	389.00	414.00	443.00	492.00	527.00	652.00	799.00	1097.00	1181.00	1155.00	1117.00	1015.00	941.00	958.00	1022.00	1161.00	1427.00	1517.00	1485.00	1450.00	1538.00	1718.00	1849.00	1998.00	2209.00	2774.00	2813.00	2839.00	2791.00	2734.00	2687.00	2688.00	2647.00	2662.00	2617.00	2606.00	2516.00	2507.00	2482.00	2556.00	2620.00	2640.00	2758.00	2670.00	2474.00	2420.00	2514.00	2656.00	2767.00	2711.00	2752.00	2879.00	2839.00	2797.00	2765.00	2851.00	3018.00	3103.00	3094.00	3245.00	3501.00	3703.00	3749.00	3849.00	3862.00	3941.00	4227.00	4208.00	4184.00	4239.00	4140.00	4228.00	4235.00	4228.00	4223.00	4165.00	4024.00	4020.00	3891.00	3799.00	3919.00	3961.00	3783.00	3668.00	3486.00	3460.00	3340.00	3292.00	3220.00	3133.00	3123.00	3120.00
53.00	52.00	48.00	47.00	47.00	51.00	29.00	31.00	35.00	35.00	25.00	23.00	25.00	25.00	26.00	20.00	17.00	11.00	9.00	9.00	9.00	11.00	13.00	13.00	13.00	11.00	12.00	13.00	13.00	11.00	11.00	12.00	7.00	8.00	7.00	13.00	15.00	15.00	15.00	13.00	14.00	14.00	11.00	14.00	13.00	12.00	10.00	8.00	10.00	11.00	9.00	10.00	9.00	9.00	8.00	9.00	8.00	9.00	9.00	13.00	9.00	9.00	9.00	9.00	9.00	12.00	12.00	11.00	11.00	7.00	7.00	8.00	13.00	11.00	7.00	7.00	7.00	12.00	11.00	10.00	12.00	11.00	10.00	7.00	7.00	5.00	5.00	6.00	7.00	7.00	7.00	9.00	7.00	9.00	11.00	8.00	7.00	11.00	11.00	13.00	12.00	12.00	13.00	13.00	8.00	8.00	13.00	12.00	13.00	12.00	11.00	11.00	9.00	8.00	13.00	12.00	8.00	8.00	11.00	14.00	12.00	9.00	8.00	8.00	10.00	11.00	10.00	9.00	8.00	10.00	12.00	15.00	16.00	15.00	16.00	17.00	19.00	25.00	27.00	31.00	36.00	36.00	39.00	42.00	73.00	140.00	157.00	188.00	263.00	322.00	504.00	509.00	425.00	366.00	336.00	267.00	205.00	198.00	198.00	274.00	378.00	391.00	351.00	381.00	390.00	421.00	499.00	627.00	668.00	755.00	831.00	1062.00	1176.00	1305.00	1318.00	1177.00	1082.00	1038.00	1093.00	1075.00	1237.00	1303.00	1367.00	1525.00	1753.00	1888.00	1916.00	2041.00	2224.00	2720.00	2790.00	2824.00	2794.00	2783.00	2779.00	2768.00	2730.00	2775.00	2693.00	2663.00	2540.00	2510.00	2490.00	2501.00	2519.00	2521.00	2613.00	2568.00	2454.00	2443.00	2504.00	2622.00	2695.00	2622.00	2633.00	2718.00	2710.00	2709.00	2770.00	2974.00	3154.00	3308.00	3267.00	3204.00	3319.00	3493.00	3626.00	3695.00	3859.00	4060.00	4253.00	4217.00	4121.00	4187.00	4229.00	4252.00	4165.00	4102.00	4089.00	4093.00	3991.00	3978.00	3881.00	3792.00	3882.00	3881.00	3730.00	3621.00	3447.00	3366.00	3318.00	3306.00	3181.00	3135.00	3124.00	3126.00
56.00	53.00	50.00	53.00	48.00	45.00	42.00	28.00	29.00	32.00	22.00	23.00	22.00	24.00	25.00	27.00	22.00	12.00	10.00	10.00	10.00	11.00	12.00	11.00	11.00	12.00	12.00	13.00	12.00	13.00	13.00	15.00	8.00	7.00	8.00	14.00	14.00	16.00	14.00	13.00	15.00	14.00	14.00	14.00	12.00	11.00	11.00	8.00	10.00	12.00	9.00	11.00	9.00	9.00	8.00	10.00	9.00	11.00	11.00	13.00	9.00	10.00	8.00	10.00	9.00	13.00	15.00	13.00	16.00	9.00	9.00	10.00	14.00	8.00	7.00	8.00	7.00	7.00	6.00	6.00	8.00	12.00	7.00	5.00	7.00	5.00	5.00	7.00	8.00	7.00	6.00	9.00	9.00	8.00	8.00	8.00	9.00	11.00	11.00	11.00	11.00	13.00	13.00	12.00	12.00	11.00	13.00	11.00	12.00	11.00	11.00	9.00	7.00	8.00	12.00	12.00	8.00	13.00	11.00	12.00	12.00	8.00	8.00	9.00	13.00	9.00	8.00	10.00	10.00	12.00	12.00	16.00	13.00	14.00	16.00	20.00	19.00	25.00	28.00	28.00	30.00	31.00	32.00	32.00	46.00	68.00	82.00	106.00	170.00	302.00	400.00	406.00	319.00	261.00	212.00	182.00	169.00	197.00	156.00	256.00	306.00	274.00	277.00	404.00	407.00	458.00	541.00	766.00	866.00	977.00	1029.00	1088.00	1154.00	1385.00	1486.00	1381.00	1224.00	1130.00	1297.00	1270.00	1291.00	1434.00	1509.00	1703.00	1868.00	2062.00	2019.00	2121.00	2277.00	2746.00	2793.00	2831.00	2832.00	2813.00	2863.00	2830.00	2839.00	2888.00	2766.00	2714.00	2561.00	2529.00	2492.00	2440.00	2511.00	2485.00	2495.00	2470.00	2439.00	2425.00	2482.00	2595.00	2620.00	2561.00	2629.00	2647.00	2752.00	2782.00	2870.00	3113.00	3228.00	3360.00	3441.00	3413.00	3427.00	3449.00	3512.00	3621.00	3778.00	3944.00	4116.00	4125.00	4151.00	4255.00	4244.00	4264.00	4127.00	4104.00	4058.00	3949.00	3914.00	3925.00	3862.00	3759.00	3757.00	3748.00	3664.00	3637.00	3479.00	3366.00	3324.00	3279.00	3146.00	3155.00	3145.00	3194.00
70.00	59.00	64.00	54.00	48.00	46.00	42.00	33.00	30.00	31.00	20.00	24.00	23.00	19.00	23.00	22.00	23.00	10.00	10.00	8.00	8.00	9.00	11.00	11.00	11.00	11.00	12.00	10.00	11.00	10.00	10.00	10.00	11.00	14.00	15.00	16.00	15.00	15.00	15.00	13.00	12.00	14.00	12.00	11.00	10.00	11.00	9.00	8.00	11.00	12.00	9.00	9.00	8.00	9.00	8.00	11.00	10.00	11.00	11.00	9.00	8.00	9.00	9.00	9.00	13.00	13.00	9.00	12.00	10.00	6.00	9.00	16.00	15.00	7.00	6.00	8.00	12.00	5.00	5.00	4.00	10.00	7.00	4.00	5.00	6.00	4.00	7.00	6.00	8.00	7.00	6.00	6.00	8.00	16.00	9.00	10.00	10.00	10.00	10.00	11.00	9.00	9.00	12.00	12.00	12.00	9.00	14.00	12.00	14.00	11.00	10.00	10.00	11.00	10.00	10.00	11.00	12.00	10.00	10.00	11.00	11.00	8.00	12.00	13.00	11.00	8.00	8.00	10.00	16.00	12.00	11.00	15.00	13.00	13.00	14.00	15.00	19.00	18.00	22.00	20.00	22.00	25.00	28.00	30.00	29.00	24.00	30.00	37.00	62.00	154.00	143.00	147.00	139.00	119.00	135.00	149.00	172.00	179.00	129.00	137.00	155.00	176.00	216.00	325.00	379.00	464.00	566.00	873.00	1007.00	1281.00	1290.00	1365.00	1359.00	1413.00	1569.00	1690.00	1309.00	1403.00	1563.00	1696.00	1453.00	1407.00	1477.00	1577.00	1616.00	1789.00	1880.00	1976.00	2104.00	2868.00	2856.00	2842.00	2835.00	2850.00	2920.00	2990.00	3042.00	2987.00	2780.00	2712.00	2695.00	2602.00	2553.00	2445.00	2393.00	2429.00	2416.00	2402.00	2468.00	2460.00	2441.00	2484.00	2534.00	2695.00	2730.00	2776.00	2845.00	2845.00	2947.00	2992.00	3112.00	3526.00	3673.00	3823.00	3753.00	3747.00	3719.00	3888.00	3947.00	3934.00	3904.00	3930.00	3962.00	4009.00	4128.00	4253.00	4231.00	4158.00	4019.00	4008.00	4023.00	3810.00	3858.00	3652.00	3648.00	3693.00	3670.00	3580.00	3436.00	3381.00	3326.00	3337.00	3176.00	3168.00	3199.00	3260.00
83.00	61.00	66.00	53.00	57.00	53.00	42.00	35.00	30.00	32.00	23.00	20.00	19.00	18.00	23.00	17.00	20.00	14.00	11.00	9.00	9.00	9.00	10.00	10.00	13.00	11.00	12.00	11.00	10.00	11.00	11.00	11.00	16.00	15.00	14.00	14.00	15.00	15.00	13.00	13.00	12.00	11.00	13.00	12.00	10.00	12.00	9.00	8.00	9.00	11.00	12.00	9.00	8.00	9.00	9.00	10.00	10.00	9.00	12.00	9.00	8.00	8.00	8.00	8.00	10.00	11.00	12.00	11.00	15.00	12.00	7.00	8.00	12.00	9.00	7.00	9.00	7.00	4.00	5.00	6.00	11.00	9.00	7.00	7.00	8.00	4.00	8.00	10.00	7.00	6.00	5.00	7.00	9.00	11.00	8.00	8.00	7.00	9.00	10.00	11.00	10.00	11.00	13.00	12.00	10.00	12.00	13.00	13.00	12.00	9.00	11.00	10.00	10.00	11.00	10.00	10.00	12.00	9.00	10.00	9.00	9.00	8.00	15.00	15.00	9.00	7.00	7.00	10.00	12.00	11.00	10.00	13.00	13.00	13.00	14.00	16.00	23.00	19.00	20.00	18.00	22.00	23.00	24.00	23.00	31.00	27.00	25.00	30.00	44.00	87.00	76.00	90.00	101.00	118.00	129.00	145.00	147.00	148.00	127.00	136.00	152.00	177.00	211.00	309.00	375.00	481.00	634.00	957.00	1102.00	1280.00	1387.00	1519.00	1537.00	1567.00	1602.00	1640.00	1455.00	1461.00	1630.00	1810.00	1587.00	1522.00	1576.00	1727.00	1747.00	1829.00	1979.00	2109.00	2251.00	2898.00	2945.00	2899.00	2887.00	2932.00	2931.00	3029.00	3064.00	2964.00	2823.00	2784.00	2686.00	2635.00	2609.00	2467.00	2421.00	2374.00	2419.00	2441.00	2490.00	2540.00	2484.00	2540.00	2611.00	2741.00	2808.00	2845.00	2995.00	3013.00	2986.00	2998.00	3041.00	3492.00	3714.00	3943.00	3948.00	3861.00	3843.00	4027.00	4150.00	4156.00	4009.00	4152.00	3985.00	4063.00	4226.00	4239.00	4148.00	4029.00	3994.00	4106.00	4025.00	3887.00	3768.00	3614.00	3602.00	3609.00	3643.00	3573.00	3438.00	3373.00	3334.00	3363.00	3217.00	3185.00	3209.00	3264.00
98.00	49.00	53.00	60.00	52.00	52.00	44.00	38.00	35.00	32.00	27.00	18.00	16.00	15.00	15.00	14.00	15.00	14.00	14.00	13.00	11.00	10.00	8.00	8.00	11.00	13.00	14.00	12.00	11.00	10.00	11.00	11.00	14.00	14.00	13.00	12.00	13.00	13.00	13.00	13.00	13.00	8.00	10.00	9.00	10.00	8.00	8.00	8.00	8.00	11.00	8.00	9.00	9.00	10.00	9.00	8.00	8.00	8.00	9.00	10.00	9.00	8.00	8.00	8.00	9.00	11.00	11.00	7.00	7.00	10.00	11.00	14.00	12.00	9.00	9.00	5.00	7.00	7.00	5.00	6.00	8.00	12.00	6.00	5.00	6.00	6.00	5.00	5.00	5.00	4.00	5.00	7.00	10.00	8.00	6.00	7.00	9.00	10.00	12.00	12.00	12.00	12.00	12.00	13.00	13.00	14.00	12.00	12.00	12.00	11.00	8.00	8.00	10.00	12.00	12.00	11.00	10.00	8.00	10.00	7.00	8.00	8.00	9.00	8.00	7.00	7.00	7.00	7.00	9.00	10.00	9.00	9.00	12.00	13.00	14.00	15.00	15.00	17.00	17.00	17.00	20.00	20.00	19.00	20.00	19.00	26.00	30.00	33.00	46.00	64.00	76.00	90.00	96.00	101.00	104.00	104.00	102.00	118.00	117.00	121.00	137.00	176.00	195.00	309.00	385.00	496.00	606.00	1053.00	1162.00	1379.00	1403.00	1389.00	1410.00	1445.00	1417.00	1494.00	1714.00	1707.00	1724.00	1766.00	1867.00	1811.00	1740.00	1782.00	1811.00	2208.00	2241.00	2218.00	2312.00	2873.00	2855.00	2977.00	3054.00	3078.00	3021.00	3132.00	3096.00	2980.00	2799.00	2693.00	2547.00	2499.00	2485.00	2450.00	2418.00	2349.00	2339.00	2431.00	2484.00	2558.00	2570.00	2594.00	2674.00	2732.00	2774.00	2872.00	3078.00	3181.00	3241.00	3259.00	3351.00	3463.00	3585.00	3776.00	3901.00	4061.00	4059.00	4131.00	4195.00	4276.00	4140.00	4071.00	4199.00	4050.00	4234.00	4149.00	4036.00	4067.00	4174.00	4012.00	3900.00	3864.00	3734.00	3706.00	3591.00	3500.00	3579.00	3549.00	3414.00	3346.00	3272.00	3206.00	3266.00	3285.00	3311.00	3388.00
79.00	47.00	50.00	53.00	52.00	46.00	40.00	36.00	35.00	32.00	26.00	21.00	17.00	17.00	18.00	13.00	12.00	12.00	11.00	15.00	11.00	9.00	7.00	9.00	12.00	11.00	12.00	11.00	10.00	11.00	12.00	11.00	13.00	15.00	14.00	12.00	11.00	13.00	13.00	13.00	10.00	10.00	8.00	8.00	9.00	11.00	11.00	8.00	10.00	10.00	9.00	7.00	7.00	10.00	8.00	8.00	8.00	8.00	8.00	11.00	9.00	8.00	9.00	8.00	7.00	9.00	7.00	7.00	8.00	7.00	7.00	11.00	11.00	8.00	9.00	8.00	8.00	5.00	4.00	4.00	5.00	9.00	4.00	4.00	8.00	5.00	6.00	4.00	5.00	5.00	6.00	7.00	9.00	9.00	6.00	6.00	8.00	12.00	12.00	12.00	13.00	12.00	12.00	11.00	12.00	10.00	12.00	11.00	12.00	11.00	9.00	10.00	9.00	11.00	11.00	11.00	10.00	9.00	9.00	8.00	8.00	8.00	8.00	8.00	7.00	8.00	8.00	8.00	9.00	10.00	8.00	10.00	12.00	13.00	14.00	17.00	15.00	16.00	17.00	17.00	19.00	17.00	19.00	18.00	19.00	25.00	27.00	33.00	45.00	60.00	72.00	83.00	84.00	90.00	84.00	87.00	90.00	107.00	104.00	111.00	114.00	154.00	216.00	319.00	416.00	512.00	639.00	965.00	1076.00	1247.00	1253.00	1221.00	1199.00	1306.00	1366.00	1451.00	1625.00	1785.00	1899.00	1924.00	2122.00	1874.00	1862.00	1962.00	1920.00	2165.00	2365.00	2407.00	2470.00	2763.00	2644.00	2761.00	3101.00	3127.00	3112.00	3200.00	3161.00	2990.00	2720.00	2663.00	2526.00	2480.00	2449.00	2422.00	2395.00	2350.00	2356.00	2450.00	2472.00	2495.00	2550.00	2601.00	2761.00	2797.00	2780.00	2922.00	3004.00	3049.00	3130.00	3253.00	3404.00	3495.00	3574.00	3634.00	3734.00	3875.00	3915.00	3960.00	4030.00	4134.00	4237.00	4106.00	4251.00	4105.00	4211.00	4085.00	4083.00	4128.00	4206.00	3965.00	3961.00	3967.00	3834.00	3694.00	3607.00	3475.00	3562.00	3538.00	3394.00	3291.00	3233.00	3232.00	3206.00	3248.00	3318.00	3379.00
69.00	43.00	43.00	44.00	42.00	40.00	36.00	34.00	32.00	34.00	29.00	27.00	24.00	23.00	21.00	23.00	21.00	14.00	14.00	10.00	11.00	12.00	8.00	8.00	10.00	9.00	9.00	8.00	10.00	10.00	11.00	11.00	11.00	11.00	14.00	13.00	10.00	14.00	15.00	13.00	11.00	9.00	8.00	9.00	9.00	9.00	10.00	10.00	9.00	9.00	9.00	8.00	9.00	10.00	7.00	12.00	8.00	8.00	8.00	9.00	10.00	8.00	10.00	9.00	8.00	8.00	6.00	6.00	6.00	5.00	6.00	7.00	9.00	8.00	9.00	9.00	8.00	5.00	4.00	4.00	4.00	11.00	7.00	7.00	5.00	6.00	5.00	5.00	8.00	7.00	6.00	5.00	8.00	10.00	10.00	8.00	11.00	12.00	10.00	12.00	11.00	8.00	7.00	8.00	8.00	10.00	11.00	11.00	11.00	10.00	11.00	10.00	11.00	6.00	11.00	12.00	12.00	8.00	8.00	8.00	7.00	8.00	7.00	8.00	7.00	7.00	7.00	7.00	9.00	10.00	10.00	15.00	15.00	16.00	17.00	17.00	17.00	17.00	18.00	17.00	17.00	17.00	18.00	20.00	22.00	20.00	24.00	27.00	34.00	43.00	56.00	63.00	65.00	69.00	68.00	68.00	75.00	81.00	87.00	87.00	87.00	172.00	238.00	295.00	392.00	583.00	719.00	844.00	914.00	1020.00	930.00	1080.00	1191.00	1307.00	1408.00	1520.00	1749.00	1893.00	1968.00	2121.00	2122.00	2149.00	2108.00	2017.00	2052.00	2348.00	2422.00	2518.00	2453.00	2435.00	2311.00	2369.00	2921.00	2989.00	2956.00	2984.00	2978.00	2935.00	2720.00	2721.00	2581.00	2515.00	2454.00	2402.00	2353.00	2292.00	2452.00	2442.00	2515.00	2553.00	2561.00	2726.00	2817.00	2962.00	3062.00	2997.00	3042.00	3119.00	3209.00	3344.00	3449.00	3762.00	3957.00	3905.00	3892.00	3931.00	4055.00	4207.00	4243.00	4196.00	4271.00	4254.00	4247.00	4161.00	4216.00	4216.00	4220.00	4195.00	4131.00	4072.00	3949.00	3837.00	3707.00	3516.00	3449.00	3509.00	3533.00	3481.00	3305.00	3380.00	3326.00	3425.00	3221.00	3237.00	3271.00	3339.00
63.00	49.00	52.00	45.00	43.00	38.00	31.00	32.00	31.00	31.00	31.00	28.00	30.00	28.00	25.00	23.00	23.00	19.00	20.00	10.00	8.00	10.00	7.00	7.00	7.00	9.00	8.00	9.00	11.00	10.00	11.00	11.00	9.00	10.00	11.00	13.00	13.00	12.00	14.00	11.00	12.00	11.00	10.00	8.00	10.00	11.00	12.00	9.00	8.00	8.00	8.00	9.00	11.00	10.00	7.00	10.00	8.00	8.00	8.00	8.00	8.00	7.00	8.00	10.00	10.00	8.00	9.00	7.00	7.00	6.00	5.00	6.00	7.00	10.00	10.00	6.00	6.00	4.00	5.00	4.00	5.00	12.00	5.00	7.00	5.00	6.00	5.00	7.00	5.00	6.00	4.00	5.00	5.00	9.00	11.00	9.00	12.00	12.00	10.00	11.00	10.00	11.00	8.00	7.00	8.00	9.00	11.00	11.00	11.00	10.00	10.00	7.00	11.00	6.00	11.00	10.00	10.00	7.00	8.00	8.00	10.00	7.00	8.00	8.00	7.00	8.00	8.00	7.00	10.00	10.00	11.00	13.00	15.00	17.00	15.00	15.00	16.00	17.00	18.00	17.00	16.00	17.00	16.00	16.00	16.00	16.00	19.00	21.00	31.00	42.00	50.00	54.00	51.00	57.00	61.00	62.00	64.00	63.00	76.00	78.00	83.00	183.00	214.00	379.00	338.00	418.00	598.00	704.00	797.00	881.00	884.00	1202.00	1334.00	1373.00	1477.00	1580.00	1707.00	1776.00	1801.00	2038.00	2066.00	1922.00	1986.00	1916.00	1809.00	2203.00	2219.00	2395.00	2285.00	2231.00	2170.00	2485.00	2853.00	2898.00	2881.00	2915.00	2892.00	2902.00	2842.00	2812.00	2626.00	2534.00	2467.00	2455.00	2402.00	2331.00	2363.00	2463.00	2489.00	2533.00	2610.00	2680.00	2873.00	3034.00	3141.00	3167.00	3146.00	3151.00	3304.00	3423.00	3533.00	3897.00	4017.00	4075.00	4040.00	4118.00	4091.00	4181.00	4267.00	4216.00	4149.00	4130.00	4197.00	4246.00	4266.00	4209.00	4123.00	4074.00	4020.00	4078.00	3946.00	3892.00	3708.00	3503.00	3418.00	3466.00	3407.00	3368.00	3359.00	3450.00	3369.00	3420.00	3269.00	3310.00	3319.00	3321.00
56.00	56.00	60.00	51.00	40.00	38.00	31.00	30.00	30.00	28.00	29.00	28.00	29.00	26.00	24.00	22.00	20.00	23.00	22.00	11.00	10.00	8.00	7.00	7.00	8.00	8.00	7.00	8.00	8.00	9.00	10.00	11.00	11.00	11.00	12.00	13.00	15.00	10.00	13.00	13.00	10.00	11.00	10.00	9.00	9.00	9.00	10.00	9.00	8.00	8.00	8.00	8.00	10.00	9.00	8.00	9.00	7.00	7.00	7.00	7.00	7.00	7.00	7.00	12.00	8.00	9.00	9.00	7.00	7.00	10.00	12.00	10.00	10.00	10.00	11.00	8.00	7.00	4.00	4.00	5.00	7.00	11.00	6.00	4.00	4.00	4.00	7.00	6.00	6.00	5.00	5.00	6.00	5.00	6.00	9.00	10.00	10.00	10.00	10.00	10.00	12.00	10.00	7.00	7.00	7.00	8.00	11.00	12.00	11.00	9.00	8.00	6.00	7.00	5.00	11.00	10.00	10.00	8.00	7.00	8.00	9.00	8.00	7.00	8.00	7.00	9.00	10.00	10.00	11.00	10.00	12.00	11.00	14.00	16.00	13.00	14.00	15.00	17.00	17.00	16.00	15.00	16.00	15.00	12.00	15.00	14.00	17.00	21.00	25.00	35.00	42.00	39.00	43.00	50.00	54.00	56.00	56.00	57.00	67.00	68.00	87.00	127.00	184.00	474.00	413.00	390.00	466.00	668.00	727.00	791.00	872.00	1122.00	1231.00	1327.00	1487.00	1615.00	1592.00	1649.00	1778.00	2084.00	2062.00	1836.00	1695.00	1744.00	1665.00	2092.00	2049.00	2221.00	2087.00	2072.00	2084.00	2544.00	2689.00	2846.00	2801.00	2819.00	2843.00	2882.00	2882.00	2757.00	2589.00	2522.00	2516.00	2501.00	2404.00	2325.00	2339.00	2511.00	2534.00	2536.00	2617.00	2785.00	2912.00	2952.00	2960.00	3158.00	3269.00	3307.00	3333.00	3529.00	3675.00	4020.00	4080.00	4094.00	4039.00	4203.00	4218.00	4237.00	4105.00	4019.00	4016.00	4070.00	4254.00	4235.00	4173.00	4185.00	4111.00	4071.00	3998.00	4058.00	3996.00	3873.00	3616.00	3510.00	3426.00	3407.00	3422.00	3407.00	3408.00	3482.00	3442.00	3395.00	3317.00	3308.00	3309.00	3344.00
50.00	56.00	56.00	56.00	41.00	39.00	31.00	29.00	27.00	23.00	25.00	29.00	28.00	25.00	21.00	20.00	19.00	19.00	23.00	13.00	11.00	10.00	9.00	9.00	8.00	9.00	8.00	9.00	9.00	9.00	9.00	9.00	9.00	12.00	11.00	11.00	11.00	10.00	12.00	12.00	12.00	12.00	9.00	10.00	9.00	9.00	7.00	7.00	9.00	10.00	8.00	7.00	9.00	9.00	7.00	7.00	9.00	7.00	8.00	7.00	7.00	7.00	6.00	9.00	7.00	5.00	7.00	9.00	7.00	8.00	9.00	11.00	9.00	10.00	10.00	9.00	7.00	5.00	7.00	8.00	10.00	10.00	6.00	6.00	4.00	5.00	7.00	6.00	5.00	4.00	4.00	6.00	6.00	7.00	8.00	10.00	11.00	11.00	10.00	8.00	11.00	9.00	7.00	5.00	9.00	8.00	10.00	12.00	11.00	8.00	6.00	6.00	6.00	6.00	9.00	12.00	10.00	9.00	9.00	7.00	7.00	9.00	7.00	6.00	7.00	9.00	9.00	13.00	11.00	11.00	13.00	12.00	12.00	12.00	10.00	13.00	15.00	17.00	17.00	16.00	15.00	15.00	14.00	12.00	15.00	14.00	15.00	16.00	21.00	26.00	30.00	33.00	39.00	44.00	49.00	49.00	49.00	53.00	59.00	64.00	78.00	113.00	176.00	400.00	467.00	458.00	468.00	625.00	684.00	809.00	914.00	1019.00	1188.00	1322.00	1420.00	1468.00	1550.00	1670.00	1879.00	2080.00	1935.00	1878.00	1570.00	1553.00	1626.00	2029.00	1908.00	2030.00	1895.00	2002.00	2052.00	2439.00	2681.00	2845.00	2791.00	2750.00	2795.00	2803.00	2876.00	2761.00	2621.00	2611.00	2576.00	2438.00	2380.00	2305.00	2321.00	2548.00	2554.00	2593.00	2643.00	2709.00	2748.00	2805.00	2843.00	3040.00	3259.00	3265.00	3334.00	3470.00	3694.00	4088.00	4057.00	3966.00	3866.00	4124.00	4221.00	4082.00	3950.00	4051.00	4147.00	4152.00	4271.00	4186.00	4155.00	4217.00	4165.00	4144.00	4023.00	3979.00	3906.00	3818.00	3703.00	3562.00	3437.00	3484.00	3537.00	3496.00	3456.00	3516.00	3537.00	3450.00	3316.00	3302.00	3303.00	3335.00
56.00	59.00	52.00	40.00	35.00	34.00	30.00	28.00	26.00	27.00	23.00	21.00	24.00	21.00	23.00	15.00	13.00	13.00	16.00	10.00	10.00	10.00	8.00	8.00	9.00	8.00	8.00	9.00	11.00	12.00	8.00	9.00	10.00	10.00	10.00	11.00	11.00	11.00	9.00	13.00	10.00	10.00	9.00	7.00	9.00	9.00	8.00	8.00	9.00	8.00	7.00	9.00	8.00	7.00	8.00	10.00	6.00	9.00	9.00	7.00	6.00	6.00	6.00	6.00	7.00	7.00	7.00	10.00	8.00	7.00	4.00	5.00	5.00	11.00	9.00	8.00	5.00	13.00	7.00	4.00	7.00	11.00	8.00	7.00	5.00	5.00	5.00	3.00	4.00	4.00	4.00	6.00	8.00	9.00	7.00	8.00	10.00	10.00	7.00	7.00	9.00	9.00	7.00	7.00	7.00	7.00	8.00	11.00	11.00	7.00	8.00	7.00	6.00	6.00	10.00	11.00	11.00	11.00	7.00	8.00	8.00	13.00	7.00	9.00	7.00	7.00	8.00	7.00	8.00	9.00	10.00	10.00	9.00	8.00	9.00	9.00	16.00	15.00	16.00	15.00	15.00	13.00	14.00	16.00	15.00	16.00	16.00	18.00	20.00	22.00	23.00	28.00	31.00	34.00	39.00	39.00	46.00	51.00	63.00	68.00	77.00	94.00	148.00	337.00	445.00	522.00	588.00	720.00	841.00	1069.00	1142.00	1254.00	1323.00	1413.00	1492.00	1552.00	1549.00	1696.00	1842.00	1749.00	1616.00	1623.00	1395.00	1420.00	1618.00	1831.00	1634.00	1583.00	1783.00	2272.00	2235.00	2493.00	2823.00	2887.00	2798.00	2734.00	2699.00	2754.00	2827.00	2863.00	2776.00	2786.00	2697.00	2595.00	2532.00	2389.00	2290.00	2450.00	2533.00	2569.00	2575.00	2631.00	2861.00	3044.00	3130.00	3090.00	3196.00	3190.00	3287.00	3450.00	3657.00	3850.00	3772.00	3700.00	3653.00	3758.00	3749.00	3880.00	3940.00	3956.00	4094.00	4187.00	4266.00	4118.00	4211.00	4209.00	4104.00	4125.00	4039.00	3802.00	3794.00	3729.00	3593.00	3486.00	3546.00	3664.00	3683.00	3534.00	3511.00	3615.00	3628.00	3532.00	3318.00	3305.00	3303.00	3305.00
54.00	58.00	54.00	38.00	37.00	35.00	31.00	30.00	29.00	27.00	24.00	24.00	25.00	21.00	20.00	18.00	18.00	13.00	14.00	9.00	9.00	9.00	8.00	8.00	9.00	9.00	9.00	11.00	9.00	8.00	9.00	9.00	10.00	11.00	11.00	12.00	10.00	11.00	10.00	13.00	12.00	10.00	10.00	6.00	10.00	8.00	9.00	7.00	9.00	8.00	8.00	8.00	7.00	7.00	8.00	6.00	7.00	6.00	8.00	10.00	7.00	6.00	6.00	6.00	8.00	6.00	5.00	5.00	8.00	7.00	6.00	4.00	5.00	9.00	9.00	6.00	8.00	7.00	6.00	6.00	11.00	11.00	6.00	10.00	8.00	7.00	3.00	3.00	5.00	6.00	7.00	6.00	9.00	7.00	7.00	10.00	9.00	10.00	8.00	6.00	8.00	7.00	7.00	7.00	7.00	7.00	8.00	10.00	9.00	6.00	7.00	7.00	6.00	5.00	11.00	10.00	10.00	11.00	8.00	8.00	10.00	9.00	7.00	7.00	8.00	7.00	7.00	7.00	6.00	6.00	8.00	8.00	8.00	8.00	8.00	10.00	15.00	14.00	15.00	16.00	14.00	13.00	14.00	15.00	16.00	17.00	17.00	17.00	19.00	25.00	28.00	26.00	29.00	31.00	38.00	49.00	60.00	67.00	70.00	85.00	87.00	99.00	135.00	335.00	373.00	434.00	482.00	733.00	923.00	1083.00	1097.00	1153.00	1282.00	1453.00	1563.00	1524.00	1423.00	1561.00	1600.00	1536.00	1478.00	1390.00	1298.00	1429.00	1581.00	1628.00	1495.00	1554.00	1935.00	2371.00	2384.00	2470.00	2778.00	2924.00	2808.00	2760.00	2718.00	2676.00	2766.00	2780.00	2900.00	2913.00	2801.00	2665.00	2523.00	2504.00	2401.00	2428.00	2578.00	2535.00	2531.00	2597.00	2818.00	3029.00	3115.00	3245.00	3351.00	3338.00	3374.00	3439.00	3459.00	3680.00	3624.00	3575.00	3499.00	3655.00	3867.00	4084.00	4146.00	4085.00	4021.00	4093.00	4256.00	4190.00	4090.00	4196.00	4041.00	4075.00	4065.00	3732.00	3673.00	3635.00	3559.00	3521.00	3576.00	3718.00	3690.00	3606.00	3574.00	3570.00	3631.00	3575.00	3332.00	3307.00	3303.00	3303.00
55.00	48.00	47.00	40.00	39.00	36.00	33.00	31.00	28.00	27.00	20.00	18.00	22.00	21.00	18.00	19.00	16.00	12.00	9.00	8.00	8.00	7.00	8.00	9.00	10.00	9.00	9.00	9.00	9.00	9.00	8.00	9.00	11.00	12.00	12.00	12.00	10.00	11.00	9.00	12.00	12.00	10.00	7.00	10.00	8.00	8.00	10.00	8.00	9.00	8.00	6.00	7.00	6.00	7.00	7.00	6.00	6.00	6.00	6.00	7.00	7.00	7.00	7.00	5.00	7.00	7.00	6.00	8.00	10.00	7.00	5.00	4.00	4.00	7.00	8.00	9.00	6.00	7.00	5.00	8.00	12.00	9.00	6.00	9.00	9.00	5.00	4.00	3.00	4.00	5.00	5.00	5.00	5.00	7.00	9.00	10.00	9.00	9.00	6.00	6.00	7.00	7.00	6.00	7.00	6.00	6.00	5.00	8.00	8.00	6.00	6.00	6.00	7.00	6.00	11.00	9.00	9.00	11.00	9.00	7.00	8.00	10.00	7.00	7.00	6.00	7.00	7.00	5.00	6.00	5.00	8.00	8.00	7.00	8.00	7.00	11.00	13.00	14.00	13.00	15.00	14.00	16.00	15.00	15.00	15.00	16.00	17.00	17.00	19.00	23.00	22.00	24.00	29.00	33.00	58.00	63.00	70.00	88.00	100.00	94.00	99.00	116.00	156.00	274.00	318.00	374.00	440.00	642.00	865.00	998.00	991.00	1131.00	1265.00	1413.00	1467.00	1356.00	1300.00	1408.00	1443.00	1370.00	1339.00	1238.00	1242.00	1327.00	1466.00	1453.00	1424.00	1596.00	2128.00	2210.00	2314.00	2453.00	2677.00	2911.00	2815.00	2780.00	2722.00	2696.00	2712.00	2735.00	2925.00	2974.00	2835.00	2629.00	2601.00	2610.00	2463.00	2337.00	2608.00	2529.00	2476.00	2617.00	2802.00	2906.00	3032.00	3152.00	3248.00	3357.00	3403.00	3266.00	3364.00	3532.00	3506.00	3435.00	3397.00	3904.00	4049.00	4148.00	4247.00	4178.00	4125.00	4127.00	4253.00	4172.00	3968.00	4082.00	3959.00	4078.00	4048.00	3779.00	3736.00	3657.00	3648.00	3574.00	3613.00	3695.00	3685.00	3719.00	3673.00	3611.00	3608.00	3591.00	3366.00	3313.00	3302.00	3303.00
49.00	44.00	40.00	39.00	36.00	35.00	31.00	28.00	28.00	25.00	18.00	18.00	20.00	20.00	21.00	17.00	15.00	14.00	9.00	7.00	7.00	6.00	9.00	9.00	9.00	8.00	10.00	9.00	8.00	8.00	8.00	10.00	11.00	10.00	11.00	13.00	12.00	11.00	12.00	11.00	11.00	9.00	10.00	8.00	7.00	10.00	10.00	8.00	8.00	8.00	7.00	6.00	7.00	10.00	6.00	6.00	6.00	6.00	6.00	6.00	6.00	6.00	7.00	5.00	6.00	7.00	6.00	8.00	5.00	9.00	7.00	6.00	5.00	7.00	10.00	12.00	9.00	8.00	6.00	5.00	11.00	9.00	4.00	6.00	9.00	8.00	4.00	6.00	6.00	4.00	5.00	6.00	7.00	12.00	11.00	10.00	10.00	8.00	7.00	7.00	6.00	7.00	9.00	7.00	6.00	7.00	6.00	8.00	7.00	6.00	6.00	6.00	7.00	11.00	12.00	10.00	8.00	10.00	6.00	8.00	9.00	11.00	6.00	7.00	7.00	8.00	6.00	7.00	5.00	7.00	8.00	10.00	10.00	8.00	8.00	10.00	13.00	13.00	14.00	14.00	16.00	16.00	12.00	13.00	13.00	14.00	16.00	17.00	20.00	20.00	22.00	25.00	29.00	41.00	70.00	73.00	77.00	94.00	127.00	122.00	122.00	128.00	167.00	258.00	323.00	414.00	501.00	717.00	813.00	903.00	913.00	1117.00	1241.00	1280.00	1285.00	1166.00	1190.00	1286.00	1296.00	1275.00	1222.00	1166.00	1189.00	1332.00	1454.00	1331.00	1504.00	1660.00	1916.00	2050.00	2255.00	2418.00	2623.00	2896.00	2896.00	2803.00	2757.00	2706.00	2676.00	2710.00	2829.00	2935.00	2865.00	2721.00	2678.00	2649.00	2491.00	2261.00	2515.00	2451.00	2465.00	2652.00	2794.00	2835.00	2904.00	2997.00	3142.00	3159.00	3214.00	3151.00	3260.00	3398.00	3416.00	3310.00	3430.00	3921.00	4087.00	4231.00	4258.00	4253.00	4200.00	4174.00	4219.00	4142.00	3923.00	3876.00	3947.00	4080.00	4055.00	3882.00	3792.00	3727.00	3721.00	3629.00	3683.00	3751.00	3764.00	3776.00	3736.00	3702.00	3650.00	3596.00	3447.00	3331.00	3304.00	3305.00
35.00	35.00	37.00	36.00	35.00	32.00	28.00	26.00	26.00	25.00	24.00	22.00	23.00	21.00	18.00	12.00	15.00	13.00	11.00	5.00	5.00	6.00	6.00	7.00	9.00	8.00	8.00	8.00	7.00	10.00	11.00	10.00	11.00	11.00	14.00	10.00	7.00	9.00	10.00	9.00	7.00	8.00	8.00	5.00	6.00	7.00	9.00	8.00	6.00	7.00	5.00	6.00	7.00	5.00	5.00	5.00	5.00	5.00	9.00	5.00	5.00	5.00	6.00	6.00	9.00	7.00	7.00	7.00	7.00	7.00	6.00	5.00	5.00	7.00	8.00	9.00	4.00	10.00	8.00	7.00	8.00	11.00	6.00	6.00	4.00	4.00	4.00	5.00	7.00	7.00	6.00	5.00	6.00	9.00	10.00	8.00	9.00	9.00	10.00	8.00	7.00	6.00	7.00	8.00	6.00	6.00	9.00	7.00	7.00	6.00	7.00	6.00	6.00	7.00	7.00	7.00	5.00	6.00	8.00	6.00	7.00	9.00	7.00	9.00	8.00	6.00	8.00	8.00	6.00	6.00	8.00	8.00	9.00	10.00	12.00	12.00	9.00	11.00	13.00	15.00	10.00	11.00	11.00	10.00	11.00	11.00	13.00	14.00	15.00	13.00	19.00	23.00	40.00	58.00	86.00	96.00	103.00	109.00	144.00	152.00	163.00	177.00	206.00	275.00	309.00	377.00	440.00	542.00	673.00	702.00	792.00	777.00	793.00	906.00	908.00	841.00	919.00	962.00	1011.00	936.00	972.00	1047.00	1128.00	1242.00	1358.00	1443.00	1605.00	1764.00	1779.00	1931.00	2166.00	2681.00	2912.00	2937.00	2834.00	2794.00	2713.00	2666.00	2602.00	2626.00	2699.00	2785.00	2964.00	2955.00	2810.00	2707.00	2652.00	2363.00	2255.00	2617.00	2707.00	2595.00	2623.00	2870.00	3044.00	3120.00	3167.00	3097.00	3180.00	3187.00	3267.00	3181.00	3236.00	3265.00	3392.00	3552.00	3639.00	3769.00	3874.00	3949.00	4147.00	4177.00	4045.00	4177.00	3943.00	3795.00	3697.00	3762.00	3802.00	3819.00	3890.00	3843.00	3864.00	3884.00	3923.00	3917.00	3940.00	3852.00	3696.00	3642.00	3644.00	3654.00	3445.00	3469.00	3374.00	3321.00
37.00	34.00	34.00	35.00	34.00	32.00	30.00	29.00	27.00	27.00	23.00	19.00	20.00	19.00	19.00	10.00	12.00	16.00	14.00	6.00	5.00	6.00	6.00	7.00	9.00	10.00	10.00	8.00	6.00	9.00	10.00	10.00	13.00	10.00	9.00	10.00	8.00	10.00	8.00	8.00	7.00	8.00	8.00	6.00	5.00	6.00	8.00	6.00	8.00	8.00	6.00	5.00	5.00	7.00	4.00	5.00	5.00	5.00	7.00	6.00	5.00	5.00	5.00	6.00	5.00	5.00	8.00	6.00	8.00	6.00	5.00	5.00	5.00	9.00	8.00	9.00	6.00	10.00	9.00	9.00	6.00	10.00	10.00	4.00	4.00	4.00	3.00	5.00	5.00	7.00	6.00	4.00	5.00	8.00	10.00	11.00	10.00	10.00	8.00	7.00	8.00	6.00	7.00	7.00	5.00	6.00	8.00	8.00	7.00	5.00	6.00	6.00	5.00	7.00	7.00	5.00	3.00	6.00	7.00	6.00	8.00	8.00	7.00	7.00	6.00	6.00	7.00	8.00	8.00	7.00	8.00	8.00	8.00	9.00	8.00	8.00	7.00	10.00	13.00	14.00	11.00	9.00	10.00	9.00	10.00	11.00	12.00	13.00	14.00	13.00	20.00	34.00	41.00	55.00	82.00	92.00	101.00	105.00	139.00	150.00	164.00	179.00	192.00	232.00	267.00	300.00	347.00	570.00	634.00	585.00	734.00	670.00	717.00	773.00	800.00	742.00	782.00	814.00	845.00	842.00	1105.00	1233.00	1285.00	1399.00	1493.00	1562.00	1746.00	1890.00	1952.00	1993.00	2170.00	2399.00	2782.00	2830.00	2810.00	2748.00	2717.00	2652.00	2576.00	2612.00	2663.00	2734.00	2875.00	2858.00	2702.00	2606.00	2539.00	2324.00	2237.00	2600.00	2722.00	2511.00	2656.00	2818.00	2986.00	3205.00	3288.00	3222.00	3307.00	3436.00	3391.00	3364.00	3408.00	3511.00	3464.00	3660.00	3643.00	3765.00	3990.00	4098.00	4177.00	4031.00	4100.00	4183.00	3962.00	3798.00	3670.00	3697.00	3786.00	3869.00	3925.00	3862.00	3878.00	3932.00	3982.00	4014.00	3964.00	3867.00	3736.00	3651.00	3614.00	3607.00	3465.00	3415.00	3420.00	3317.00
35.00	32.00	33.00	33.00	33.00	31.00	28.00	26.00	25.00	25.00	23.00	18.00	18.00	18.00	16.00	10.00	11.00	17.00	13.00	15.00	10.00	8.00	6.00	6.00	8.00	9.00	9.00	8.00	6.00	8.00	9.00	10.00	13.00	10.00	9.00	9.00	9.00	9.00	8.00	8.00	6.00	8.00	8.00	5.00	5.00	5.00	8.00	8.00	6.00	5.00	4.00	4.00	7.00	5.00	5.00	5.00	5.00	4.00	5.00	6.00	5.00	5.00	5.00	7.00	5.00	6.00	9.00	9.00	8.00	7.00	5.00	6.00	6.00	3.00	8.00	11.00	11.00	5.00	8.00	8.00	7.00	9.00	9.00	4.00	4.00	4.00	4.00	5.00	6.00	6.00	6.00	6.00	5.00	8.00	9.00	11.00	8.00	8.00	8.00	6.00	10.00	8.00	6.00	7.00	6.00	6.00	6.00	8.00	7.00	5.00	4.00	4.00	5.00	7.00	6.00	5.00	4.00	7.00	9.00	8.00	10.00	10.00	8.00	7.00	7.00	7.00	7.00	8.00	8.00	9.00	8.00	9.00	9.00	7.00	7.00	8.00	7.00	9.00	12.00	14.00	9.00	9.00	9.00	8.00	10.00	12.00	12.00	12.00	12.00	13.00	18.00	29.00	40.00	48.00	71.00	80.00	90.00	101.00	131.00	146.00	156.00	163.00	190.00	229.00	251.00	285.00	315.00	373.00	453.00	607.00	679.00	577.00	592.00	581.00	617.00	657.00	711.00	757.00	819.00	848.00	1178.00	1301.00	1441.00	1535.00	1633.00	1780.00	1889.00	2038.00	2151.00	2139.00	2209.00	2379.00	2626.00	2784.00	2741.00	2702.00	2680.00	2638.00	2572.00	2565.00	2633.00	2744.00	2858.00	2930.00	2816.00	2719.00	2605.00	2335.00	2226.00	2396.00	2557.00	2621.00	2804.00	2874.00	2956.00	3116.00	3240.00	3200.00	3330.00	3386.00	3464.00	3531.00	3491.00	3772.00	3718.00	3920.00	3821.00	3840.00	3833.00	3996.00	4182.00	3975.00	4173.00	4145.00	3861.00	3737.00	3638.00	3690.00	3727.00	3892.00	3898.00	3827.00	3887.00	3909.00	3967.00	3993.00	3984.00	3924.00	3778.00	3710.00	3631.00	3587.00	3525.00	3444.00	3374.00	3344.00
40.00	31.00	30.00	30.00	32.00	29.00	28.00	26.00	23.00	22.00	19.00	19.00	14.00	11.00	15.00	9.00	11.00	15.00	13.00	11.00	10.00	9.00	7.00	7.00	8.00	7.00	11.00	10.00	6.00	7.00	11.00	11.00	12.00	11.00	12.00	9.00	9.00	4.00	7.00	5.00	6.00	9.00	6.00	5.00	5.00	6.00	9.00	6.00	6.00	4.00	5.00	5.00	7.00	8.00	4.00	5.00	5.00	6.00	5.00	6.00	5.00	5.00	7.00	7.00	5.00	5.00	13.00	8.00	6.00	6.00	6.00	5.00	5.00	5.00	8.00	9.00	9.00	5.00	10.00	7.00	7.00	8.00	6.00	5.00	4.00	5.00	5.00	4.00	6.00	5.00	6.00	6.00	6.00	8.00	10.00	8.00	8.00	7.00	7.00	6.00	8.00	7.00	6.00	6.00	4.00	4.00	7.00	6.00	7.00	6.00	3.00	4.00	5.00	7.00	6.00	6.00	6.00	9.00	5.00	8.00	6.00	7.00	7.00	6.00	7.00	7.00	7.00	8.00	9.00	9.00	10.00	7.00	6.00	9.00	8.00	8.00	11.00	8.00	11.00	14.00	10.00	10.00	11.00	11.00	9.00	11.00	9.00	12.00	11.00	15.00	19.00	26.00	33.00	41.00	62.00	74.00	84.00	95.00	117.00	127.00	136.00	149.00	181.00	222.00	327.00	315.00	327.00	374.00	374.00	503.00	497.00	559.00	612.00	678.00	766.00	852.00	803.00	858.00	882.00	914.00	1111.00	1199.00	1337.00	1441.00	1660.00	1961.00	1982.00	1938.00	2015.00	2348.00	2391.00	2596.00	2737.00	2764.00	2681.00	2655.00	2630.00	2607.00	2568.00	2554.00	2622.00	2724.00	2790.00	2979.00	2915.00	2808.00	2686.00	2302.00	2202.00	2299.00	2391.00	2724.00	2893.00	2973.00	3032.00	3120.00	3059.00	3055.00	3198.00	3327.00	3488.00	3622.00	3658.00	3848.00	4007.00	4049.00	3972.00	4044.00	3979.00	3968.00	4133.00	3915.00	4173.00	4014.00	3765.00	3680.00	3597.00	3643.00	3666.00	3901.00	3884.00	3827.00	3885.00	3874.00	3947.00	3989.00	3942.00	3885.00	3840.00	3754.00	3657.00	3583.00	3527.00	3457.00	3437.00	3379.00
32.00	28.00	32.00	27.00	29.00	29.00	31.00	29.00	27.00	26.00	21.00	19.00	15.00	12.00	9.00	7.00	8.00	8.00	9.00	8.00	7.00	7.00	7.00	7.00	9.00	11.00	9.00	7.00	9.00	14.00	10.00	11.00	10.00	12.00	9.00	9.00	10.00	5.00	5.00	7.00	5.00	8.00	6.00	9.00	8.00	7.00	5.00	6.00	4.00	3.00	3.00	3.00	4.00	6.00	4.00	4.00	4.00	9.00	5.00	5.00	5.00	6.00	5.00	6.00	5.00	7.00	8.00	8.00	6.00	6.00	7.00	6.00	6.00	6.00	9.00	8.00	9.00	10.00	8.00	9.00	10.00	10.00	10.00	12.00	9.00	9.00	8.00	9.00	8.00	5.00	5.00	6.00	6.00	5.00	6.00	6.00	6.00	7.00	6.00	5.00	7.00	11.00	9.00	6.00	5.00	4.00	6.00	4.00	4.00	9.00	6.00	4.00	8.00	5.00	6.00	5.00	5.00	8.00	7.00	7.00	6.00	7.00	7.00	6.00	5.00	5.00	7.00	5.00	7.00	6.00	8.00	7.00	8.00	9.00	8.00	8.00	8.00	9.00	10.00	11.00	11.00	13.00	13.00	16.00	15.00	11.00	9.00	10.00	11.00	19.00	18.00	23.00	30.00	40.00	52.00	62.00	69.00	73.00	90.00	99.00	116.00	130.00	142.00	207.00	284.00	406.00	586.00	617.00	586.00	518.00	616.00	708.00	824.00	911.00	1020.00	1085.00	1057.00	1076.00	1074.00	1142.00	1051.00	1137.00	1224.00	1314.00	1405.00	1492.00	1549.00	1615.00	1708.00	2283.00	2604.00	2870.00	2967.00	2969.00	2778.00	2732.00	2713.00	2712.00	2642.00	2580.00	2639.00	2768.00	2917.00	3075.00	3031.00	2873.00	2729.00	2370.00	2172.00	2565.00	2773.00	2777.00	2650.00	2674.00	2900.00	2974.00	2873.00	3065.00	3095.00	3187.00	3194.00	3506.00	3671.00	3735.00	3840.00	4153.00	4223.00	4081.00	4230.00	4118.00	4096.00	3839.00	4012.00	3804.00	3574.00	3528.00	3560.00	3659.00	3766.00	3917.00	3973.00	3846.00	3892.00	3889.00	3881.00	3930.00	3946.00	3881.00	3716.00	3746.00	3635.00	3613.00	3620.00	3531.00	3469.00	3414.00
32.00	30.00	27.00	26.00	25.00	29.00	27.00	29.00	25.00	24.00	23.00	18.00	18.00	16.00	13.00	10.00	10.00	10.00	10.00	8.00	9.00	7.00	6.00	6.00	10.00	9.00	8.00	6.00	7.00	9.00	10.00	11.00	11.00	10.00	12.00	10.00	6.00	8.00	7.00	7.00	7.00	7.00	7.00	5.00	8.00	7.00	5.00	5.00	5.00	5.00	4.00	5.00	6.00	7.00	4.00	4.00	4.00	6.00	8.00	5.00	6.00	9.00	6.00	6.00	5.00	7.00	8.00	11.00	5.00	5.00	6.00	5.00	6.00	6.00	7.00	6.00	7.00	9.00	8.00	10.00	8.00	9.00	11.00	9.00	7.00	7.00	9.00	7.00	7.00	10.00	10.00	9.00	9.00	9.00	8.00	8.00	7.00	7.00	5.00	6.00	10.00	7.00	7.00	7.00	6.00	5.00	6.00	6.00	5.00	8.00	6.00	6.00	8.00	6.00	7.00	6.00	7.00	8.00	5.00	6.00	6.00	7.00	7.00	5.00	5.00	5.00	5.00	6.00	8.00	8.00	9.00	7.00	8.00	6.00	8.00	7.00	8.00	10.00	11.00	10.00	12.00	13.00	12.00	12.00	11.00	11.00	11.00	10.00	11.00	15.00	21.00	21.00	25.00	35.00	47.00	55.00	58.00	57.00	81.00	88.00	105.00	115.00	126.00	193.00	281.00	372.00	574.00	738.00	630.00	578.00	564.00	688.00	738.00	826.00	999.00	1133.00	1210.00	1203.00	1179.00	1268.00	1180.00	1151.00	1167.00	1230.00	1332.00	1479.00	1539.00	1646.00	1729.00	2114.00	2330.00	2696.00	2936.00	2940.00	2808.00	2733.00	2691.00	2722.00	2611.00	2555.00	2652.00	2759.00	2923.00	3113.00	3001.00	2880.00	2751.00	2410.00	2162.00	2454.00	2745.00	2780.00	2523.00	2599.00	2768.00	2777.00	2745.00	2870.00	2902.00	2988.00	3080.00	3430.00	3585.00	3797.00	3902.00	4058.00	4240.00	4161.00	4232.00	4161.00	4153.00	3908.00	3853.00	3706.00	3489.00	3540.00	3628.00	3763.00	3889.00	3967.00	3996.00	3864.00	3870.00	3910.00	3941.00	3952.00	3962.00	3879.00	3688.00	3643.00	3591.00	3606.00	3656.00	3612.00	3508.00	3412.00
36.00	30.00	28.00	24.00	24.00	25.00	21.00	22.00	22.00	22.00	22.00	21.00	21.00	20.00	17.00	12.00	13.00	11.00	10.00	9.00	9.00	8.00	7.00	7.00	10.00	10.00	7.00	7.00	6.00	6.00	11.00	10.00	11.00	12.00	8.00	10.00	8.00	6.00	7.00	5.00	6.00	6.00	6.00	5.00	6.00	8.00	4.00	4.00	4.00	4.00	4.00	6.00	5.00	5.00	4.00	7.00	5.00	6.00	10.00	6.00	5.00	7.00	7.00	7.00	6.00	8.00	6.00	9.00	6.00	5.00	6.00	8.00	7.00	6.00	7.00	6.00	5.00	10.00	7.00	7.00	7.00	6.00	11.00	11.00	6.00	5.00	10.00	5.00	5.00	5.00	10.00	7.00	8.00	5.00	7.00	10.00	7.00	7.00	7.00	6.00	8.00	7.00	6.00	6.00	6.00	5.00	4.00	6.00	4.00	6.00	7.00	9.00	6.00	8.00	8.00	7.00	8.00	6.00	6.00	6.00	6.00	7.00	6.00	6.00	5.00	5.00	5.00	7.00	8.00	9.00	13.00	7.00	7.00	8.00	6.00	6.00	9.00	10.00	9.00	9.00	12.00	11.00	9.00	10.00	9.00	9.00	11.00	11.00	12.00	14.00	18.00	22.00	23.00	30.00	43.00	44.00	51.00	53.00	71.00	82.00	96.00	106.00	115.00	204.00	288.00	409.00	620.00	812.00	697.00	743.00	683.00	714.00	697.00	754.00	847.00	969.00	1279.00	1320.00	1361.00	1406.00	1351.00	1333.00	1346.00	1258.00	1329.00	1663.00	1678.00	1641.00	1709.00	2152.00	2336.00	2587.00	2852.00	2851.00	2822.00	2697.00	2632.00	2624.00	2568.00	2505.00	2656.00	2758.00	2876.00	3077.00	2929.00	2785.00	2696.00	2466.00	2196.00	2333.00	2632.00	2564.00	2437.00	2496.00	2550.00	2596.00	2798.00	2830.00	2959.00	3050.00	3146.00	3502.00	3710.00	3898.00	4041.00	4016.00	4169.00	4263.00	4200.00	4216.00	4066.00	3881.00	3718.00	3664.00	3485.00	3552.00	3691.00	3897.00	4015.00	4045.00	3989.00	3880.00	3757.00	3944.00	3957.00	3893.00	3921.00	3922.00	3779.00	3716.00	3631.00	3561.00	3646.00	3579.00	3479.00	3411.00
34.00	33.00	29.00	29.00	24.00	27.00	23.00	20.00	20.00	21.00	25.00	22.00	19.00	16.00	17.00	14.00	11.00	11.00	10.00	10.00	7.00	8.00	9.00	8.00	8.00	11.00	8.00	8.00	6.00	8.00	9.00	9.00	6.00	10.00	9.00	9.00	8.00	4.00	5.00	6.00	7.00	5.00	6.00	6.00	6.00	7.00	5.00	5.00	4.00	4.00	6.00	9.00	5.00	5.00	6.00	5.00	5.00	5.00	6.00	9.00	5.00	5.00	5.00	6.00	7.00	9.00	7.00	10.00	11.00	8.00	7.00	6.00	6.00	7.00	8.00	5.00	5.00	5.00	6.00	6.00	7.00	7.00	9.00	9.00	5.00	6.00	10.00	7.00	5.00	6.00	8.00	7.00	6.00	8.00	8.00	12.00	9.00	6.00	6.00	7.00	7.00	7.00	6.00	6.00	6.00	6.00	5.00	4.00	6.00	7.00	9.00	8.00	5.00	8.00	9.00	7.00	5.00	5.00	5.00	5.00	5.00	6.00	8.00	6.00	5.00	5.00	6.00	9.00	11.00	9.00	11.00	6.00	7.00	9.00	9.00	8.00	7.00	7.00	9.00	8.00	9.00	10.00	9.00	8.00	9.00	10.00	10.00	11.00	12.00	18.00	19.00	21.00	26.00	24.00	41.00	41.00	48.00	53.00	72.00	85.00	92.00	98.00	101.00	197.00	301.00	495.00	717.00	963.00	842.00	913.00	790.00	870.00	828.00	803.00	875.00	898.00	1128.00	1247.00	1392.00	1481.00	1555.00	1591.00	1519.00	1398.00	1375.00	1551.00	1715.00	1842.00	1877.00	2199.00	2471.00	2682.00	2780.00	2782.00	2764.00	2703.00	2613.00	2564.00	2517.00	2476.00	2728.00	2898.00	2986.00	3047.00	2901.00	2772.00	2653.00	2478.00	2244.00	2217.00	2369.00	2373.00	2502.00	2583.00	2619.00	2723.00	2939.00	2952.00	3139.00	3314.00	3371.00	3613.00	3741.00	3834.00	3913.00	4163.00	4207.00	4200.00	4089.00	4137.00	4035.00	3839.00	3606.00	3495.00	3532.00	3626.00	3777.00	3928.00	4056.00	4063.00	3961.00	3855.00	3749.00	3946.00	3949.00	3851.00	3887.00	3962.00	3849.00	3727.00	3640.00	3565.00	3708.00	3663.00	3560.00	3516.00
29.00	30.00	33.00	32.00	30.00	28.00	25.00	21.00	19.00	21.00	22.00	21.00	18.00	15.00	16.00	13.00	13.00	11.00	10.00	8.00	9.00	9.00	8.00	6.00	10.00	10.00	9.00	8.00	7.00	6.00	7.00	8.00	2.00	3.00	9.00	8.00	6.00	9.00	8.00	6.00	6.00	6.00	6.00	5.00	5.00	5.00	4.00	3.00	4.00	7.00	5.00	5.00	6.00	8.00	6.00	7.00	5.00	5.00	6.00	8.00	6.00	5.00	6.00	6.00	6.00	7.00	10.00	10.00	8.00	8.00	6.00	6.00	7.00	6.00	7.00	8.00	7.00	4.00	5.00	6.00	6.00	8.00	7.00	5.00	6.00	5.00	10.00	9.00	6.00	8.00	8.00	9.00	6.00	7.00	10.00	11.00	8.00	6.00	6.00	7.00	7.00	7.00	7.00	7.00	7.00	6.00	4.00	4.00	7.00	6.00	6.00	6.00	11.00	10.00	9.00	10.00	9.00	9.00	5.00	6.00	7.00	8.00	7.00	7.00	9.00	9.00	8.00	9.00	9.00	11.00	9.00	5.00	7.00	7.00	8.00	7.00	7.00	7.00	7.00	8.00	7.00	7.00	9.00	9.00	9.00	10.00	10.00	11.00	15.00	28.00	19.00	21.00	25.00	27.00	33.00	33.00	41.00	41.00	63.00	71.00	71.00	74.00	76.00	186.00	266.00	313.00	554.00	1051.00	1180.00	1133.00	1072.00	1138.00	1097.00	1056.00	1023.00	1099.00	1105.00	1200.00	1250.00	1304.00	1592.00	1717.00	1848.00	1890.00	1684.00	1621.00	1659.00	1790.00	1944.00	2366.00	2585.00	2609.00	2628.00	2635.00	2557.00	2555.00	2537.00	2477.00	2423.00	2502.00	2747.00	2870.00	2980.00	3208.00	3085.00	2913.00	2704.00	2325.00	2186.00	2141.00	2447.00	2429.00	2751.00	2951.00	2942.00	2792.00	3134.00	3232.00	3365.00	3449.00	3475.00	3840.00	3977.00	4055.00	4150.00	4190.00	4230.00	4003.00	3869.00	4131.00	3732.00	3651.00	3444.00	3383.00	3624.00	3734.00	3895.00	3996.00	4109.00	4030.00	3960.00	3864.00	3718.00	3893.00	3833.00	3775.00	3880.00	3921.00	3848.00	3845.00	3770.00	3714.00	3523.00	3591.00	3574.00	3484.00
32.00	26.00	28.00	30.00	29.00	26.00	22.00	19.00	17.00	16.00	22.00	20.00	16.00	15.00	15.00	14.00	11.00	10.00	10.00	9.00	8.00	8.00	7.00	7.00	8.00	8.00	10.00	9.00	7.00	6.00	6.00	6.00	3.00	4.00	11.00	11.00	8.00	5.00	6.00	7.00	6.00	6.00	6.00	5.00	5.00	6.00	5.00	4.00	4.00	5.00	4.00	3.00	6.00	8.00	6.00	7.00	5.00	5.00	7.00	6.00	6.00	6.00	6.00	7.00	9.00	5.00	8.00	10.00	11.00	9.00	8.00	9.00	4.00	5.00	6.00	7.00	7.00	5.00	5.00	5.00	6.00	5.00	9.00	8.00	6.00	4.00	10.00	7.00	5.00	6.00	8.00	8.00	7.00	8.00	6.00	9.00	7.00	6.00	6.00	6.00	7.00	7.00	6.00	6.00	7.00	6.00	6.00	5.00	6.00	5.00	6.00	10.00	9.00	8.00	7.00	6.00	7.00	9.00	6.00	9.00	10.00	8.00	7.00	7.00	8.00	9.00	7.00	10.00	9.00	7.00	6.00	7.00	7.00	5.00	6.00	7.00	7.00	6.00	8.00	8.00	8.00	8.00	8.00	9.00	9.00	10.00	12.00	11.00	24.00	18.00	18.00	19.00	22.00	26.00	29.00	33.00	38.00	36.00	57.00	63.00	61.00	62.00	73.00	160.00	274.00	319.00	365.00	976.00	1162.00	1296.00	1225.00	1252.00	1226.00	1169.00	1150.00	1190.00	1212.00	1252.00	1377.00	1434.00	1663.00	1797.00	1990.00	1922.00	1652.00	1721.00	1826.00	1891.00	2046.00	2494.00	2543.00	2564.00	2550.00	2544.00	2509.00	2480.00	2466.00	2438.00	2429.00	2512.00	2842.00	3006.00	3052.00	3201.00	3112.00	2974.00	2689.00	2292.00	2116.00	2086.00	2495.00	2538.00	2764.00	2867.00	2964.00	2927.00	3165.00	3303.00	3470.00	3479.00	3577.00	4004.00	4089.00	4167.00	4074.00	4119.00	4072.00	3848.00	3863.00	3955.00	3586.00	3524.00	3354.00	3377.00	3569.00	3654.00	3762.00	3957.00	4106.00	3938.00	3844.00	3828.00	3678.00	3876.00	3807.00	3741.00	3837.00	3888.00	3799.00	3830.00	3827.00	3707.00	3487.00	3580.00	3492.00	3439.00
30.00	31.00	28.00	28.00	28.00	27.00	24.00	19.00	16.00	15.00	20.00	19.00	18.00	16.00	16.00	13.00	12.00	11.00	10.00	9.00	8.00	7.00	7.00	8.00	8.00	8.00	9.00	8.00	8.00	7.00	7.00	6.00	3.00	4.00	12.00	12.00	8.00	3.00	5.00	4.00	7.00	6.00	4.00	5.00	4.00	4.00	5.00	5.00	5.00	5.00	4.00	5.00	2.00	3.00	5.00	5.00	5.00	5.00	6.00	7.00	6.00	6.00	6.00	6.00	5.00	4.00	5.00	5.00	2.00	1.00	9.00	7.00	9.00	6.00	5.00	5.00	5.00	6.00	6.00	6.00	6.00	5.00	6.00	6.00	9.00	4.00	10.00	10.00	5.00	7.00	7.00	6.00	8.00	8.00	7.00	9.00	7.00	6.00	6.00	6.00	8.00	6.00	4.00	6.00	7.00	6.00	7.00	6.00	6.00	6.00	6.00	7.00	6.00	6.00	6.00	5.00	6.00	8.00	8.00	8.00	7.00	7.00	7.00	8.00	8.00	8.00	9.00	8.00	6.00	5.00	5.00	5.00	6.00	5.00	5.00	6.00	7.00	6.00	7.00	7.00	7.00	8.00	9.00	11.00	11.00	9.00	11.00	12.00	14.00	16.00	19.00	21.00	25.00	25.00	27.00	28.00	28.00	31.00	49.00	52.00	51.00	55.00	80.00	164.00	243.00	335.00	373.00	906.00	1138.00	1388.00	1324.00	1358.00	1364.00	1296.00	1292.00	1318.00	1352.00	1277.00	1370.00	1513.00	1726.00	1916.00	2070.00	1970.00	1725.00	1885.00	1981.00	2082.00	2238.00	2459.00	2461.00	2563.00	2540.00	2479.00	2420.00	2422.00	2418.00	2393.00	2425.00	2514.00	2823.00	3032.00	3091.00	3106.00	2940.00	2916.00	2743.00	2328.00	2088.00	2151.00	2561.00	2685.00	2704.00	2815.00	3045.00	3188.00	3284.00	3369.00	3419.00	3355.00	3441.00	4002.00	4081.00	3943.00	3826.00	4076.00	4026.00	3770.00	3722.00	3744.00	3437.00	3427.00	3297.00	3354.00	3586.00	3651.00	3750.00	3911.00	4066.00	3926.00	3818.00	3745.00	3671.00	3871.00	3826.00	3716.00	3754.00	3843.00	3774.00	3764.00	3822.00	3777.00	3459.00	3549.00	3469.00	3426.00
31.00	27.00	27.00	27.00	26.00	25.00	25.00	24.00	23.00	21.00	19.00	19.00	19.00	20.00	16.00	13.00	11.00	11.00	10.00	10.00	9.00	8.00	8.00	7.00	6.00	7.00	6.00	5.00	6.00	8.00	7.00	6.00	4.00	8.00	9.00	5.00	5.00	2.00	3.00	3.00	2.00	4.00	5.00	5.00	4.00	5.00	5.00	6.00	5.00	4.00	2.00	3.00	4.00	6.00	6.00	6.00	7.00	8.00	8.00	6.00	7.00	6.00	6.00	5.00	7.00	5.00	4.00	7.00	7.00	6.00	5.00	6.00	6.00	7.00	5.00	6.00	6.00	6.00	7.00	7.00	6.00	6.00	5.00	5.00	7.00	7.00	6.00	5.00	5.00	4.00	7.00	8.00	6.00	5.00	5.00	9.00	6.00	7.00	8.00	8.00	9.00	7.00	6.00	5.00	6.00	6.00	7.00	8.00	8.00	6.00	6.00	4.00	5.00	5.00	4.00	4.00	5.00	6.00	7.00	7.00	7.00	7.00	6.00	6.00	7.00	7.00	8.00	8.00	6.00	5.00	5.00	5.00	7.00	6.00	5.00	5.00	5.00	7.00	7.00	8.00	7.00	8.00	8.00	9.00	9.00	11.00	11.00	13.00	13.00	14.00	16.00	20.00	20.00	19.00	22.00	23.00	25.00	25.00	36.00	39.00	49.00	64.00	84.00	177.00	295.00	381.00	441.00	705.00	921.00	1377.00	1494.00	1538.00	1573.00	1541.00	1493.00	1583.00	1571.00	1486.00	1465.00	1613.00	1989.00	2147.00	2224.00	1998.00	1955.00	2097.00	2227.00	2361.00	2352.00	2316.00	2330.00	2360.00	2349.00	2415.00	2459.00	2432.00	2399.00	2360.00	2400.00	2485.00	2719.00	2813.00	2959.00	3053.00	2878.00	2745.00	2581.00	2229.00	2044.00	2260.00	2528.00	2872.00	2933.00	3153.00	3203.00	3138.00	3081.00	3088.00	3172.00	3134.00	3298.00	3801.00	3648.00	3563.00	3691.00	3820.00	3790.00	3732.00	3594.00	3472.00	3498.00	3325.00	3270.00	3343.00	3553.00	3624.00	3721.00	3859.00	4020.00	3963.00	3875.00	3876.00	3703.00	3783.00	3772.00	3657.00	3732.00	3795.00	3825.00	3718.00	3750.00	3750.00	3426.00	3457.00	3499.00	3438.00
36.00	26.00	24.00	25.00	27.00	26.00	25.00	27.00	25.00	23.00	19.00	19.00	18.00	21.00	19.00	12.00	11.00	12.00	11.00	9.00	9.00	9.00	7.00	7.00	6.00	6.00	5.00	7.00	6.00	6.00	7.00	9.00	5.00	4.00	5.00	5.00	4.00	3.00	3.00	3.00	5.00	4.00	5.00	2.00	3.00	3.00	4.00	5.00	6.00	5.00	5.00	6.00	6.00	5.00	5.00	6.00	6.00	6.00	7.00	7.00	5.00	6.00	6.00	7.00	5.00	7.00	6.00	7.00	9.00	5.00	6.00	7.00	5.00	7.00	5.00	5.00	4.00	6.00	8.00	7.00	7.00	6.00	5.00	4.00	7.00	10.00	5.00	5.00	6.00	5.00	4.00	6.00	3.00	4.00	5.00	10.00	6.00	7.00	6.00	6.00	8.00	8.00	7.00	5.00	6.00	8.00	6.00	9.00	6.00	6.00	7.00	6.00	5.00	7.00	7.00	6.00	7.00	7.00	8.00	7.00	6.00	6.00	6.00	5.00	6.00	7.00	7.00	8.00	10.00	7.00	6.00	7.00	7.00	7.00	5.00	5.00	5.00	8.00	7.00	8.00	7.00	8.00	9.00	9.00	9.00	10.00	12.00	16.00	13.00	14.00	17.00	19.00	18.00	19.00	21.00	22.00	24.00	26.00	31.00	37.00	46.00	53.00	64.00	186.00	342.00	583.00	757.00	961.00	1051.00	1204.00	1425.00	1604.00	1601.00	1610.00	1586.00	1663.00	1798.00	1757.00	1686.00	1704.00	2008.00	2201.00	2286.00	2213.00	2195.00	2337.00	2398.00	2441.00	2424.00	2380.00	2341.00	2298.00	2242.00	2264.00	2400.00	2411.00	2393.00	2316.00	2352.00	2478.00	2836.00	2999.00	3049.00	2919.00	2906.00	2815.00	2593.00	2100.00	2024.00	2318.00	2572.00	2740.00	3043.00	3077.00	2956.00	2874.00	2801.00	2829.00	2944.00	3072.00	3269.00	3328.00	3311.00	3590.00	3686.00	3395.00	3498.00	3710.00	3744.00	3614.00	3403.00	3304.00	3251.00	3471.00	3763.00	3753.00	3807.00	3929.00	4061.00	3980.00	3952.00	3993.00	3842.00	3594.00	3682.00	3575.00	3680.00	3757.00	3750.00	3633.00	3670.00	3765.00	3508.00	3387.00	3415.00	3509.00
35.00	29.00	28.00	27.00	26.00	25.00	25.00	26.00	24.00	21.00	24.00	20.00	19.00	22.00	19.00	13.00	13.00	12.00	11.00	9.00	7.00	9.00	7.00	8.00	6.00	7.00	8.00	7.00	6.00	6.00	5.00	8.00	5.00	4.00	5.00	6.00	4.00	3.00	2.00	3.00	4.00	5.00	4.00	3.00	3.00	3.00	3.00	5.00	9.00	10.00	5.00	5.00	6.00	7.00	5.00	4.00	5.00	5.00	3.00	6.00	7.00	6.00	7.00	9.00	4.00	5.00	5.00	6.00	6.00	6.00	6.00	5.00	5.00	7.00	6.00	8.00	7.00	6.00	9.00	7.00	8.00	6.00	4.00	5.00	7.00	9.00	5.00	5.00	4.00	5.00	6.00	5.00	5.00	5.00	5.00	8.00	6.00	6.00	7.00	8.00	7.00	7.00	6.00	6.00	6.00	7.00	7.00	7.00	6.00	7.00	7.00	9.00	6.00	6.00	5.00	5.00	6.00	7.00	6.00	6.00	7.00	4.00	6.00	6.00	6.00	6.00	6.00	7.00	10.00	11.00	8.00	6.00	7.00	8.00	7.00	6.00	7.00	8.00	9.00	7.00	8.00	8.00	8.00	9.00	9.00	10.00	13.00	15.00	12.00	14.00	16.00	16.00	17.00	18.00	20.00	19.00	20.00	23.00	27.00	34.00	45.00	53.00	75.00	213.00	320.00	487.00	797.00	950.00	920.00	995.00	1116.00	1332.00	1312.00	1402.00	1473.00	1514.00	1716.00	1832.00	1802.00	1774.00	2063.00	2178.00	2264.00	2205.00	2152.00	2266.00	2344.00	2410.00	2474.00	2463.00	2400.00	2344.00	2271.00	2217.00	2301.00	2321.00	2289.00	2256.00	2340.00	2450.00	2851.00	2934.00	2966.00	2799.00	2786.00	2698.00	2499.00	2078.00	2038.00	2450.00	2631.00	2682.00	2995.00	2949.00	2854.00	2761.00	2709.00	2915.00	3163.00	3178.00	3391.00	3191.00	3401.00	3560.00	3440.00	3333.00	3511.00	3653.00	3735.00	3577.00	3231.00	3216.00	3318.00	3526.00	3853.00	3854.00	3884.00	3999.00	4094.00	4030.00	4023.00	4038.00	3848.00	3614.00	3592.00	3544.00	3611.00	3698.00	3718.00	3578.00	3642.00	3771.00	3562.00	3451.00	3365.00	3509.00
