452.00	451.00	460.00	411.00	398.00	389.00	427.00	400.00	394.00	378.00	369.00	338.00	338.00	319.00	314.00	293.00	247.00	251.00	257.00	263.00	258.00	261.00	263.00	258.00	254.00	237.00	231.00	234.00	235.00	242.00	240.00	248.00	250.00	250.00	257.00	234.00	227.00	223.00	207.00	204.00	205.00	214.00	217.00	212.00	210.00	204.00	198.00	194.00	184.00	180.00	172.00	168.00	171.00	174.00	177.00	179.00	176.00	179.00	186.00	178.00	180.00	171.00	167.00	169.00	170.00	168.00	159.00	157.00	157.00	154.00	159.00	168.00	162.00	153.00	153.00	153.00	149.00	155.00	166.00	166.00	167.00	166.00	166.00	164.00	163.00	162.00	164.00	162.00	161.00	161.00	159.00	160.00	160.00	160.00	159.00	161.00	162.00	164.00	165.00	167.00	168.00	178.00	187.00	189.00	191.00	195.00	216.00	238.00	264.00	281.00	191.00	181.00	169.00	166.00	159.00	149.00	139.00	133.00	128.00	115.00	113.00	107.00	111.00	106.00	100.00	97.00	94.00	92.00	86.00	86.00	86.00	85.00	86.00	90.00	89.00	94.00	95.00	102.00	102.00	100.00	102.00	99.00	98.00	92.00	86.00	88.00	99.00	98.00	103.00	110.00	120.00	108.00	107.00	103.00	108.00	115.00	113.00	112.00	114.00	119.00	128.00	134.00	138.00	141.00	147.00	143.00	138.00	133.00	129.00	123.00	122.00	124.00	127.00	136.00	194.00	216.00	181.00	167.00	148.00	143.00	140.00	147.00	152.00	162.00	156.00	148.00	137.00	136.00	136.00	140.00	126.00	128.00	139.00	154.00	167.00	173.00	181.00	177.00	167.00	161.00	183.00	182.00	174.00	186.00	191.00	175.00	182.00	193.00	214.00	225.00	232.00	218.00	211.00	212.00	193.00	186.00	188.00	183.00	182.00	181.00	176.00	164.00	153.00	151.00	150.00	159.00	161.00	147.00	139.00	136.00	132.00	132.00	132.00	132.00	132.00	132.00	135.00	135.00	136.00	140.00	142.00	142.00	143.00	146.00	151.00	162.00	170.00	173.00	172.00	182.00	190.00	196.00	212.00	233.00	210.00	195.00
454.00	451.00	429.00	446.00	424.00	405.00	376.00	373.00	372.00	356.00	348.00	324.00	315.00	302.00	286.00	272.00	252.00	241.00	239.00	239.00	248.00	252.00	253.00	244.00	244.00	237.00	228.00	217.00	222.00	228.00	229.00	226.00	223.00	216.00	224.00	232.00	236.00	228.00	214.00	197.00	197.00	197.00	203.00	201.00	195.00	197.00	194.00	189.00	179.00	177.00	179.00	178.00	169.00	166.00	170.00	174.00	168.00	174.00	187.00	185.00	183.00	178.00	174.00	172.00	172.00	174.00	167.00	164.00	164.00	162.00	157.00	163.00	158.00	152.00	152.00	150.00	149.00	158.00	162.00	166.00	165.00	166.00	166.00	165.00	164.00	161.00	160.00	161.00	162.00	160.00	160.00	160.00	157.00	158.00	158.00	158.00	159.00	155.00	155.00	157.00	160.00	179.00	185.00	182.00	192.00	203.00	204.00	218.00	244.00	268.00	222.00	189.00	184.00	177.00	163.00	140.00	135.00	133.00	133.00	122.00	121.00	113.00	113.00	117.00	109.00	102.00	96.00	91.00	88.00	87.00	87.00	86.00	87.00	88.00	88.00	89.00	98.00	104.00	105.00	105.00	104.00	104.00	97.00	95.00	92.00	88.00	94.00	101.00	108.00	111.00	120.00	124.00	118.00	109.00	110.00	121.00	123.00	122.00	122.00	121.00	127.00	131.00	136.00	140.00	152.00	151.00	149.00	142.00	139.00	130.00	133.00	137.00	148.00	207.00	223.00	249.00	281.00	239.00	155.00	147.00	146.00	152.00	164.00	162.00	150.00	140.00	137.00	139.00	133.00	126.00	122.00	130.00	131.00	144.00	158.00	173.00	187.00	177.00	168.00	172.00	190.00	191.00	191.00	196.00	187.00	182.00	182.00	186.00	191.00	217.00	221.00	224.00	215.00	203.00	201.00	205.00	215.00	207.00	188.00	177.00	169.00	165.00	164.00	182.00	174.00	167.00	161.00	157.00	151.00	140.00	136.00	132.00	133.00	133.00	133.00	134.00	135.00	134.00	134.00	135.00	137.00	138.00	142.00	148.00	153.00	165.00	168.00	177.00	188.00	184.00	185.00	186.00	189.00	193.00	205.00	209.00
454.00	451.00	429.00	446.00	424.00	405.00	376.00	373.00	372.00	356.00	348.00	324.00	315.00	302.00	286.00	272.00	252.00	241.00	239.00	239.00	248.00	252.00	253.00	244.00	244.00	237.00	228.00	217.00	222.00	228.00	229.00	226.00	223.00	216.00	224.00	232.00	236.00	228.00	214.00	197.00	197.00	197.00	203.00	201.00	195.00	197.00	194.00	189.00	179.00	177.00	179.00	178.00	169.00	166.00	170.00	174.00	168.00	174.00	187.00	185.00	183.00	178.00	174.00	172.00	172.00	174.00	167.00	164.00	164.00	162.00	157.00	163.00	158.00	152.00	152.00	150.00	149.00	158.00	162.00	166.00	165.00	166.00	166.00	165.00	164.00	161.00	160.00	161.00	162.00	160.00	160.00	160.00	157.00	158.00	158.00	158.00	159.00	155.00	155.00	157.00	160.00	179.00	185.00	182.00	192.00	203.00	204.00	218.00	244.00	268.00	222.00	189.00	184.00	177.00	163.00	140.00	135.00	133.00	133.00	122.00	121.00	113.00	113.00	117.00	109.00	102.00	96.00	91.00	88.00	87.00	87.00	86.00	87.00	88.00	88.00	89.00	98.00	104.00	105.00	105.00	104.00	104.00	97.00	95.00	92.00	88.00	94.00	101.00	108.00	111.00	120.00	124.00	118.00	109.00	110.00	121.00	123.00	122.00	122.00	121.00	127.00	131.00	136.00	140.00	152.00	151.00	149.00	142.00	139.00	130.00	133.00	137.00	148.00	207.00	223.00	249.00	281.00	239.00	155.00	147.00	146.00	152.00	164.00	162.00	150.00	140.00	137.00	139.00	133.00	126.00	122.00	130.00	131.00	144.00	158.00	173.00	187.00	177.00	168.00	172.00	190.00	191.00	191.00	196.00	187.00	182.00	182.00	186.00	191.00	217.00	221.00	224.00	215.00	203.00	201.00	205.00	215.00	207.00	188.00	177.00	169.00	165.00	164.00	182.00	174.00	167.00	161.00	157.00	151.00	140.00	136.00	132.00	133.00	133.00	133.00	134.00	135.00	134.00	134.00	135.00	137.00	138.00	142.00	148.00	153.00	165.00	168.00	177.00	188.00	184.00	185.00	186.00	189.00	193.00	205.00	209.00
451.00	434.00	413.00	428.00	434.00	409.00	353.00	345.00	354.00	346.00	330.00	316.00	299.00	288.00	271.00	267.00	244.00	239.00	235.00	233.00	239.00	238.00	245.00	244.00	236.00	232.00	226.00	225.00	213.00	221.00	224.00	223.00	215.00	208.00	212.00	224.00	225.00	214.00	210.00	196.00	194.00	193.00	205.00	201.00	203.00	201.00	197.00	191.00	182.00	182.00	188.00	185.00	175.00	170.00	168.00	166.00	166.00	189.00	190.00	185.00	181.00	177.00	173.00	173.00	172.00	171.00	169.00	173.00	174.00	164.00	152.00	153.00	154.00	153.00	151.00	150.00	146.00	146.00	148.00	162.00	165.00	165.00	164.00	163.00	161.00	161.00	161.00	160.00	162.00	161.00	158.00	159.00	158.00	158.00	157.00	156.00	157.00	152.00	151.00	157.00	164.00	179.00	177.00	176.00	186.00	201.00	218.00	223.00	238.00	256.00	257.00	215.00	201.00	185.00	170.00	149.00	148.00	144.00	136.00	128.00	119.00	118.00	116.00	117.00	113.00	101.00	96.00	92.00	87.00	87.00	87.00	87.00	88.00	87.00	88.00	88.00	94.00	105.00	104.00	103.00	103.00	102.00	104.00	103.00	98.00	90.00	92.00	98.00	105.00	105.00	112.00	127.00	123.00	114.00	113.00	119.00	120.00	122.00	124.00	124.00	127.00	132.00	137.00	140.00	155.00	154.00	145.00	144.00	140.00	140.00	140.00	153.00	185.00	245.00	248.00	239.00	284.00	261.00	155.00	150.00	152.00	157.00	161.00	153.00	146.00	146.00	144.00	139.00	131.00	124.00	122.00	140.00	144.00	141.00	152.00	169.00	186.00	174.00	178.00	187.00	182.00	189.00	200.00	207.00	189.00	189.00	187.00	194.00	197.00	206.00	213.00	218.00	209.00	209.00	213.00	223.00	235.00	223.00	180.00	182.00	173.00	170.00	181.00	187.00	162.00	159.00	154.00	154.00	145.00	141.00	136.00	132.00	133.00	133.00	133.00	134.00	135.00	135.00	134.00	135.00	135.00	137.00	141.00	146.00	151.00	160.00	163.00	174.00	183.00	191.00	195.00	197.00	196.00	200.00	215.00	219.00
417.00	418.00	407.00	424.00	433.00	423.00	361.00	345.00	332.00	323.00	317.00	312.00	293.00	280.00	269.00	260.00	245.00	239.00	232.00	231.00	235.00	232.00	231.00	242.00	231.00	230.00	220.00	216.00	209.00	209.00	220.00	215.00	212.00	204.00	217.00	228.00	226.00	216.00	203.00	199.00	192.00	192.00	198.00	211.00	211.00	203.00	193.00	190.00	189.00	189.00	196.00	196.00	184.00	177.00	170.00	165.00	169.00	209.00	195.00	185.00	176.00	180.00	185.00	183.00	176.00	175.00	175.00	183.00	185.00	170.00	152.00	150.00	149.00	150.00	152.00	152.00	149.00	149.00	146.00	162.00	166.00	165.00	166.00	163.00	163.00	161.00	161.00	161.00	163.00	161.00	159.00	159.00	157.00	157.00	158.00	157.00	157.00	151.00	150.00	152.00	160.00	169.00	168.00	179.00	188.00	201.00	219.00	222.00	222.00	231.00	293.00	222.00	191.00	178.00	167.00	158.00	151.00	142.00	137.00	127.00	120.00	121.00	121.00	115.00	114.00	102.00	100.00	92.00	87.00	87.00	87.00	87.00	88.00	88.00	87.00	88.00	88.00	98.00	101.00	100.00	99.00	102.00	105.00	104.00	99.00	93.00	90.00	94.00	100.00	100.00	108.00	122.00	127.00	119.00	118.00	118.00	118.00	121.00	122.00	125.00	131.00	135.00	138.00	141.00	153.00	155.00	148.00	154.00	153.00	151.00	149.00	182.00	276.00	277.00	224.00	208.00	225.00	203.00	158.00	159.00	163.00	169.00	159.00	160.00	157.00	150.00	147.00	138.00	127.00	126.00	130.00	129.00	148.00	153.00	161.00	184.00	190.00	179.00	178.00	190.00	194.00	192.00	202.00	204.00	191.00	195.00	197.00	205.00	208.00	212.00	219.00	218.00	210.00	220.00	232.00	248.00	228.00	210.00	185.00	190.00	190.00	185.00	203.00	180.00	163.00	160.00	157.00	148.00	146.00	143.00	138.00	133.00	134.00	134.00	134.00	134.00	136.00	136.00	135.00	136.00	136.00	138.00	142.00	146.00	149.00	157.00	161.00	172.00	178.00	188.00	190.00	193.00	196.00	200.00	214.00	222.00
435.00	389.00	419.00	389.00	405.00	398.00	376.00	339.00	317.00	305.00	291.00	285.00	265.00	264.00	258.00	254.00	240.00	231.00	231.00	232.00	232.00	224.00	226.00	220.00	224.00	221.00	225.00	222.00	204.00	200.00	198.00	199.00	200.00	196.00	195.00	200.00	209.00	215.00	219.00	208.00	201.00	195.00	190.00	188.00	186.00	187.00	188.00	183.00	184.00	184.00	197.00	195.00	182.00	189.00	176.00	161.00	169.00	210.00	200.00	186.00	178.00	189.00	196.00	199.00	196.00	200.00	201.00	204.00	201.00	181.00	168.00	161.00	152.00	149.00	148.00	151.00	151.00	150.00	145.00	165.00	166.00	165.00	164.00	163.00	163.00	163.00	162.00	162.00	160.00	161.00	159.00	159.00	153.00	152.00	154.00	156.00	155.00	147.00	147.00	153.00	153.00	158.00	157.00	161.00	169.00	181.00	201.00	185.00	194.00	213.00	274.00	190.00	177.00	172.00	182.00	170.00	157.00	143.00	135.00	129.00	134.00	126.00	128.00	121.00	111.00	108.00	106.00	94.00	88.00	88.00	87.00	88.00	88.00	89.00	88.00	89.00	90.00	88.00	88.00	88.00	90.00	91.00	101.00	105.00	106.00	104.00	94.00	93.00	95.00	98.00	101.00	111.00	115.00	124.00	118.00	114.00	117.00	121.00	124.00	127.00	132.00	134.00	136.00	139.00	148.00	152.00	157.00	161.00	159.00	164.00	165.00	190.00	242.00	191.00	224.00	189.00	186.00	178.00	179.00	173.00	179.00	174.00	185.00	216.00	168.00	157.00	160.00	140.00	134.00	131.00	136.00	131.00	129.00	140.00	151.00	165.00	191.00	189.00	184.00	192.00	201.00	209.00	218.00	221.00	211.00	200.00	206.00	226.00	251.00	263.00	243.00	224.00	239.00	260.00	278.00	258.00	210.00	204.00	210.00	208.00	198.00	193.00	180.00	175.00	170.00	166.00	170.00	154.00	153.00	152.00	145.00	138.00	136.00	135.00	136.00	136.00	137.00	136.00	136.00	137.00	139.00	140.00	141.00	143.00	148.00	160.00	167.00	173.00	172.00	178.00	188.00	198.00	205.00	209.00	229.00	245.00
402.00	387.00	389.00	383.00	392.00	408.00	367.00	356.00	327.00	312.00	307.00	292.00	272.00	263.00	255.00	254.00	238.00	238.00	239.00	246.00	236.00	216.00	219.00	219.00	217.00	211.00	213.00	214.00	205.00	202.00	202.00	202.00	200.00	197.00	196.00	194.00	195.00	202.00	221.00	210.00	209.00	205.00	200.00	185.00	182.00	181.00	180.00	179.00	178.00	179.00	192.00	199.00	196.00	195.00	177.00	161.00	163.00	203.00	200.00	186.00	177.00	179.00	189.00	200.00	209.00	217.00	217.00	212.00	201.00	177.00	164.00	154.00	154.00	153.00	152.00	149.00	150.00	150.00	145.00	162.00	165.00	165.00	165.00	164.00	163.00	163.00	162.00	160.00	160.00	161.00	160.00	156.00	152.00	152.00	152.00	152.00	155.00	147.00	146.00	149.00	149.00	153.00	154.00	156.00	162.00	172.00	186.00	180.00	186.00	196.00	260.00	253.00	194.00	191.00	190.00	165.00	155.00	147.00	138.00	135.00	134.00	121.00	128.00	125.00	121.00	114.00	104.00	97.00	90.00	88.00	88.00	88.00	88.00	89.00	88.00	88.00	89.00	87.00	89.00	89.00	91.00	91.00	95.00	100.00	102.00	104.00	96.00	93.00	95.00	99.00	101.00	106.00	111.00	121.00	118.00	113.00	117.00	120.00	123.00	125.00	129.00	130.00	133.00	135.00	146.00	149.00	154.00	156.00	158.00	163.00	163.00	171.00	182.00	175.00	198.00	202.00	194.00	182.00	198.00	182.00	183.00	177.00	184.00	192.00	168.00	162.00	170.00	151.00	145.00	131.00	135.00	134.00	129.00	136.00	139.00	161.00	181.00	195.00	193.00	189.00	198.00	205.00	211.00	218.00	225.00	211.00	206.00	219.00	248.00	261.00	239.00	231.00	241.00	257.00	261.00	232.00	221.00	224.00	240.00	225.00	207.00	198.00	185.00	177.00	173.00	169.00	170.00	157.00	153.00	147.00	144.00	141.00	139.00	136.00	136.00	135.00	136.00	137.00	137.00	137.00	138.00	141.00	141.00	145.00	148.00	158.00	166.00	165.00	168.00	185.00	191.00	196.00	208.00	230.00	217.00	213.00
372.00	371.00	388.00	369.00	400.00	417.00	377.00	345.00	331.00	320.00	314.00	305.00	277.00	266.00	263.00	265.00	257.00	256.00	254.00	247.00	237.00	225.00	222.00	224.00	219.00	218.00	212.00	208.00	206.00	205.00	208.00	206.00	203.00	204.00	198.00	196.00	194.00	192.00	210.00	214.00	212.00	210.00	203.00	194.00	188.00	182.00	180.00	178.00	173.00	173.00	184.00	191.00	199.00	195.00	181.00	168.00	160.00	188.00	187.00	186.00	177.00	176.00	187.00	200.00	213.00	225.00	215.00	206.00	194.00	170.00	159.00	157.00	164.00	162.00	160.00	145.00	148.00	147.00	143.00	155.00	164.00	165.00	164.00	163.00	164.00	165.00	163.00	161.00	160.00	161.00	157.00	155.00	152.00	152.00	152.00	151.00	151.00	147.00	147.00	146.00	147.00	150.00	150.00	158.00	164.00	170.00	179.00	189.00	196.00	199.00	248.00	238.00	220.00	212.00	197.00	165.00	157.00	148.00	143.00	144.00	135.00	115.00	113.00	114.00	123.00	111.00	96.00	95.00	91.00	89.00	88.00	87.00	88.00	88.00	89.00	89.00	89.00	89.00	87.00	88.00	90.00	91.00	91.00	95.00	102.00	106.00	99.00	93.00	94.00	98.00	101.00	105.00	108.00	112.00	115.00	113.00	117.00	120.00	121.00	122.00	126.00	130.00	133.00	136.00	144.00	148.00	149.00	149.00	151.00	162.00	159.00	160.00	164.00	164.00	185.00	185.00	187.00	178.00	206.00	193.00	195.00	190.00	184.00	180.00	166.00	171.00	170.00	151.00	137.00	134.00	139.00	140.00	132.00	134.00	145.00	155.00	180.00	185.00	194.00	196.00	202.00	215.00	227.00	227.00	229.00	221.00	217.00	215.00	231.00	257.00	240.00	236.00	254.00	259.00	246.00	232.00	247.00	258.00	247.00	222.00	208.00	207.00	193.00	185.00	176.00	171.00	170.00	160.00	157.00	149.00	148.00	142.00	139.00	136.00	135.00	136.00	137.00	137.00	137.00	137.00	138.00	139.00	140.00	144.00	148.00	156.00	160.00	163.00	181.00	206.00	218.00	215.00	228.00	244.00	219.00	209.00
420.00	371.00	352.00	389.00	416.00	417.00	369.00	345.00	325.00	306.00	299.00	300.00	286.00	279.00	275.00	269.00	260.00	257.00	253.00	253.00	252.00	239.00	234.00	236.00	228.00	226.00	212.00	210.00	209.00	211.00	214.00	211.00	214.00	214.00	206.00	200.00	197.00	192.00	200.00	204.00	203.00	207.00	211.00	198.00	190.00	187.00	187.00	183.00	173.00	172.00	172.00	177.00	189.00	198.00	188.00	175.00	162.00	175.00	173.00	177.00	174.00	179.00	193.00	203.00	218.00	222.00	206.00	196.00	187.00	167.00	161.00	168.00	168.00	161.00	159.00	149.00	145.00	143.00	143.00	159.00	163.00	164.00	164.00	162.00	163.00	163.00	163.00	162.00	160.00	158.00	157.00	155.00	152.00	153.00	153.00	151.00	151.00	149.00	145.00	146.00	146.00	148.00	152.00	160.00	166.00	166.00	188.00	203.00	197.00	205.00	219.00	260.00	227.00	207.00	193.00	159.00	170.00	164.00	155.00	146.00	132.00	114.00	110.00	108.00	118.00	105.00	98.00	96.00	98.00	90.00	88.00	88.00	88.00	88.00	88.00	89.00	90.00	89.00	90.00	88.00	86.00	88.00	92.00	91.00	98.00	102.00	103.00	96.00	95.00	95.00	98.00	103.00	105.00	108.00	107.00	113.00	114.00	117.00	120.00	123.00	128.00	130.00	132.00	134.00	143.00	146.00	147.00	144.00	147.00	159.00	155.00	151.00	154.00	157.00	170.00	168.00	178.00	173.00	203.00	189.00	183.00	191.00	183.00	179.00	171.00	173.00	163.00	148.00	137.00	137.00	141.00	152.00	146.00	134.00	143.00	153.00	164.00	171.00	178.00	195.00	200.00	214.00	234.00	243.00	241.00	229.00	232.00	219.00	227.00	247.00	236.00	240.00	266.00	276.00	268.00	235.00	258.00	295.00	250.00	223.00	220.00	219.00	208.00	185.00	179.00	176.00	194.00	166.00	157.00	152.00	150.00	142.00	139.00	138.00	138.00	137.00	136.00	137.00	138.00	138.00	138.00	139.00	139.00	140.00	143.00	150.00	153.00	167.00	174.00	199.00	220.00	235.00	247.00	264.00	220.00	228.00
396.00	361.00	349.00	335.00	332.00	332.00	310.00	340.00	320.00	304.00	289.00	274.00	255.00	253.00	259.00	272.00	267.00	262.00	262.00	260.00	254.00	246.00	241.00	233.00	232.00	236.00	233.00	230.00	229.00	227.00	223.00	218.00	212.00	208.00	203.00	206.00	206.00	202.00	190.00	187.00	189.00	188.00	194.00	196.00	197.00	200.00	199.00	196.00	181.00	178.00	176.00	170.00	170.00	179.00	184.00	180.00	172.00	160.00	156.00	157.00	167.00	199.00	203.00	215.00	215.00	206.00	185.00	179.00	174.00	167.00	165.00	169.00	169.00	165.00	158.00	148.00	146.00	143.00	144.00	154.00	160.00	162.00	163.00	163.00	164.00	163.00	162.00	161.00	160.00	158.00	156.00	153.00	151.00	151.00	151.00	151.00	152.00	149.00	148.00	149.00	145.00	150.00	155.00	159.00	162.00	168.00	169.00	173.00	178.00	180.00	190.00	230.00	224.00	195.00	191.00	163.00	166.00	143.00	136.00	127.00	124.00	118.00	113.00	109.00	103.00	101.00	102.00	104.00	100.00	97.00	92.00	91.00	90.00	89.00	89.00	89.00	90.00	91.00	92.00	93.00	87.00	89.00	89.00	90.00	97.00	103.00	105.00	106.00	104.00	97.00	97.00	99.00	100.00	105.00	107.00	112.00	113.00	116.00	118.00	121.00	124.00	126.00	129.00	132.00	138.00	141.00	138.00	139.00	146.00	148.00	142.00	143.00	152.00	146.00	149.00	154.00	161.00	162.00	188.00	172.00	161.00	161.00	176.00	186.00	176.00	162.00	151.00	145.00	151.00	146.00	157.00	162.00	177.00	166.00	149.00	148.00	179.00	173.00	172.00	184.00	204.00	205.00	213.00	215.00	223.00	245.00	246.00	241.00	236.00	229.00	233.00	249.00	265.00	276.00	260.00	251.00	297.00	311.00	289.00	299.00	281.00	257.00	213.00	197.00	187.00	183.00	185.00	164.00	160.00	158.00	156.00	151.00	149.00	145.00	142.00	140.00	138.00	138.00	138.00	141.00	138.00	139.00	141.00	140.00	141.00	146.00	152.00	161.00	165.00	181.00	203.00	223.00	229.00	212.00	188.00	187.00
389.00	353.00	373.00	350.00	376.00	381.00	375.00	322.00	309.00	295.00	279.00	272.00	254.00	248.00	247.00	254.00	272.00	269.00	267.00	263.00	256.00	242.00	236.00	230.00	230.00	236.00	231.00	224.00	222.00	222.00	221.00	217.00	216.00	216.00	211.00	210.00	207.00	202.00	190.00	186.00	184.00	184.00	184.00	196.00	196.00	191.00	195.00	199.00	185.00	186.00	187.00	178.00	166.00	167.00	174.00	179.00	175.00	164.00	157.00	156.00	162.00	211.00	213.00	207.00	201.00	203.00	184.00	179.00	178.00	174.00	167.00	169.00	169.00	168.00	161.00	145.00	140.00	142.00	141.00	149.00	155.00	160.00	159.00	160.00	163.00	163.00	161.00	162.00	160.00	157.00	157.00	152.00	150.00	150.00	151.00	151.00	151.00	150.00	149.00	147.00	142.00	153.00	157.00	161.00	165.00	170.00	181.00	183.00	189.00	190.00	190.00	233.00	214.00	185.00	168.00	151.00	140.00	151.00	158.00	136.00	127.00	122.00	114.00	109.00	105.00	101.00	111.00	109.00	102.00	97.00	96.00	99.00	94.00	89.00	89.00	90.00	90.00	90.00	91.00	92.00	92.00	89.00	88.00	89.00	93.00	101.00	105.00	108.00	106.00	101.00	97.00	101.00	102.00	105.00	107.00	110.00	112.00	114.00	118.00	121.00	124.00	126.00	127.00	129.00	137.00	138.00	135.00	140.00	142.00	140.00	135.00	140.00	149.00	143.00	143.00	145.00	149.00	151.00	171.00	171.00	157.00	157.00	176.00	184.00	174.00	162.00	151.00	151.00	160.00	155.00	155.00	170.00	177.00	168.00	154.00	143.00	168.00	179.00	180.00	185.00	193.00	195.00	210.00	225.00	226.00	242.00	250.00	247.00	245.00	231.00	233.00	249.00	247.00	234.00	246.00	250.00	282.00	302.00	271.00	271.00	261.00	237.00	206.00	213.00	198.00	184.00	179.00	170.00	168.00	165.00	159.00	152.00	150.00	146.00	144.00	142.00	138.00	138.00	139.00	140.00	139.00	140.00	140.00	141.00	143.00	146.00	148.00	157.00	165.00	177.00	188.00	203.00	206.00	202.00	180.00	181.00
369.00	364.00	395.00	399.00	397.00	403.00	397.00	335.00	315.00	293.00	291.00	289.00	265.00	254.00	241.00	242.00	266.00	262.00	259.00	255.00	251.00	237.00	232.00	227.00	224.00	232.00	231.00	229.00	226.00	219.00	221.00	219.00	214.00	213.00	210.00	207.00	208.00	205.00	194.00	186.00	186.00	186.00	183.00	190.00	184.00	183.00	189.00	197.00	192.00	186.00	186.00	180.00	168.00	164.00	164.00	163.00	163.00	163.00	157.00	155.00	160.00	194.00	201.00	188.00	189.00	198.00	183.00	177.00	177.00	176.00	169.00	169.00	167.00	167.00	162.00	144.00	140.00	141.00	141.00	148.00	151.00	156.00	156.00	156.00	161.00	162.00	161.00	162.00	160.00	157.00	158.00	152.00	151.00	151.00	151.00	149.00	150.00	151.00	148.00	148.00	142.00	153.00	157.00	161.00	166.00	169.00	181.00	180.00	184.00	193.00	195.00	229.00	209.00	186.00	162.00	163.00	171.00	175.00	163.00	133.00	131.00	119.00	115.00	110.00	106.00	104.00	112.00	114.00	106.00	101.00	100.00	103.00	98.00	94.00	89.00	89.00	90.00	89.00	87.00	94.00	96.00	91.00	88.00	89.00	93.00	103.00	108.00	108.00	108.00	102.00	98.00	101.00	103.00	105.00	107.00	109.00	110.00	112.00	116.00	119.00	121.00	122.00	125.00	127.00	134.00	134.00	134.00	136.00	137.00	138.00	131.00	138.00	143.00	140.00	139.00	146.00	148.00	150.00	153.00	154.00	152.00	154.00	175.00	185.00	163.00	157.00	153.00	157.00	162.00	166.00	164.00	172.00	173.00	160.00	149.00	143.00	152.00	161.00	165.00	183.00	178.00	183.00	203.00	213.00	225.00	244.00	240.00	242.00	242.00	241.00	240.00	244.00	224.00	222.00	225.00	237.00	253.00	273.00	248.00	248.00	237.00	229.00	231.00	229.00	215.00	192.00	185.00	176.00	174.00	169.00	163.00	156.00	157.00	151.00	146.00	144.00	140.00	140.00	140.00	139.00	141.00	142.00	142.00	141.00	143.00	147.00	147.00	154.00	163.00	178.00	182.00	182.00	178.00	182.00	178.00	183.00
387.00	392.00	417.00	377.00	372.00	362.00	373.00	343.00	328.00	307.00	301.00	287.00	265.00	256.00	243.00	240.00	263.00	260.00	253.00	248.00	243.00	236.00	236.00	233.00	226.00	228.00	224.00	222.00	223.00	222.00	215.00	218.00	217.00	213.00	207.00	205.00	203.00	205.00	203.00	188.00	191.00	194.00	187.00	182.00	180.00	180.00	182.00	182.00	180.00	179.00	182.00	178.00	173.00	170.00	166.00	166.00	162.00	159.00	155.00	155.00	154.00	167.00	182.00	175.00	183.00	190.00	177.00	174.00	175.00	169.00	167.00	167.00	167.00	165.00	158.00	145.00	143.00	142.00	138.00	143.00	143.00	148.00	150.00	157.00	161.00	161.00	162.00	160.00	160.00	158.00	158.00	153.00	151.00	151.00	150.00	150.00	150.00	149.00	147.00	149.00	147.00	148.00	152.00	157.00	161.00	169.00	174.00	169.00	173.00	184.00	197.00	223.00	206.00	208.00	207.00	192.00	183.00	167.00	147.00	142.00	134.00	124.00	121.00	113.00	115.00	108.00	112.00	117.00	109.00	104.00	101.00	104.00	103.00	102.00	91.00	86.00	89.00	91.00	91.00	90.00	90.00	91.00	88.00	89.00	90.00	98.00	108.00	109.00	108.00	104.00	100.00	100.00	102.00	105.00	107.00	110.00	111.00	112.00	114.00	116.00	120.00	121.00	123.00	126.00	132.00	131.00	131.00	131.00	135.00	135.00	131.00	131.00	137.00	136.00	142.00	150.00	144.00	141.00	145.00	148.00	152.00	159.00	169.00	186.00	167.00	164.00	157.00	164.00	166.00	179.00	189.00	179.00	179.00	163.00	156.00	151.00	146.00	148.00	157.00	174.00	175.00	173.00	180.00	188.00	203.00	232.00	231.00	223.00	232.00	258.00	252.00	238.00	220.00	217.00	218.00	223.00	241.00	244.00	242.00	266.00	269.00	244.00	265.00	247.00	232.00	212.00	196.00	177.00	175.00	169.00	165.00	160.00	154.00	151.00	147.00	145.00	142.00	140.00	139.00	139.00	145.00	141.00	142.00	142.00	142.00	147.00	149.00	153.00	159.00	172.00	174.00	176.00	177.00	170.00	181.00	192.00
395.00	386.00	382.00	383.00	395.00	394.00	361.00	319.00	298.00	285.00	288.00	282.00	265.00	261.00	259.00	248.00	237.00	240.00	248.00	251.00	247.00	236.00	232.00	228.00	228.00	223.00	220.00	221.00	214.00	211.00	210.00	205.00	208.00	210.00	209.00	204.00	200.00	195.00	197.00	199.00	197.00	196.00	191.00	185.00	182.00	179.00	175.00	181.00	171.00	171.00	170.00	171.00	166.00	158.00	163.00	168.00	166.00	164.00	163.00	166.00	166.00	153.00	152.00	159.00	177.00	189.00	182.00	172.00	166.00	162.00	163.00	164.00	165.00	163.00	156.00	147.00	144.00	144.00	142.00	139.00	138.00	141.00	143.00	154.00	155.00	157.00	159.00	160.00	159.00	158.00	156.00	156.00	150.00	150.00	149.00	148.00	149.00	147.00	146.00	148.00	145.00	152.00	153.00	151.00	156.00	157.00	157.00	161.00	170.00	175.00	186.00	208.00	230.00	242.00	229.00	165.00	161.00	163.00	159.00	160.00	150.00	130.00	123.00	119.00	116.00	115.00	118.00	116.00	119.00	116.00	110.00	109.00	111.00	104.00	92.00	89.00	89.00	89.00	91.00	91.00	90.00	89.00	89.00	89.00	90.00	97.00	104.00	105.00	113.00	132.00	118.00	107.00	104.00	105.00	106.00	109.00	110.00	111.00	112.00	115.00	117.00	120.00	122.00	125.00	126.00	126.00	122.00	125.00	125.00	124.00	124.00	128.00	128.00	136.00	133.00	136.00	135.00	135.00	150.00	158.00	158.00	160.00	183.00	191.00	175.00	166.00	163.00	169.00	179.00	192.00	210.00	220.00	198.00	182.00	175.00	177.00	160.00	154.00	153.00	154.00	159.00	168.00	177.00	180.00	189.00	205.00	215.00	232.00	257.00	275.00	258.00	240.00	231.00	216.00	205.00	208.00	213.00	215.00	230.00	239.00	223.00	221.00	236.00	254.00	261.00	238.00	253.00	181.00	174.00	171.00	166.00	158.00	154.00	151.00	149.00	144.00	142.00	143.00	141.00	141.00	141.00	144.00	144.00	143.00	144.00	144.00	145.00	152.00	156.00	161.00	164.00	164.00	164.00	166.00	176.00	182.00
403.00	405.00	388.00	383.00	384.00	378.00	342.00	311.00	305.00	285.00	274.00	273.00	268.00	259.00	262.00	251.00	224.00	225.00	232.00	240.00	243.00	237.00	232.00	234.00	234.00	226.00	227.00	220.00	217.00	211.00	206.00	206.00	203.00	205.00	203.00	198.00	195.00	197.00	192.00	194.00	195.00	196.00	192.00	186.00	181.00	181.00	179.00	179.00	170.00	170.00	168.00	165.00	162.00	162.00	165.00	169.00	171.00	168.00	168.00	169.00	166.00	155.00	151.00	155.00	174.00	192.00	188.00	177.00	169.00	162.00	162.00	162.00	164.00	162.00	161.00	154.00	150.00	149.00	148.00	140.00	139.00	142.00	144.00	149.00	154.00	157.00	158.00	160.00	158.00	159.00	152.00	155.00	151.00	149.00	149.00	149.00	149.00	152.00	150.00	143.00	139.00	148.00	148.00	146.00	148.00	150.00	157.00	160.00	168.00	176.00	193.00	206.00	221.00	242.00	248.00	176.00	190.00	194.00	185.00	163.00	154.00	131.00	129.00	135.00	122.00	119.00	121.00	122.00	125.00	119.00	111.00	111.00	109.00	106.00	92.00	90.00	89.00	90.00	90.00	90.00	90.00	90.00	90.00	90.00	91.00	94.00	99.00	106.00	132.00	248.00	192.00	120.00	112.00	106.00	107.00	110.00	110.00	113.00	114.00	115.00	118.00	120.00	123.00	125.00	126.00	124.00	121.00	121.00	120.00	122.00	127.00	124.00	129.00	129.00	130.00	131.00	134.00	139.00	143.00	150.00	153.00	160.00	177.00	179.00	171.00	164.00	165.00	173.00	174.00	184.00	197.00	221.00	198.00	199.00	179.00	189.00	169.00	160.00	155.00	153.00	155.00	159.00	168.00	176.00	203.00	226.00	233.00	244.00	271.00	271.00	253.00	255.00	246.00	226.00	203.00	202.00	204.00	207.00	219.00	221.00	208.00	206.00	215.00	224.00	225.00	214.00	233.00	178.00	176.00	181.00	172.00	159.00	155.00	153.00	148.00	145.00	141.00	141.00	141.00	143.00	142.00	143.00	142.00	143.00	143.00	144.00	146.00	150.00	157.00	161.00	160.00	159.00	162.00	171.00	174.00	181.00
406.00	412.00	388.00	369.00	363.00	354.00	319.00	291.00	283.00	276.00	271.00	267.00	262.00	256.00	249.00	242.00	224.00	223.00	224.00	225.00	228.00	235.00	233.00	230.00	222.00	228.00	229.00	223.00	224.00	220.00	216.00	212.00	207.00	204.00	203.00	198.00	200.00	202.00	192.00	189.00	189.00	188.00	188.00	186.00	185.00	182.00	176.00	174.00	171.00	169.00	172.00	170.00	166.00	172.00	174.00	176.00	176.00	171.00	167.00	166.00	165.00	155.00	152.00	153.00	171.00	173.00	193.00	184.00	172.00	161.00	162.00	163.00	160.00	160.00	160.00	159.00	156.00	161.00	158.00	137.00	137.00	140.00	143.00	149.00	158.00	158.00	158.00	156.00	152.00	156.00	157.00	156.00	150.00	149.00	148.00	149.00	153.00	152.00	153.00	151.00	145.00	145.00	146.00	145.00	146.00	149.00	161.00	165.00	166.00	173.00	180.00	200.00	208.00	237.00	242.00	196.00	190.00	183.00	175.00	154.00	148.00	133.00	134.00	139.00	125.00	127.00	128.00	128.00	125.00	120.00	112.00	115.00	106.00	100.00	89.00	90.00	88.00	90.00	91.00	89.00	90.00	90.00	90.00	91.00	98.00	104.00	102.00	109.00	137.00	246.00	341.00	156.00	130.00	110.00	109.00	110.00	112.00	113.00	115.00	117.00	119.00	120.00	122.00	124.00	125.00	122.00	118.00	118.00	119.00	121.00	121.00	122.00	126.00	130.00	137.00	138.00	143.00	146.00	141.00	145.00	150.00	158.00	180.00	179.00	169.00	165.00	171.00	187.00	182.00	179.00	189.00	213.00	215.00	204.00	196.00	192.00	180.00	168.00	164.00	157.00	158.00	159.00	163.00	171.00	182.00	214.00	234.00	246.00	262.00	261.00	240.00	264.00	263.00	237.00	206.00	199.00	197.00	198.00	208.00	209.00	197.00	195.00	201.00	197.00	196.00	197.00	225.00	175.00	169.00	173.00	174.00	167.00	160.00	153.00	146.00	142.00	142.00	142.00	142.00	143.00	143.00	143.00	142.00	143.00	144.00	145.00	146.00	152.00	158.00	154.00	157.00	166.00	168.00	176.00	180.00	183.00
409.00	417.00	393.00	372.00	362.00	349.00	318.00	293.00	299.00	294.00	279.00	277.00	257.00	252.00	251.00	247.00	229.00	220.00	221.00	221.00	218.00	219.00	216.00	221.00	217.00	219.00	222.00	224.00	222.00	220.00	215.00	210.00	211.00	210.00	209.00	208.00	204.00	202.00	198.00	185.00	185.00	185.00	184.00	189.00	186.00	181.00	177.00	178.00	183.00	181.00	187.00	178.00	178.00	179.00	180.00	177.00	174.00	170.00	162.00	160.00	159.00	156.00	155.00	150.00	150.00	153.00	187.00	185.00	175.00	163.00	160.00	161.00	158.00	159.00	160.00	161.00	159.00	155.00	153.00	137.00	136.00	135.00	140.00	145.00	154.00	159.00	158.00	154.00	151.00	151.00	155.00	154.00	148.00	148.00	152.00	154.00	154.00	153.00	152.00	152.00	148.00	144.00	144.00	146.00	149.00	149.00	162.00	166.00	162.00	167.00	180.00	202.00	195.00	213.00	243.00	248.00	187.00	162.00	154.00	143.00	156.00	151.00	142.00	138.00	133.00	134.00	130.00	127.00	122.00	116.00	116.00	118.00	108.00	113.00	94.00	89.00	89.00	91.00	90.00	93.00	90.00	90.00	90.00	92.00	99.00	107.00	105.00	109.00	122.00	217.00	370.00	229.00	149.00	112.00	112.00	110.00	111.00	113.00	114.00	116.00	119.00	120.00	122.00	123.00	118.00	115.00	117.00	123.00	127.00	127.00	128.00	131.00	134.00	139.00	142.00	142.00	144.00	150.00	151.00	150.00	154.00	163.00	176.00	182.00	175.00	167.00	174.00	197.00	196.00	184.00	192.00	207.00	229.00	216.00	208.00	210.00	186.00	184.00	180.00	167.00	159.00	158.00	161.00	170.00	177.00	200.00	208.00	212.00	222.00	240.00	248.00	254.00	264.00	251.00	205.00	199.00	193.00	192.00	191.00	187.00	189.00	189.00	193.00	183.00	182.00	186.00	211.00	191.00	167.00	165.00	167.00	166.00	163.00	149.00	144.00	143.00	144.00	143.00	143.00	144.00	143.00	146.00	145.00	145.00	144.00	146.00	147.00	151.00	152.00	154.00	161.00	172.00	177.00	178.00	185.00	188.00
400.00	412.00	401.00	364.00	351.00	343.00	343.00	313.00	304.00	301.00	303.00	291.00	271.00	275.00	271.00	260.00	238.00	230.00	219.00	215.00	215.00	208.00	206.00	202.00	204.00	207.00	218.00	224.00	223.00	219.00	218.00	212.00	207.00	201.00	207.00	205.00	203.00	201.00	196.00	193.00	194.00	194.00	189.00	179.00	184.00	187.00	185.00	183.00	191.00	186.00	188.00	186.00	180.00	177.00	176.00	172.00	166.00	162.00	161.00	163.00	164.00	152.00	149.00	152.00	152.00	150.00	165.00	174.00	171.00	164.00	161.00	156.00	160.00	160.00	158.00	162.00	161.00	157.00	149.00	140.00	140.00	138.00	139.00	144.00	150.00	154.00	152.00	153.00	151.00	151.00	150.00	151.00	152.00	153.00	154.00	154.00	152.00	149.00	148.00	146.00	145.00	140.00	144.00	146.00	146.00	148.00	153.00	154.00	159.00	162.00	173.00	191.00	200.00	200.00	206.00	246.00	257.00	196.00	185.00	185.00	171.00	156.00	154.00	152.00	140.00	131.00	122.00	124.00	125.00	126.00	132.00	133.00	118.00	112.00	92.00	90.00	89.00	91.00	91.00	90.00	90.00	89.00	91.00	96.00	107.00	108.00	111.00	110.00	113.00	124.00	162.00	189.00	133.00	114.00	114.00	113.00	112.00	113.00	114.00	115.00	118.00	119.00	117.00	117.00	112.00	118.00	126.00	126.00	131.00	133.00	131.00	130.00	129.00	126.00	129.00	132.00	135.00	137.00	143.00	145.00	144.00	148.00	159.00	166.00	185.00	177.00	175.00	195.00	208.00	202.00	197.00	223.00	234.00	229.00	225.00	270.00	219.00	221.00	196.00	188.00	168.00	166.00	164.00	166.00	169.00	182.00	186.00	193.00	205.00	223.00	246.00	217.00	218.00	223.00	201.00	197.00	185.00	184.00	186.00	185.00	178.00	172.00	168.00	167.00	167.00	166.00	165.00	161.00	157.00	156.00	156.00	151.00	149.00	146.00	145.00	146.00	156.00	152.00	148.00	144.00	145.00	146.00	147.00	150.00	147.00	147.00	148.00	150.00	152.00	152.00	155.00	158.00	168.00	175.00	188.00	187.00
417.00	400.00	401.00	382.00	366.00	351.00	340.00	323.00	313.00	301.00	293.00	288.00	289.00	287.00	273.00	266.00	245.00	233.00	223.00	217.00	214.00	210.00	209.00	206.00	208.00	203.00	205.00	221.00	220.00	215.00	213.00	211.00	211.00	207.00	197.00	203.00	200.00	198.00	192.00	190.00	194.00	191.00	186.00	178.00	180.00	183.00	180.00	180.00	178.00	181.00	179.00	182.00	178.00	173.00	174.00	172.00	166.00	163.00	164.00	168.00	167.00	156.00	157.00	155.00	151.00	150.00	156.00	162.00	161.00	163.00	157.00	154.00	159.00	162.00	161.00	161.00	161.00	159.00	152.00	140.00	140.00	140.00	138.00	140.00	145.00	154.00	152.00	151.00	151.00	151.00	150.00	149.00	153.00	152.00	153.00	153.00	153.00	152.00	148.00	141.00	143.00	138.00	140.00	143.00	142.00	146.00	153.00	156.00	162.00	166.00	180.00	195.00	205.00	210.00	196.00	239.00	238.00	216.00	204.00	187.00	174.00	163.00	160.00	149.00	141.00	130.00	123.00	115.00	122.00	129.00	135.00	128.00	107.00	91.00	90.00	90.00	89.00	91.00	95.00	91.00	89.00	89.00	90.00	92.00	104.00	107.00	112.00	110.00	107.00	111.00	119.00	114.00	111.00	114.00	114.00	114.00	114.00	114.00	113.00	113.00	114.00	116.00	113.00	110.00	114.00	116.00	117.00	124.00	128.00	130.00	124.00	122.00	125.00	130.00	133.00	132.00	133.00	134.00	137.00	140.00	146.00	152.00	155.00	159.00	176.00	180.00	178.00	194.00	211.00	221.00	213.00	228.00	251.00	236.00	239.00	264.00	241.00	238.00	222.00	208.00	181.00	169.00	166.00	165.00	169.00	179.00	184.00	194.00	215.00	232.00	234.00	207.00	204.00	200.00	188.00	186.00	181.00	181.00	180.00	176.00	172.00	172.00	171.00	167.00	165.00	164.00	163.00	160.00	159.00	155.00	152.00	150.00	147.00	147.00	146.00	147.00	159.00	153.00	151.00	147.00	147.00	147.00	149.00	148.00	148.00	147.00	149.00	149.00	151.00	154.00	155.00	157.00	168.00	170.00	182.00	188.00
414.00	395.00	392.00	382.00	364.00	352.00	335.00	339.00	323.00	310.00	299.00	300.00	298.00	285.00	277.00	272.00	250.00	239.00	228.00	227.00	231.00	222.00	219.00	215.00	214.00	197.00	201.00	213.00	220.00	215.00	211.00	205.00	208.00	206.00	199.00	196.00	193.00	193.00	186.00	184.00	187.00	190.00	190.00	181.00	176.00	175.00	173.00	173.00	169.00	170.00	172.00	177.00	178.00	175.00	170.00	169.00	169.00	170.00	168.00	168.00	167.00	163.00	159.00	158.00	151.00	150.00	153.00	150.00	146.00	158.00	152.00	153.00	159.00	161.00	161.00	160.00	160.00	157.00	149.00	141.00	138.00	139.00	136.00	139.00	146.00	149.00	151.00	152.00	150.00	150.00	149.00	149.00	149.00	153.00	153.00	152.00	152.00	152.00	149.00	145.00	140.00	137.00	140.00	141.00	143.00	146.00	153.00	161.00	161.00	163.00	173.00	188.00	191.00	192.00	184.00	213.00	207.00	228.00	223.00	193.00	187.00	174.00	162.00	149.00	131.00	118.00	113.00	111.00	106.00	106.00	102.00	98.00	91.00	90.00	91.00	91.00	90.00	92.00	95.00	92.00	90.00	90.00	90.00	91.00	98.00	105.00	110.00	109.00	103.00	103.00	105.00	110.00	111.00	113.00	114.00	115.00	115.00	113.00	112.00	112.00	111.00	115.00	111.00	107.00	111.00	111.00	112.00	117.00	121.00	122.00	120.00	125.00	131.00	135.00	139.00	139.00	142.00	142.00	138.00	139.00	143.00	149.00	153.00	159.00	169.00	180.00	183.00	191.00	205.00	221.00	226.00	226.00	258.00	263.00	252.00	285.00	265.00	255.00	235.00	210.00	186.00	175.00	168.00	169.00	172.00	194.00	186.00	204.00	217.00	229.00	206.00	199.00	196.00	193.00	185.00	181.00	179.00	176.00	176.00	173.00	172.00	174.00	175.00	179.00	174.00	168.00	166.00	157.00	156.00	154.00	154.00	149.00	148.00	148.00	148.00	149.00	161.00	156.00	156.00	151.00	148.00	148.00	148.00	148.00	149.00	147.00	148.00	151.00	151.00	153.00	154.00	154.00	159.00	165.00	182.00	182.00
414.00	410.00	423.00	395.00	372.00	365.00	349.00	340.00	332.00	323.00	311.00	307.00	305.00	285.00	270.00	266.00	248.00	244.00	238.00	235.00	236.00	220.00	216.00	212.00	207.00	196.00	194.00	219.00	216.00	209.00	212.00	205.00	203.00	202.00	200.00	200.00	198.00	196.00	188.00	185.00	182.00	181.00	185.00	186.00	182.00	179.00	179.00	175.00	176.00	170.00	171.00	175.00	177.00	177.00	174.00	173.00	174.00	170.00	167.00	166.00	164.00	162.00	160.00	155.00	151.00	150.00	149.00	149.00	145.00	149.00	154.00	149.00	154.00	160.00	161.00	159.00	159.00	158.00	154.00	142.00	139.00	136.00	134.00	135.00	141.00	149.00	155.00	152.00	150.00	150.00	149.00	148.00	149.00	149.00	151.00	152.00	152.00	149.00	147.00	145.00	141.00	140.00	139.00	141.00	142.00	142.00	151.00	155.00	157.00	154.00	165.00	178.00	174.00	174.00	180.00	188.00	214.00	226.00	241.00	215.00	203.00	176.00	161.00	148.00	131.00	120.00	123.00	113.00	107.00	106.00	101.00	99.00	92.00	90.00	91.00	91.00	91.00	94.00	94.00	91.00	90.00	90.00	91.00	91.00	92.00	95.00	106.00	104.00	99.00	108.00	111.00	112.00	111.00	112.00	110.00	115.00	115.00	114.00	111.00	111.00	110.00	112.00	111.00	107.00	119.00	118.00	116.00	114.00	116.00	117.00	120.00	125.00	126.00	129.00	136.00	139.00	141.00	143.00	142.00	141.00	142.00	144.00	155.00	155.00	167.00	175.00	185.00	188.00	196.00	215.00	238.00	235.00	254.00	286.00	278.00	278.00	255.00	254.00	253.00	232.00	199.00	182.00	171.00	172.00	177.00	214.00	205.00	198.00	217.00	224.00	201.00	196.00	192.00	190.00	182.00	179.00	176.00	175.00	178.00	175.00	175.00	177.00	182.00	181.00	177.00	172.00	166.00	157.00	154.00	151.00	153.00	152.00	150.00	149.00	155.00	161.00	165.00	160.00	158.00	154.00	150.00	149.00	149.00	149.00	148.00	148.00	151.00	150.00	152.00	153.00	155.00	154.00	156.00	167.00	179.00	172.00
440.00	437.00	436.00	414.00	392.00	386.00	354.00	328.00	327.00	324.00	319.00	319.00	290.00	302.00	292.00	285.00	271.00	279.00	259.00	243.00	231.00	215.00	214.00	202.00	200.00	193.00	195.00	204.00	199.00	196.00	204.00	206.00	210.00	207.00	198.00	194.00	190.00	188.00	190.00	185.00	183.00	180.00	176.00	183.00	188.00	189.00	189.00	185.00	171.00	165.00	166.00	164.00	161.00	162.00	167.00	171.00	169.00	166.00	168.00	166.00	165.00	161.00	161.00	159.00	156.00	155.00	153.00	156.00	148.00	142.00	154.00	157.00	151.00	143.00	147.00	153.00	158.00	155.00	147.00	141.00	133.00	132.00	134.00	132.00	135.00	143.00	149.00	151.00	151.00	150.00	150.00	149.00	148.00	147.00	148.00	154.00	151.00	150.00	148.00	149.00	148.00	135.00	136.00	143.00	149.00	146.00	148.00	143.00	144.00	149.00	165.00	161.00	161.00	162.00	170.00	172.00	175.00	197.00	210.00	196.00	186.00	154.00	144.00	141.00	128.00	125.00	122.00	120.00	134.00	134.00	108.00	101.00	94.00	90.00	92.00	91.00	91.00	92.00	91.00	91.00	91.00	92.00	92.00	91.00	92.00	92.00	93.00	93.00	97.00	108.00	112.00	112.00	112.00	107.00	108.00	114.00	113.00	113.00	111.00	106.00	111.00	110.00	111.00	106.00	115.00	118.00	125.00	126.00	123.00	118.00	124.00	129.00	132.00	140.00	133.00	132.00	134.00	136.00	144.00	149.00	154.00	156.00	154.00	163.00	171.00	174.00	170.00	175.00	189.00	209.00	252.00	271.00	238.00	249.00	261.00	278.00	243.00	232.00	225.00	215.00	208.00	187.00	178.00	175.00	181.00	232.00	235.00	217.00	204.00	215.00	202.00	194.00	189.00	187.00	182.00	180.00	186.00	187.00	187.00	186.00	185.00	182.00	174.00	172.00	170.00	167.00	163.00	155.00	152.00	152.00	152.00	156.00	158.00	160.00	162.00	163.00	165.00	161.00	158.00	156.00	158.00	153.00	152.00	149.00	149.00	149.00	152.00	150.00	152.00	153.00	155.00	155.00	154.00	157.00	161.00	162.00
440.00	437.00	436.00	414.00	392.00	386.00	354.00	328.00	327.00	324.00	319.00	319.00	290.00	302.00	292.00	285.00	271.00	279.00	259.00	243.00	231.00	215.00	214.00	202.00	200.00	193.00	195.00	204.00	199.00	196.00	204.00	206.00	210.00	207.00	198.00	194.00	190.00	188.00	190.00	185.00	183.00	180.00	176.00	183.00	188.00	189.00	189.00	185.00	171.00	165.00	166.00	164.00	161.00	162.00	167.00	171.00	169.00	166.00	168.00	166.00	165.00	161.00	161.00	159.00	156.00	155.00	153.00	156.00	148.00	142.00	154.00	157.00	151.00	143.00	147.00	153.00	158.00	155.00	147.00	141.00	133.00	132.00	134.00	132.00	135.00	143.00	149.00	151.00	151.00	150.00	150.00	149.00	148.00	147.00	148.00	154.00	151.00	150.00	148.00	149.00	148.00	135.00	136.00	143.00	149.00	146.00	148.00	143.00	144.00	149.00	165.00	161.00	161.00	162.00	170.00	172.00	175.00	197.00	210.00	196.00	186.00	154.00	144.00	141.00	128.00	125.00	122.00	120.00	134.00	134.00	108.00	101.00	94.00	90.00	92.00	91.00	91.00	92.00	91.00	91.00	91.00	92.00	92.00	91.00	92.00	92.00	93.00	93.00	97.00	108.00	112.00	112.00	112.00	107.00	108.00	114.00	113.00	113.00	111.00	106.00	111.00	110.00	111.00	106.00	115.00	118.00	125.00	126.00	123.00	118.00	124.00	129.00	132.00	140.00	133.00	132.00	134.00	136.00	144.00	149.00	154.00	156.00	154.00	163.00	171.00	174.00	170.00	175.00	189.00	209.00	252.00	271.00	238.00	249.00	261.00	278.00	243.00	232.00	225.00	215.00	208.00	187.00	178.00	175.00	181.00	232.00	235.00	217.00	204.00	215.00	202.00	194.00	189.00	187.00	182.00	180.00	186.00	187.00	187.00	186.00	185.00	182.00	174.00	172.00	170.00	167.00	163.00	155.00	152.00	152.00	152.00	156.00	158.00	160.00	162.00	163.00	165.00	161.00	158.00	156.00	158.00	153.00	152.00	149.00	149.00	149.00	152.00	150.00	152.00	153.00	155.00	155.00	154.00	157.00	161.00	162.00
437.00	402.00	404.00	414.00	408.00	390.00	350.00	323.00	331.00	338.00	320.00	307.00	302.00	308.00	301.00	296.00	283.00	281.00	258.00	244.00	232.00	205.00	200.00	204.00	207.00	193.00	193.00	196.00	193.00	191.00	193.00	196.00	201.00	192.00	185.00	194.00	191.00	189.00	184.00	181.00	182.00	182.00	177.00	177.00	182.00	183.00	184.00	180.00	176.00	168.00	167.00	167.00	162.00	160.00	161.00	163.00	163.00	162.00	168.00	167.00	166.00	166.00	165.00	162.00	162.00	159.00	158.00	155.00	156.00	145.00	148.00	153.00	150.00	141.00	142.00	150.00	148.00	145.00	142.00	143.00	135.00	131.00	132.00	133.00	134.00	144.00	148.00	152.00	153.00	150.00	150.00	149.00	148.00	148.00	147.00	148.00	150.00	153.00	152.00	149.00	146.00	138.00	136.00	142.00	144.00	144.00	139.00	141.00	143.00	151.00	155.00	154.00	154.00	159.00	163.00	172.00	185.00	188.00	182.00	194.00	175.00	165.00	148.00	139.00	153.00	152.00	133.00	135.00	125.00	109.00	103.00	98.00	92.00	91.00	91.00	90.00	91.00	92.00	90.00	91.00	92.00	90.00	92.00	92.00	92.00	92.00	92.00	93.00	93.00	101.00	107.00	108.00	111.00	104.00	101.00	107.00	106.00	110.00	107.00	105.00	110.00	108.00	109.00	104.00	110.00	116.00	121.00	125.00	131.00	125.00	124.00	131.00	134.00	146.00	148.00	141.00	137.00	139.00	143.00	147.00	154.00	160.00	160.00	165.00	174.00	166.00	161.00	171.00	179.00	194.00	224.00	277.00	227.00	221.00	235.00	258.00	248.00	231.00	228.00	219.00	198.00	190.00	187.00	181.00	181.00	240.00	241.00	228.00	210.00	211.00	203.00	197.00	194.00	188.00	183.00	184.00	192.00	194.00	225.00	206.00	189.00	184.00	175.00	173.00	171.00	166.00	164.00	154.00	154.00	154.00	155.00	162.00	163.00	166.00	169.00	173.00	175.00	169.00	165.00	161.00	158.00	152.00	149.00	149.00	149.00	150.00	150.00	150.00	151.00	152.00	154.00	156.00	156.00	157.00	159.00	162.00
415.00	377.00	395.00	406.00	383.00	376.00	351.00	332.00	316.00	331.00	317.00	309.00	308.00	312.00	307.00	311.00	286.00	270.00	252.00	236.00	226.00	208.00	206.00	211.00	209.00	194.00	194.00	192.00	191.00	189.00	188.00	194.00	188.00	187.00	187.00	190.00	183.00	183.00	186.00	184.00	180.00	179.00	180.00	170.00	171.00	176.00	182.00	177.00	177.00	173.00	171.00	171.00	167.00	165.00	161.00	159.00	160.00	157.00	162.00	163.00	164.00	165.00	165.00	164.00	161.00	159.00	157.00	152.00	152.00	149.00	149.00	149.00	147.00	141.00	142.00	143.00	143.00	139.00	136.00	137.00	133.00	130.00	131.00	132.00	130.00	134.00	143.00	146.00	153.00	153.00	149.00	149.00	148.00	147.00	148.00	148.00	147.00	153.00	151.00	146.00	142.00	134.00	134.00	138.00	139.00	139.00	142.00	142.00	148.00	156.00	148.00	149.00	151.00	152.00	153.00	168.00	175.00	169.00	165.00	193.00	205.00	188.00	170.00	145.00	156.00	160.00	144.00	136.00	105.00	102.00	97.00	93.00	94.00	92.00	92.00	92.00	91.00	91.00	90.00	90.00	91.00	90.00	92.00	92.00	92.00	92.00	93.00	93.00	92.00	94.00	98.00	112.00	111.00	99.00	98.00	99.00	99.00	103.00	103.00	103.00	107.00	106.00	104.00	102.00	113.00	115.00	118.00	125.00	128.00	130.00	127.00	128.00	135.00	148.00	160.00	156.00	148.00	147.00	147.00	149.00	155.00	156.00	159.00	165.00	165.00	164.00	156.00	164.00	169.00	179.00	190.00	218.00	211.00	226.00	237.00	253.00	260.00	248.00	238.00	225.00	220.00	206.00	205.00	196.00	185.00	235.00	256.00	236.00	218.00	208.00	205.00	197.00	194.00	190.00	187.00	187.00	201.00	210.00	233.00	218.00	190.00	183.00	174.00	171.00	169.00	166.00	162.00	156.00	155.00	154.00	157.00	165.00	168.00	172.00	179.00	187.00	205.00	184.00	173.00	167.00	157.00	149.00	148.00	149.00	150.00	152.00	151.00	151.00	151.00	154.00	155.00	157.00	157.00	156.00	159.00	167.00
427.00	366.00	370.00	409.00	390.00	364.00	334.00	301.00	294.00	300.00	300.00	315.00	284.00	276.00	280.00	289.00	253.00	248.00	238.00	230.00	225.00	213.00	204.00	201.00	198.00	199.00	200.00	193.00	193.00	191.00	188.00	187.00	190.00	189.00	182.00	182.00	179.00	180.00	182.00	178.00	178.00	182.00	179.00	174.00	170.00	165.00	165.00	171.00	164.00	163.00	166.00	166.00	162.00	162.00	163.00	162.00	161.00	156.00	155.00	154.00	158.00	166.00	165.00	164.00	162.00	160.00	155.00	154.00	148.00	144.00	150.00	149.00	148.00	145.00	141.00	136.00	136.00	135.00	133.00	132.00	132.00	131.00	130.00	130.00	128.00	129.00	137.00	142.00	152.00	147.00	144.00	149.00	148.00	147.00	149.00	146.00	146.00	146.00	145.00	144.00	143.00	134.00	140.00	144.00	143.00	147.00	154.00	150.00	146.00	139.00	139.00	142.00	144.00	144.00	146.00	149.00	153.00	158.00	167.00	201.00	222.00	188.00	187.00	180.00	133.00	132.00	123.00	118.00	111.00	105.00	100.00	97.00	93.00	93.00	93.00	93.00	92.00	92.00	91.00	91.00	91.00	91.00	92.00	91.00	92.00	92.00	92.00	93.00	93.00	93.00	94.00	94.00	94.00	95.00	95.00	96.00	96.00	97.00	97.00	99.00	100.00	100.00	100.00	101.00	110.00	113.00	115.00	117.00	123.00	126.00	129.00	135.00	138.00	141.00	144.00	147.00	150.00	153.00	153.00	153.00	150.00	148.00	154.00	156.00	153.00	155.00	153.00	155.00	161.00	169.00	173.00	185.00	187.00	201.00	202.00	216.00	234.00	264.00	259.00	247.00	233.00	223.00	224.00	211.00	199.00	228.00	247.00	244.00	252.00	210.00	214.00	212.00	203.00	195.00	193.00	196.00	215.00	214.00	201.00	210.00	191.00	180.00	170.00	168.00	165.00	161.00	160.00	162.00	161.00	161.00	165.00	168.00	177.00	202.00	237.00	245.00	238.00	233.00	208.00	173.00	156.00	151.00	149.00	149.00	150.00	150.00	152.00	152.00	153.00	155.00	156.00	157.00	159.00	158.00	160.00	163.00
402.00	373.00	354.00	385.00	382.00	364.00	325.00	296.00	287.00	278.00	286.00	289.00	270.00	264.00	264.00	268.00	244.00	242.00	229.00	223.00	209.00	206.00	203.00	203.00	202.00	211.00	210.00	202.00	200.00	189.00	192.00	198.00	196.00	191.00	181.00	181.00	180.00	182.00	175.00	177.00	174.00	177.00	175.00	168.00	169.00	166.00	163.00	167.00	166.00	169.00	170.00	167.00	168.00	167.00	163.00	164.00	166.00	156.00	157.00	155.00	156.00	162.00	163.00	163.00	162.00	161.00	160.00	158.00	154.00	147.00	147.00	147.00	145.00	141.00	135.00	137.00	135.00	134.00	133.00	131.00	133.00	131.00	131.00	131.00	130.00	130.00	133.00	138.00	141.00	143.00	143.00	146.00	143.00	143.00	149.00	148.00	146.00	145.00	144.00	143.00	145.00	132.00	133.00	133.00	136.00	136.00	143.00	140.00	132.00	129.00	136.00	140.00	140.00	142.00	142.00	150.00	156.00	163.00	171.00	197.00	214.00	220.00	196.00	181.00	139.00	130.00	123.00	116.00	109.00	105.00	101.00	98.00	94.00	95.00	93.00	93.00	93.00	92.00	92.00	92.00	91.00	91.00	92.00	92.00	91.00	92.00	92.00	93.00	94.00	94.00	94.00	95.00	94.00	96.00	96.00	96.00	96.00	98.00	98.00	99.00	100.00	101.00	104.00	107.00	116.00	117.00	119.00	121.00	121.00	119.00	121.00	130.00	134.00	138.00	141.00	140.00	142.00	144.00	144.00	144.00	145.00	147.00	145.00	145.00	145.00	147.00	147.00	154.00	158.00	163.00	170.00	179.00	183.00	184.00	187.00	223.00	213.00	244.00	242.00	234.00	238.00	230.00	232.00	235.00	216.00	218.00	233.00	248.00	241.00	220.00	242.00	226.00	227.00	207.00	197.00	199.00	201.00	198.00	191.00	193.00	184.00	178.00	170.00	167.00	163.00	163.00	161.00	164.00	166.00	166.00	168.00	171.00	179.00	201.00	239.00	250.00	224.00	222.00	222.00	170.00	156.00	150.00	149.00	150.00	152.00	152.00	151.00	154.00	154.00	156.00	156.00	157.00	158.00	158.00	158.00	164.00
431.00	360.00	355.00	395.00	370.00	360.00	331.00	296.00	280.00	267.00	269.00	266.00	271.00	278.00	270.00	259.00	231.00	227.00	221.00	214.00	206.00	205.00	209.00	208.00	211.00	220.00	211.00	211.00	202.00	197.00	193.00	202.00	200.00	192.00	186.00	184.00	185.00	185.00	173.00	169.00	168.00	167.00	170.00	168.00	171.00	165.00	161.00	165.00	171.00	171.00	169.00	166.00	164.00	164.00	166.00	165.00	164.00	162.00	160.00	152.00	154.00	158.00	161.00	162.00	160.00	160.00	157.00	157.00	156.00	150.00	151.00	144.00	142.00	138.00	137.00	137.00	135.00	133.00	138.00	135.00	138.00	138.00	136.00	131.00	130.00	131.00	130.00	136.00	137.00	135.00	136.00	140.00	136.00	144.00	147.00	148.00	145.00	144.00	144.00	144.00	144.00	138.00	135.00	136.00	136.00	135.00	134.00	135.00	132.00	131.00	133.00	137.00	135.00	138.00	139.00	148.00	154.00	161.00	169.00	185.00	207.00	225.00	190.00	167.00	139.00	149.00	127.00	115.00	106.00	102.00	99.00	97.00	92.00	93.00	93.00	93.00	94.00	93.00	92.00	92.00	91.00	92.00	93.00	93.00	94.00	93.00	90.00	92.00	92.00	92.00	93.00	93.00	95.00	96.00	98.00	96.00	96.00	97.00	99.00	100.00	104.00	107.00	110.00	112.00	115.00	116.00	116.00	117.00	116.00	119.00	121.00	123.00	129.00	136.00	138.00	136.00	137.00	138.00	142.00	143.00	142.00	142.00	140.00	142.00	142.00	144.00	146.00	153.00	158.00	165.00	169.00	174.00	176.00	179.00	182.00	200.00	202.00	215.00	216.00	210.00	234.00	231.00	226.00	239.00	232.00	215.00	232.00	250.00	239.00	232.00	274.00	249.00	235.00	227.00	199.00	195.00	194.00	196.00	184.00	181.00	178.00	178.00	170.00	166.00	165.00	164.00	161.00	166.00	170.00	170.00	170.00	171.00	176.00	184.00	219.00	246.00	225.00	193.00	197.00	164.00	152.00	150.00	152.00	153.00	151.00	152.00	153.00	153.00	156.00	154.00	156.00	156.00	159.00	159.00	159.00	162.00
375.00	345.00	344.00	363.00	366.00	351.00	317.00	292.00	278.00	273.00	260.00	261.00	268.00	277.00	265.00	261.00	240.00	232.00	227.00	219.00	209.00	211.00	220.00	218.00	224.00	217.00	219.00	207.00	205.00	213.00	204.00	212.00	206.00	201.00	199.00	191.00	189.00	185.00	172.00	168.00	168.00	165.00	166.00	169.00	172.00	175.00	172.00	169.00	173.00	173.00	172.00	169.00	166.00	170.00	170.00	163.00	157.00	154.00	153.00	151.00	154.00	153.00	155.00	161.00	161.00	161.00	153.00	153.00	152.00	150.00	150.00	144.00	140.00	137.00	137.00	137.00	135.00	139.00	140.00	147.00	141.00	141.00	134.00	131.00	130.00	131.00	129.00	136.00	131.00	128.00	127.00	129.00	129.00	140.00	147.00	148.00	147.00	144.00	144.00	144.00	148.00	145.00	142.00	136.00	134.00	134.00	130.00	131.00	132.00	134.00	131.00	131.00	132.00	136.00	137.00	146.00	150.00	154.00	156.00	177.00	188.00	226.00	192.00	168.00	148.00	130.00	122.00	115.00	107.00	103.00	97.00	95.00	93.00	93.00	93.00	94.00	95.00	92.00	92.00	92.00	92.00	92.00	92.00	93.00	94.00	93.00	92.00	94.00	93.00	91.00	94.00	94.00	96.00	97.00	97.00	97.00	97.00	96.00	97.00	98.00	103.00	103.00	105.00	108.00	110.00	113.00	113.00	113.00	116.00	123.00	125.00	124.00	126.00	129.00	132.00	133.00	135.00	137.00	136.00	133.00	133.00	135.00	137.00	139.00	144.00	147.00	148.00	152.00	158.00	163.00	165.00	169.00	174.00	177.00	172.00	177.00	198.00	200.00	200.00	205.00	219.00	211.00	214.00	233.00	235.00	217.00	230.00	245.00	246.00	236.00	254.00	247.00	231.00	223.00	215.00	199.00	187.00	183.00	180.00	177.00	175.00	172.00	169.00	168.00	169.00	167.00	163.00	168.00	173.00	173.00	171.00	171.00	176.00	182.00	204.00	243.00	187.00	176.00	170.00	166.00	153.00	152.00	152.00	153.00	151.00	152.00	153.00	156.00	156.00	156.00	155.00	156.00	159.00	161.00	160.00	163.00
417.00	410.00	381.00	351.00	327.00	346.00	306.00	282.00	274.00	269.00	263.00	256.00	242.00	250.00	270.00	254.00	230.00	223.00	215.00	213.00	216.00	232.00	233.00	234.00	229.00	226.00	226.00	216.00	210.00	211.00	211.00	203.00	203.00	205.00	197.00	195.00	193.00	186.00	170.00	168.00	169.00	172.00	175.00	183.00	183.00	183.00	183.00	183.00	177.00	174.00	174.00	173.00	168.00	163.00	159.00	158.00	161.00	166.00	160.00	154.00	153.00	152.00	149.00	151.00	147.00	144.00	153.00	152.00	149.00	145.00	142.00	139.00	138.00	139.00	139.00	138.00	142.00	154.00	154.00	154.00	146.00	143.00	138.00	128.00	130.00	130.00	130.00	131.00	128.00	127.00	128.00	127.00	127.00	139.00	142.00	145.00	145.00	144.00	141.00	145.00	147.00	146.00	146.00	145.00	143.00	140.00	130.00	129.00	130.00	130.00	132.00	131.00	131.00	133.00	134.00	137.00	139.00	140.00	147.00	156.00	156.00	190.00	208.00	175.00	144.00	148.00	145.00	142.00	135.00	132.00	101.00	96.00	94.00	96.00	94.00	96.00	99.00	94.00	93.00	93.00	93.00	92.00	95.00	93.00	92.00	92.00	93.00	94.00	94.00	93.00	93.00	96.00	96.00	97.00	97.00	98.00	98.00	98.00	100.00	100.00	100.00	101.00	107.00	110.00	118.00	119.00	118.00	117.00	113.00	114.00	116.00	118.00	122.00	132.00	128.00	127.00	126.00	127.00	133.00	139.00	141.00	145.00	143.00	145.00	153.00	156.00	162.00	164.00	162.00	161.00	165.00	167.00	164.00	166.00	163.00	175.00	186.00	182.00	179.00	192.00	186.00	201.00	217.00	229.00	212.00	222.00	224.00	231.00	244.00	254.00	244.00	244.00	256.00	254.00	262.00	236.00	194.00	186.00	182.00	180.00	178.00	180.00	174.00	178.00	177.00	175.00	169.00	179.00	176.00	177.00	176.00	176.00	177.00	178.00	181.00	186.00	174.00	168.00	162.00	157.00	155.00	155.00	156.00	160.00	162.00	155.00	156.00	154.00	155.00	157.00	158.00	157.00	157.00	158.00	160.00	162.00
394.00	391.00	353.00	331.00	345.00	373.00	321.00	291.00	279.00	275.00	280.00	270.00	254.00	244.00	238.00	231.00	242.00	233.00	216.00	217.00	222.00	232.00	240.00	234.00	230.00	225.00	221.00	218.00	221.00	217.00	209.00	201.00	195.00	193.00	187.00	181.00	180.00	178.00	174.00	175.00	175.00	181.00	191.00	184.00	184.00	184.00	182.00	177.00	169.00	166.00	167.00	164.00	161.00	162.00	163.00	162.00	166.00	168.00	162.00	159.00	155.00	154.00	149.00	149.00	149.00	146.00	152.00	148.00	149.00	141.00	139.00	137.00	137.00	140.00	139.00	143.00	144.00	152.00	161.00	149.00	139.00	135.00	135.00	129.00	130.00	132.00	132.00	131.00	129.00	127.00	126.00	126.00	127.00	130.00	131.00	141.00	143.00	144.00	143.00	143.00	145.00	146.00	146.00	146.00	147.00	146.00	139.00	141.00	139.00	131.00	129.00	129.00	129.00	130.00	131.00	134.00	140.00	139.00	139.00	150.00	149.00	186.00	212.00	205.00	183.00	177.00	165.00	144.00	129.00	117.00	107.00	98.00	94.00	94.00	92.00	94.00	97.00	94.00	94.00	93.00	92.00	93.00	94.00	91.00	93.00	92.00	93.00	94.00	94.00	94.00	94.00	94.00	95.00	98.00	99.00	98.00	98.00	99.00	100.00	101.00	101.00	102.00	103.00	106.00	114.00	115.00	111.00	109.00	110.00	115.00	115.00	115.00	117.00	122.00	124.00	126.00	131.00	133.00	138.00	142.00	145.00	148.00	149.00	152.00	157.00	161.00	164.00	167.00	169.00	168.00	169.00	164.00	159.00	158.00	159.00	168.00	181.00	176.00	174.00	185.00	179.00	190.00	203.00	204.00	200.00	232.00	233.00	238.00	249.00	257.00	252.00	269.00	281.00	274.00	236.00	245.00	197.00	191.00	190.00	184.00	184.00	183.00	179.00	184.00	183.00	176.00	170.00	182.00	179.00	180.00	181.00	179.00	179.00	176.00	175.00	178.00	168.00	163.00	159.00	157.00	157.00	156.00	162.00	166.00	160.00	156.00	155.00	154.00	156.00	158.00	157.00	158.00	158.00	158.00	163.00	164.00
470.00	399.00	364.00	334.00	351.00	379.00	334.00	297.00	293.00	293.00	296.00	280.00	261.00	253.00	245.00	228.00	231.00	219.00	214.00	223.00	231.00	246.00	243.00	239.00	236.00	227.00	223.00	219.00	217.00	209.00	202.00	201.00	205.00	206.00	183.00	181.00	179.00	175.00	177.00	186.00	189.00	192.00	192.00	183.00	182.00	182.00	178.00	180.00	173.00	175.00	170.00	166.00	166.00	168.00	170.00	166.00	168.00	167.00	160.00	154.00	156.00	158.00	148.00	148.00	150.00	151.00	151.00	149.00	149.00	145.00	138.00	138.00	137.00	141.00	141.00	147.00	147.00	149.00	159.00	151.00	138.00	139.00	142.00	136.00	137.00	132.00	132.00	132.00	129.00	129.00	128.00	128.00	128.00	127.00	130.00	136.00	144.00	138.00	139.00	141.00	144.00	143.00	145.00	144.00	145.00	145.00	144.00	145.00	144.00	142.00	133.00	129.00	126.00	129.00	129.00	133.00	135.00	135.00	137.00	142.00	150.00	187.00	206.00	226.00	190.00	145.00	138.00	128.00	138.00	109.00	105.00	103.00	95.00	94.00	94.00	94.00	95.00	96.00	93.00	93.00	94.00	94.00	92.00	93.00	93.00	94.00	94.00	95.00	95.00	94.00	94.00	94.00	94.00	97.00	96.00	100.00	101.00	99.00	98.00	99.00	101.00	102.00	103.00	104.00	109.00	109.00	108.00	108.00	112.00	120.00	123.00	119.00	116.00	120.00	127.00	134.00	137.00	138.00	141.00	143.00	143.00	145.00	152.00	154.00	157.00	162.00	163.00	160.00	159.00	164.00	158.00	156.00	152.00	154.00	157.00	171.00	175.00	167.00	170.00	177.00	176.00	188.00	194.00	188.00	192.00	236.00	242.00	249.00	259.00	258.00	266.00	282.00	264.00	252.00	220.00	216.00	215.00	210.00	194.00	193.00	191.00	184.00	187.00	201.00	194.00	178.00	171.00	177.00	178.00	182.00	186.00	181.00	179.00	178.00	174.00	171.00	163.00	161.00	160.00	160.00	158.00	159.00	161.00	166.00	164.00	160.00	156.00	155.00	156.00	157.00	159.00	159.00	159.00	160.00	163.00	165.00
415.00	365.00	342.00	370.00	362.00	360.00	339.00	311.00	305.00	312.00	299.00	280.00	273.00	263.00	253.00	231.00	220.00	218.00	223.00	237.00	245.00	243.00	235.00	237.00	237.00	229.00	227.00	219.00	215.00	213.00	210.00	209.00	204.00	195.00	184.00	185.00	184.00	178.00	184.00	194.00	193.00	190.00	186.00	187.00	179.00	178.00	181.00	180.00	175.00	173.00	172.00	168.00	170.00	173.00	173.00	170.00	168.00	163.00	161.00	160.00	163.00	159.00	149.00	151.00	153.00	153.00	149.00	148.00	146.00	146.00	139.00	139.00	142.00	143.00	142.00	148.00	149.00	150.00	154.00	149.00	140.00	140.00	142.00	142.00	141.00	135.00	131.00	133.00	129.00	130.00	125.00	127.00	126.00	126.00	130.00	137.00	144.00	128.00	134.00	134.00	137.00	139.00	143.00	145.00	145.00	145.00	144.00	143.00	143.00	143.00	139.00	129.00	127.00	128.00	128.00	133.00	132.00	132.00	134.00	139.00	149.00	177.00	196.00	206.00	156.00	150.00	150.00	139.00	117.00	122.00	113.00	100.00	96.00	96.00	93.00	93.00	94.00	95.00	94.00	94.00	93.00	94.00	93.00	94.00	93.00	94.00	95.00	95.00	94.00	94.00	95.00	94.00	95.00	95.00	98.00	98.00	103.00	103.00	100.00	99.00	101.00	102.00	102.00	103.00	105.00	106.00	107.00	110.00	115.00	123.00	126.00	124.00	119.00	119.00	125.00	127.00	129.00	130.00	133.00	136.00	138.00	143.00	151.00	152.00	158.00	161.00	162.00	157.00	151.00	154.00	150.00	147.00	148.00	152.00	156.00	167.00	166.00	163.00	167.00	168.00	172.00	176.00	178.00	181.00	194.00	239.00	255.00	258.00	264.00	262.00	263.00	272.00	260.00	242.00	226.00	226.00	231.00	235.00	212.00	199.00	192.00	188.00	192.00	198.00	195.00	179.00	172.00	175.00	178.00	183.00	186.00	178.00	176.00	177.00	172.00	170.00	162.00	162.00	164.00	162.00	161.00	162.00	161.00	166.00	167.00	159.00	155.00	155.00	155.00	157.00	158.00	159.00	159.00	160.00	164.00	163.00
370.00	371.00	390.00	383.00	453.00	412.00	377.00	340.00	327.00	304.00	291.00	294.00	274.00	267.00	255.00	239.00	240.00	250.00	248.00	246.00	234.00	222.00	219.00	216.00	211.00	211.00	221.00	216.00	212.00	206.00	189.00	186.00	186.00	188.00	193.00	188.00	184.00	184.00	199.00	201.00	195.00	194.00	193.00	198.00	192.00	184.00	181.00	186.00	177.00	176.00	173.00	170.00	174.00	173.00	172.00	171.00	170.00	170.00	168.00	167.00	167.00	164.00	164.00	159.00	160.00	163.00	160.00	153.00	154.00	149.00	144.00	147.00	147.00	148.00	148.00	148.00	150.00	154.00	155.00	145.00	141.00	141.00	144.00	145.00	143.00	139.00	135.00	132.00	129.00	129.00	125.00	125.00	129.00	127.00	128.00	130.00	131.00	123.00	123.00	123.00	126.00	134.00	138.00	139.00	137.00	141.00	143.00	145.00	144.00	142.00	143.00	138.00	135.00	132.00	129.00	126.00	125.00	125.00	128.00	138.00	149.00	175.00	195.00	224.00	207.00	192.00	166.00	154.00	148.00	115.00	105.00	102.00	95.00	103.00	95.00	95.00	95.00	96.00	95.00	94.00	93.00	93.00	96.00	95.00	95.00	95.00	95.00	95.00	94.00	93.00	95.00	97.00	96.00	101.00	105.00	100.00	100.00	103.00	107.00	107.00	102.00	102.00	101.00	102.00	107.00	110.00	112.00	114.00	118.00	122.00	125.00	129.00	130.00	130.00	127.00	131.00	132.00	137.00	144.00	139.00	143.00	145.00	146.00	148.00	154.00	155.00	159.00	155.00	149.00	142.00	145.00	160.00	164.00	160.00	155.00	154.00	159.00	161.00	171.00	178.00	187.00	193.00	187.00	194.00	188.00	206.00	217.00	223.00	230.00	267.00	263.00	254.00	248.00	246.00	238.00	242.00	264.00	253.00	262.00	245.00	227.00	223.00	196.00	190.00	182.00	178.00	176.00	179.00	181.00	183.00	183.00	177.00	174.00	171.00	171.00	170.00	172.00	174.00	179.00	188.00	170.00	165.00	168.00	169.00	165.00	161.00	161.00	158.00	158.00	157.00	159.00	161.00	161.00	160.00	162.00	162.00
419.00	433.00	407.00	431.00	448.00	405.00	365.00	337.00	321.00	314.00	301.00	287.00	273.00	266.00	257.00	244.00	254.00	253.00	248.00	243.00	243.00	236.00	237.00	229.00	225.00	211.00	208.00	214.00	201.00	193.00	190.00	190.00	195.00	196.00	188.00	186.00	187.00	190.00	209.00	196.00	199.00	197.00	199.00	202.00	188.00	179.00	186.00	185.00	179.00	179.00	179.00	174.00	176.00	175.00	174.00	173.00	173.00	171.00	168.00	168.00	167.00	165.00	163.00	159.00	163.00	165.00	156.00	156.00	155.00	148.00	146.00	148.00	149.00	147.00	148.00	149.00	151.00	154.00	159.00	154.00	147.00	143.00	142.00	142.00	145.00	144.00	138.00	133.00	128.00	126.00	124.00	124.00	127.00	125.00	128.00	129.00	129.00	122.00	122.00	125.00	126.00	130.00	138.00	140.00	136.00	136.00	144.00	142.00	143.00	141.00	142.00	140.00	144.00	140.00	134.00	129.00	123.00	126.00	129.00	138.00	145.00	179.00	197.00	220.00	158.00	144.00	134.00	131.00	116.00	111.00	108.00	103.00	96.00	95.00	96.00	95.00	95.00	94.00	95.00	94.00	94.00	95.00	95.00	94.00	95.00	95.00	95.00	95.00	94.00	94.00	94.00	98.00	98.00	106.00	108.00	101.00	101.00	103.00	108.00	111.00	106.00	104.00	104.00	104.00	105.00	110.00	116.00	119.00	120.00	126.00	128.00	129.00	132.00	133.00	131.00	130.00	129.00	133.00	147.00	146.00	142.00	139.00	147.00	152.00	155.00	158.00	159.00	152.00	142.00	141.00	148.00	162.00	159.00	160.00	163.00	159.00	163.00	163.00	168.00	174.00	188.00	197.00	201.00	204.00	200.00	209.00	211.00	220.00	233.00	263.00	267.00	261.00	255.00	246.00	263.00	247.00	284.00	264.00	290.00	261.00	242.00	230.00	215.00	203.00	187.00	183.00	180.00	184.00	185.00	185.00	185.00	180.00	175.00	173.00	174.00	175.00	179.00	187.00	201.00	212.00	172.00	167.00	169.00	170.00	167.00	167.00	167.00	160.00	159.00	158.00	158.00	162.00	162.00	161.00	161.00	162.00
415.00	466.00	466.00	405.00	410.00	412.00	370.00	352.00	331.00	315.00	288.00	275.00	269.00	264.00	256.00	242.00	249.00	240.00	238.00	232.00	236.00	235.00	230.00	235.00	225.00	211.00	204.00	195.00	192.00	191.00	193.00	201.00	200.00	192.00	189.00	190.00	188.00	195.00	204.00	191.00	196.00	201.00	203.00	193.00	183.00	189.00	189.00	188.00	182.00	181.00	180.00	177.00	176.00	175.00	176.00	176.00	172.00	171.00	171.00	169.00	166.00	162.00	162.00	164.00	165.00	163.00	157.00	157.00	153.00	151.00	149.00	151.00	151.00	149.00	149.00	150.00	152.00	155.00	161.00	166.00	156.00	148.00	146.00	140.00	142.00	142.00	134.00	129.00	127.00	127.00	127.00	125.00	126.00	125.00	128.00	126.00	127.00	123.00	125.00	123.00	123.00	129.00	139.00	138.00	136.00	133.00	139.00	141.00	144.00	143.00	141.00	141.00	140.00	137.00	137.00	136.00	129.00	124.00	127.00	133.00	141.00	157.00	188.00	205.00	171.00	144.00	132.00	125.00	114.00	111.00	106.00	102.00	95.00	98.00	97.00	95.00	95.00	94.00	95.00	97.00	96.00	95.00	94.00	94.00	95.00	95.00	95.00	95.00	94.00	94.00	95.00	99.00	99.00	106.00	110.00	103.00	101.00	103.00	107.00	113.00	111.00	108.00	108.00	107.00	104.00	106.00	110.00	113.00	117.00	127.00	126.00	128.00	130.00	129.00	130.00	126.00	126.00	131.00	143.00	147.00	140.00	132.00	146.00	152.00	155.00	157.00	157.00	150.00	140.00	139.00	145.00	156.00	149.00	154.00	164.00	162.00	170.00	170.00	167.00	170.00	181.00	186.00	199.00	220.00	214.00	227.00	220.00	222.00	243.00	265.00	269.00	262.00	253.00	257.00	277.00	265.00	287.00	286.00	292.00	271.00	254.00	242.00	241.00	219.00	197.00	195.00	185.00	185.00	193.00	190.00	189.00	183.00	177.00	176.00	177.00	178.00	182.00	194.00	208.00	190.00	170.00	170.00	173.00	175.00	173.00	171.00	167.00	160.00	158.00	158.00	158.00	159.00	162.00	161.00	162.00	162.00
398.00	425.00	430.00	398.00	378.00	402.00	397.00	328.00	298.00	291.00	296.00	298.00	279.00	268.00	252.00	241.00	256.00	243.00	239.00	235.00	226.00	218.00	215.00	221.00	227.00	221.00	214.00	194.00	192.00	191.00	199.00	201.00	197.00	191.00	195.00	197.00	197.00	196.00	209.00	191.00	189.00	198.00	193.00	187.00	193.00	191.00	193.00	190.00	188.00	182.00	176.00	179.00	177.00	174.00	174.00	173.00	170.00	168.00	172.00	170.00	166.00	162.00	165.00	166.00	165.00	161.00	160.00	156.00	155.00	155.00	154.00	154.00	153.00	152.00	150.00	151.00	153.00	153.00	161.00	171.00	158.00	152.00	153.00	142.00	138.00	138.00	134.00	134.00	133.00	140.00	131.00	127.00	126.00	125.00	126.00	127.00	126.00	124.00	126.00	124.00	122.00	123.00	132.00	137.00	139.00	128.00	137.00	141.00	145.00	145.00	141.00	138.00	139.00	137.00	141.00	138.00	133.00	125.00	125.00	129.00	139.00	160.00	178.00	194.00	219.00	153.00	134.00	133.00	115.00	112.00	107.00	102.00	97.00	96.00	95.00	95.00	95.00	95.00	96.00	96.00	95.00	95.00	95.00	94.00	95.00	96.00	97.00	95.00	95.00	95.00	95.00	100.00	101.00	107.00	112.00	103.00	102.00	106.00	107.00	113.00	118.00	113.00	110.00	109.00	105.00	106.00	107.00	113.00	118.00	121.00	123.00	128.00	126.00	129.00	125.00	121.00	124.00	129.00	139.00	134.00	135.00	131.00	148.00	151.00	152.00	152.00	152.00	154.00	143.00	138.00	140.00	148.00	145.00	151.00	160.00	154.00	164.00	171.00	175.00	178.00	176.00	184.00	195.00	207.00	214.00	240.00	233.00	230.00	233.00	267.00	269.00	261.00	254.00	270.00	294.00	276.00	294.00	301.00	273.00	291.00	279.00	258.00	266.00	248.00	218.00	205.00	205.00	189.00	191.00	188.00	184.00	180.00	177.00	177.00	180.00	181.00	180.00	184.00	183.00	178.00	172.00	175.00	180.00	181.00	183.00	179.00	173.00	163.00	160.00	160.00	160.00	160.00	164.00	164.00	161.00	163.00
386.00	386.00	397.00	409.00	350.00	353.00	333.00	308.00	339.00	355.00	326.00	306.00	281.00	277.00	267.00	255.00	243.00	242.00	234.00	231.00	241.00	224.00	214.00	204.00	203.00	202.00	203.00	205.00	205.00	201.00	206.00	203.00	192.00	200.00	203.00	203.00	206.00	216.00	208.00	197.00	194.00	185.00	192.00	198.00	201.00	197.00	201.00	198.00	190.00	182.00	184.00	183.00	180.00	179.00	177.00	175.00	173.00	170.00	171.00	168.00	165.00	163.00	163.00	162.00	158.00	159.00	160.00	159.00	159.00	160.00	160.00	157.00	154.00	151.00	151.00	151.00	153.00	154.00	157.00	162.00	158.00	162.00	160.00	148.00	143.00	139.00	137.00	136.00	133.00	132.00	127.00	126.00	124.00	125.00	126.00	126.00	125.00	124.00	123.00	123.00	120.00	122.00	126.00	127.00	132.00	127.00	136.00	137.00	136.00	135.00	144.00	136.00	137.00	140.00	138.00	136.00	131.00	135.00	129.00	122.00	128.00	151.00	165.00	183.00	229.00	191.00	149.00	139.00	131.00	135.00	128.00	137.00	112.00	97.00	97.00	95.00	96.00	96.00	97.00	96.00	96.00	97.00	96.00	96.00	95.00	95.00	96.00	97.00	97.00	96.00	96.00	102.00	105.00	114.00	112.00	105.00	109.00	116.00	117.00	119.00	119.00	120.00	116.00	115.00	107.00	106.00	106.00	107.00	109.00	117.00	120.00	119.00	118.00	117.00	119.00	119.00	126.00	127.00	121.00	119.00	125.00	132.00	143.00	146.00	139.00	148.00	152.00	144.00	137.00	134.00	141.00	136.00	137.00	141.00	146.00	147.00	156.00	162.00	174.00	179.00	187.00	183.00	188.00	198.00	205.00	243.00	268.00	253.00	254.00	270.00	266.00	264.00	263.00	274.00	295.00	304.00	290.00	279.00	261.00	253.00	246.00	250.00	236.00	230.00	239.00	248.00	263.00	204.00	197.00	191.00	187.00	188.00	189.00	188.00	185.00	189.00	186.00	182.00	180.00	179.00	181.00	189.00	202.00	227.00	220.00	185.00	179.00	166.00	164.00	162.00	162.00	161.00	163.00	161.00	163.00	163.00
396.00	390.00	370.00	408.00	367.00	364.00	327.00	349.00	343.00	339.00	333.00	318.00	287.00	271.00	264.00	254.00	221.00	220.00	225.00	218.00	217.00	209.00	208.00	204.00	211.00	206.00	209.00	209.00	205.00	204.00	199.00	196.00	196.00	206.00	208.00	210.00	221.00	229.00	208.00	197.00	197.00	188.00	198.00	200.00	207.00	205.00	204.00	205.00	185.00	184.00	185.00	185.00	182.00	178.00	177.00	173.00	172.00	171.00	171.00	169.00	165.00	164.00	162.00	158.00	156.00	155.00	160.00	161.00	160.00	159.00	162.00	158.00	152.00	150.00	150.00	149.00	151.00	153.00	154.00	163.00	160.00	159.00	155.00	147.00	142.00	139.00	137.00	138.00	140.00	135.00	128.00	128.00	122.00	123.00	124.00	125.00	125.00	125.00	124.00	122.00	123.00	121.00	122.00	122.00	123.00	122.00	133.00	136.00	134.00	134.00	137.00	136.00	136.00	137.00	137.00	136.00	133.00	131.00	126.00	120.00	130.00	155.00	158.00	177.00	224.00	199.00	144.00	133.00	131.00	138.00	151.00	119.00	96.00	96.00	98.00	96.00	96.00	95.00	95.00	96.00	95.00	96.00	96.00	95.00	96.00	97.00	96.00	96.00	97.00	97.00	96.00	105.00	109.00	114.00	108.00	105.00	108.00	115.00	118.00	121.00	120.00	119.00	117.00	118.00	108.00	108.00	107.00	107.00	108.00	117.00	114.00	110.00	110.00	112.00	115.00	119.00	121.00	120.00	116.00	116.00	120.00	129.00	142.00	138.00	141.00	147.00	151.00	139.00	136.00	134.00	134.00	135.00	140.00	141.00	142.00	147.00	157.00	164.00	173.00	176.00	187.00	192.00	189.00	194.00	202.00	229.00	248.00	266.00	265.00	270.00	268.00	266.00	265.00	272.00	287.00	293.00	293.00	268.00	250.00	244.00	240.00	238.00	231.00	235.00	254.00	258.00	262.00	225.00	205.00	194.00	190.00	194.00	195.00	192.00	188.00	190.00	188.00	184.00	183.00	182.00	183.00	192.00	208.00	235.00	240.00	191.00	183.00	169.00	167.00	165.00	166.00	162.00	166.00	164.00	164.00	165.00
390.00	403.00	365.00	367.00	355.00	346.00	331.00	351.00	337.00	307.00	312.00	298.00	286.00	268.00	255.00	255.00	217.00	216.00	214.00	213.00	211.00	209.00	209.00	214.00	217.00	221.00	220.00	211.00	212.00	204.00	202.00	200.00	207.00	217.00	211.00	220.00	225.00	215.00	204.00	196.00	193.00	192.00	203.00	203.00	212.00	223.00	224.00	221.00	187.00	185.00	185.00	179.00	178.00	176.00	179.00	174.00	171.00	173.00	170.00	166.00	165.00	163.00	162.00	158.00	155.00	153.00	160.00	160.00	156.00	157.00	162.00	158.00	151.00	149.00	147.00	149.00	150.00	151.00	154.00	155.00	159.00	154.00	150.00	145.00	142.00	141.00	142.00	146.00	149.00	143.00	129.00	125.00	123.00	125.00	127.00	125.00	129.00	131.00	125.00	123.00	122.00	119.00	119.00	121.00	120.00	121.00	131.00	132.00	132.00	130.00	135.00	135.00	136.00	136.00	136.00	138.00	133.00	130.00	125.00	121.00	122.00	142.00	160.00	182.00	222.00	195.00	139.00	128.00	121.00	125.00	128.00	105.00	97.00	98.00	99.00	100.00	99.00	95.00	96.00	96.00	96.00	95.00	96.00	96.00	96.00	98.00	96.00	97.00	98.00	97.00	98.00	111.00	112.00	114.00	111.00	106.00	106.00	111.00	115.00	119.00	121.00	121.00	120.00	121.00	110.00	108.00	108.00	107.00	107.00	111.00	109.00	109.00	109.00	113.00	115.00	113.00	114.00	114.00	116.00	116.00	116.00	121.00	132.00	128.00	143.00	149.00	150.00	136.00	136.00	136.00	132.00	133.00	138.00	142.00	148.00	150.00	154.00	159.00	164.00	170.00	185.00	202.00	200.00	197.00	203.00	229.00	240.00	263.00	280.00	275.00	271.00	269.00	270.00	274.00	298.00	299.00	277.00	263.00	252.00	254.00	249.00	242.00	237.00	245.00	250.00	269.00	270.00	251.00	221.00	202.00	195.00	208.00	211.00	198.00	192.00	191.00	194.00	189.00	191.00	188.00	186.00	192.00	200.00	221.00	219.00	193.00	186.00	175.00	173.00	167.00	166.00	163.00	166.00	165.00	164.00	163.00
417.00	375.00	381.00	377.00	373.00	342.00	365.00	342.00	324.00	308.00	291.00	281.00	268.00	265.00	248.00	241.00	220.00	223.00	218.00	215.00	219.00	221.00	224.00	223.00	216.00	228.00	220.00	222.00	208.00	203.00	207.00	199.00	208.00	221.00	215.00	223.00	212.00	208.00	206.00	194.00	194.00	199.00	205.00	214.00	210.00	221.00	225.00	226.00	188.00	184.00	181.00	179.00	177.00	172.00	172.00	173.00	166.00	175.00	169.00	166.00	164.00	164.00	161.00	158.00	156.00	152.00	159.00	159.00	154.00	156.00	159.00	155.00	150.00	148.00	146.00	148.00	150.00	150.00	154.00	152.00	158.00	154.00	151.00	148.00	144.00	142.00	144.00	153.00	145.00	141.00	129.00	127.00	125.00	134.00	137.00	135.00	138.00	132.00	130.00	126.00	124.00	121.00	121.00	121.00	122.00	120.00	124.00	128.00	133.00	130.00	134.00	130.00	134.00	135.00	134.00	136.00	138.00	136.00	134.00	122.00	123.00	140.00	157.00	170.00	204.00	218.00	145.00	128.00	116.00	110.00	107.00	101.00	99.00	99.00	99.00	99.00	97.00	96.00	94.00	94.00	96.00	95.00	96.00	97.00	97.00	99.00	96.00	97.00	98.00	95.00	98.00	113.00	114.00	117.00	114.00	108.00	107.00	109.00	113.00	115.00	119.00	120.00	122.00	122.00	112.00	111.00	110.00	110.00	109.00	108.00	110.00	111.00	113.00	112.00	112.00	114.00	114.00	114.00	115.00	116.00	118.00	117.00	122.00	129.00	144.00	147.00	147.00	135.00	134.00	133.00	130.00	132.00	134.00	137.00	145.00	162.00	158.00	161.00	164.00	173.00	186.00	198.00	195.00	196.00	205.00	228.00	248.00	253.00	255.00	264.00	268.00	277.00	279.00	279.00	296.00	293.00	270.00	259.00	272.00	269.00	259.00	251.00	246.00	260.00	255.00	256.00	264.00	248.00	236.00	232.00	210.00	205.00	206.00	198.00	194.00	193.00	196.00	192.00	195.00	193.00	190.00	193.00	196.00	205.00	206.00	188.00	185.00	180.00	171.00	164.00	164.00	164.00	167.00	168.00	164.00	164.00
396.00	414.00	388.00	340.00	330.00	341.00	353.00	332.00	311.00	298.00	288.00	276.00	263.00	248.00	236.00	233.00	238.00	243.00	240.00	247.00	239.00	234.00	238.00	234.00	236.00	226.00	228.00	212.00	209.00	214.00	211.00	208.00	210.00	224.00	217.00	221.00	217.00	200.00	196.00	188.00	189.00	185.00	197.00	193.00	189.00	194.00	202.00	221.00	175.00	176.00	179.00	166.00	167.00	174.00	174.00	170.00	163.00	167.00	156.00	155.00	157.00	162.00	163.00	163.00	158.00	151.00	158.00	155.00	151.00	152.00	156.00	151.00	148.00	146.00	144.00	144.00	147.00	146.00	146.00	142.00	146.00	148.00	148.00	146.00	144.00	143.00	142.00	143.00	152.00	146.00	136.00	139.00	144.00	140.00	141.00	143.00	142.00	144.00	139.00	136.00	130.00	121.00	120.00	120.00	121.00	120.00	121.00	128.00	129.00	126.00	132.00	123.00	127.00	127.00	131.00	134.00	134.00	136.00	134.00	125.00	123.00	125.00	148.00	168.00	201.00	232.00	160.00	123.00	109.00	106.00	103.00	98.00	98.00	96.00	97.00	99.00	99.00	95.00	94.00	93.00	95.00	96.00	96.00	95.00	96.00	97.00	97.00	96.00	96.00	97.00	98.00	110.00	116.00	121.00	123.00	121.00	113.00	108.00	108.00	112.00	116.00	121.00	124.00	124.00	117.00	116.00	115.00	112.00	112.00	108.00	111.00	116.00	120.00	121.00	119.00	114.00	113.00	117.00	124.00	121.00	121.00	119.00	125.00	134.00	138.00	136.00	141.00	129.00	127.00	129.00	130.00	144.00	151.00	143.00	139.00	143.00	148.00	150.00	153.00	158.00	171.00	181.00	182.00	186.00	199.00	200.00	211.00	213.00	217.00	231.00	245.00	254.00	269.00	273.00	289.00	288.00	282.00	275.00	268.00	261.00	260.00	245.00	259.00	259.00	278.00	279.00	267.00	254.00	242.00	217.00	215.00	209.00	213.00	210.00	202.00	206.00	201.00	202.00	200.00	197.00	193.00	189.00	187.00	186.00	186.00	180.00	177.00	172.00	170.00	168.00	166.00	166.00	166.00	169.00	165.00	165.00
406.00	413.00	385.00	344.00	372.00	340.00	327.00	311.00	316.00	300.00	282.00	273.00	255.00	248.00	235.00	234.00	252.00	251.00	247.00	248.00	245.00	243.00	236.00	229.00	225.00	220.00	217.00	214.00	215.00	214.00	218.00	214.00	215.00	222.00	202.00	205.00	198.00	196.00	189.00	183.00	184.00	184.00	202.00	191.00	190.00	210.00	213.00	210.00	172.00	166.00	163.00	161.00	159.00	162.00	175.00	172.00	160.00	165.00	149.00	149.00	153.00	160.00	163.00	160.00	154.00	148.00	152.00	152.00	149.00	149.00	156.00	151.00	147.00	145.00	143.00	142.00	145.00	144.00	142.00	141.00	143.00	145.00	144.00	142.00	143.00	143.00	141.00	140.00	139.00	135.00	142.00	146.00	154.00	146.00	143.00	142.00	144.00	144.00	144.00	140.00	135.00	126.00	129.00	128.00	125.00	121.00	122.00	123.00	129.00	124.00	127.00	122.00	121.00	126.00	129.00	130.00	131.00	130.00	132.00	125.00	121.00	124.00	135.00	159.00	201.00	213.00	160.00	127.00	118.00	105.00	102.00	97.00	100.00	100.00	99.00	99.00	99.00	95.00	93.00	95.00	101.00	99.00	95.00	95.00	97.00	99.00	98.00	98.00	98.00	97.00	97.00	110.00	118.00	122.00	125.00	124.00	119.00	112.00	108.00	109.00	120.00	123.00	125.00	125.00	121.00	120.00	119.00	117.00	115.00	110.00	112.00	117.00	124.00	126.00	125.00	120.00	115.00	116.00	129.00	127.00	122.00	119.00	127.00	130.00	130.00	127.00	131.00	128.00	127.00	130.00	138.00	138.00	145.00	154.00	151.00	146.00	148.00	150.00	155.00	159.00	169.00	170.00	172.00	183.00	196.00	194.00	205.00	203.00	202.00	219.00	235.00	238.00	257.00	256.00	282.00	288.00	289.00	278.00	270.00	258.00	252.00	249.00	270.00	273.00	276.00	275.00	262.00	258.00	239.00	237.00	233.00	214.00	211.00	213.00	206.00	203.00	203.00	200.00	198.00	197.00	190.00	188.00	185.00	183.00	182.00	179.00	175.00	172.00	171.00	169.00	169.00	169.00	173.00	171.00	165.00	166.00
422.00	380.00	356.00	368.00	376.00	346.00	328.00	291.00	292.00	293.00	284.00	271.00	256.00	244.00	236.00	242.00	252.00	250.00	251.00	247.00	241.00	238.00	229.00	232.00	235.00	226.00	222.00	223.00	217.00	216.00	222.00	223.00	218.00	215.00	210.00	201.00	191.00	189.00	189.00	178.00	179.00	185.00	188.00	184.00	191.00	215.00	214.00	213.00	194.00	172.00	161.00	159.00	157.00	164.00	172.00	168.00	157.00	152.00	145.00	147.00	149.00	152.00	156.00	153.00	156.00	150.00	146.00	147.00	145.00	150.00	156.00	153.00	147.00	144.00	141.00	139.00	142.00	141.00	140.00	139.00	145.00	143.00	140.00	141.00	143.00	143.00	143.00	141.00	136.00	136.00	156.00	151.00	161.00	153.00	144.00	142.00	143.00	145.00	143.00	139.00	133.00	134.00	130.00	133.00	132.00	122.00	120.00	122.00	123.00	121.00	123.00	119.00	116.00	118.00	129.00	126.00	124.00	124.00	124.00	125.00	120.00	130.00	151.00	164.00	202.00	180.00	148.00	131.00	121.00	108.00	102.00	97.00	98.00	99.00	99.00	100.00	98.00	94.00	95.00	101.00	109.00	98.00	96.00	96.00	96.00	97.00	97.00	97.00	97.00	97.00	96.00	109.00	117.00	121.00	124.00	125.00	123.00	117.00	110.00	110.00	120.00	124.00	125.00	126.00	124.00	121.00	122.00	122.00	119.00	112.00	113.00	117.00	122.00	131.00	124.00	121.00	117.00	116.00	129.00	131.00	126.00	120.00	120.00	122.00	125.00	124.00	125.00	126.00	126.00	130.00	140.00	147.00	147.00	150.00	159.00	155.00	159.00	158.00	161.00	169.00	170.00	166.00	168.00	175.00	187.00	187.00	194.00	195.00	201.00	211.00	225.00	230.00	248.00	251.00	281.00	281.00	278.00	277.00	258.00	256.00	253.00	254.00	261.00	269.00	270.00	265.00	257.00	251.00	247.00	261.00	264.00	221.00	216.00	215.00	206.00	208.00	205.00	203.00	201.00	198.00	193.00	190.00	186.00	183.00	179.00	176.00	174.00	170.00	171.00	171.00	172.00	170.00	177.00	167.00	169.00	166.00
411.00	382.00	374.00	352.00	352.00	335.00	323.00	288.00	290.00	278.00	279.00	273.00	247.00	253.00	256.00	256.00	257.00	258.00	256.00	247.00	244.00	233.00	237.00	241.00	239.00	231.00	230.00	220.00	221.00	224.00	228.00	221.00	214.00	212.00	199.00	195.00	192.00	187.00	183.00	180.00	175.00	183.00	186.00	182.00	206.00	214.00	190.00	193.00	211.00	184.00	161.00	156.00	156.00	156.00	158.00	158.00	153.00	149.00	146.00	144.00	144.00	145.00	146.00	146.00	147.00	145.00	143.00	141.00	142.00	146.00	147.00	148.00	148.00	146.00	141.00	137.00	138.00	141.00	138.00	137.00	142.00	140.00	137.00	140.00	142.00	144.00	144.00	143.00	138.00	139.00	161.00	156.00	159.00	152.00	146.00	144.00	141.00	141.00	137.00	136.00	134.00	130.00	124.00	126.00	124.00	118.00	118.00	122.00	121.00	120.00	121.00	118.00	118.00	117.00	126.00	124.00	120.00	119.00	119.00	119.00	120.00	128.00	137.00	149.00	193.00	177.00	151.00	129.00	116.00	108.00	103.00	97.00	101.00	98.00	97.00	97.00	98.00	96.00	95.00	99.00	107.00	97.00	97.00	97.00	97.00	97.00	97.00	97.00	97.00	97.00	97.00	102.00	109.00	119.00	123.00	125.00	122.00	118.00	113.00	110.00	121.00	122.00	124.00	124.00	123.00	123.00	124.00	126.00	123.00	115.00	114.00	117.00	121.00	133.00	127.00	126.00	121.00	117.00	127.00	132.00	130.00	124.00	121.00	123.00	123.00	124.00	123.00	127.00	130.00	131.00	137.00	152.00	157.00	155.00	161.00	166.00	168.00	168.00	170.00	175.00	163.00	161.00	163.00	166.00	171.00	183.00	190.00	191.00	199.00	209.00	218.00	225.00	233.00	244.00	292.00	289.00	272.00	266.00	262.00	265.00	263.00	268.00	268.00	268.00	266.00	262.00	262.00	252.00	263.00	269.00	240.00	225.00	222.00	216.00	215.00	214.00	209.00	206.00	204.00	201.00	192.00	188.00	186.00	180.00	179.00	175.00	173.00	170.00	172.00	173.00	173.00	174.00	177.00	168.00	168.00	168.00
405.00	389.00	361.00	329.00	335.00	340.00	309.00	303.00	290.00	278.00	283.00	283.00	268.00	258.00	252.00	246.00	241.00	244.00	244.00	249.00	247.00	243.00	240.00	240.00	238.00	229.00	226.00	226.00	228.00	231.00	212.00	197.00	195.00	191.00	196.00	199.00	195.00	194.00	188.00	176.00	173.00	171.00	177.00	184.00	187.00	194.00	182.00	169.00	168.00	162.00	157.00	153.00	149.00	148.00	150.00	152.00	150.00	149.00	147.00	144.00	144.00	142.00	144.00	145.00	142.00	143.00	141.00	140.00	140.00	138.00	139.00	138.00	137.00	134.00	137.00	135.00	132.00	130.00	131.00	143.00	134.00	132.00	136.00	143.00	143.00	142.00	144.00	145.00	143.00	145.00	148.00	153.00	149.00	147.00	144.00	143.00	142.00	134.00	132.00	130.00	131.00	125.00	128.00	125.00	119.00	119.00	120.00	118.00	119.00	119.00	118.00	115.00	118.00	117.00	119.00	116.00	117.00	117.00	118.00	119.00	121.00	120.00	127.00	144.00	171.00	194.00	168.00	131.00	118.00	105.00	101.00	99.00	98.00	98.00	98.00	98.00	100.00	97.00	104.00	106.00	108.00	98.00	98.00	98.00	98.00	98.00	98.00	98.00	97.00	97.00	97.00	98.00	99.00	108.00	115.00	125.00	128.00	128.00	124.00	114.00	112.00	114.00	118.00	123.00	124.00	126.00	127.00	125.00	123.00	122.00	121.00	121.00	122.00	128.00	131.00	127.00	126.00	121.00	125.00	132.00	134.00	129.00	125.00	125.00	125.00	125.00	126.00	127.00	133.00	144.00	148.00	153.00	154.00	158.00	163.00	163.00	157.00	158.00	162.00	157.00	157.00	161.00	163.00	166.00	168.00	177.00	180.00	186.00	193.00	219.00	224.00	237.00	248.00	256.00	300.00	286.00	273.00	277.00	273.00	274.00	299.00	297.00	290.00	278.00	278.00	279.00	278.00	258.00	250.00	244.00	251.00	241.00	232.00	227.00	222.00	219.00	208.00	200.00	195.00	191.00	191.00	190.00	192.00	193.00	191.00	183.00	175.00	172.00	173.00	174.00	172.00	175.00	175.00	171.00	170.00	168.00
366.00	372.00	358.00	346.00	339.00	352.00	334.00	303.00	289.00	290.00	291.00	284.00	265.00	263.00	267.00	256.00	240.00	232.00	231.00	243.00	242.00	246.00	243.00	241.00	238.00	225.00	220.00	210.00	208.00	209.00	200.00	194.00	191.00	189.00	196.00	197.00	191.00	191.00	192.00	178.00	174.00	171.00	171.00	185.00	179.00	179.00	181.00	177.00	160.00	158.00	155.00	151.00	147.00	147.00	147.00	147.00	145.00	152.00	148.00	147.00	144.00	142.00	146.00	143.00	143.00	143.00	142.00	141.00	140.00	137.00	139.00	137.00	136.00	134.00	133.00	136.00	133.00	132.00	130.00	141.00	133.00	131.00	135.00	141.00	140.00	139.00	142.00	145.00	146.00	147.00	148.00	147.00	145.00	145.00	144.00	143.00	142.00	135.00	132.00	132.00	132.00	134.00	131.00	129.00	126.00	127.00	127.00	124.00	120.00	116.00	119.00	118.00	118.00	119.00	119.00	119.00	118.00	119.00	119.00	121.00	122.00	114.00	125.00	138.00	191.00	202.00	177.00	135.00	114.00	108.00	104.00	99.00	99.00	98.00	97.00	98.00	99.00	98.00	100.00	99.00	100.00	99.00	99.00	98.00	98.00	98.00	98.00	98.00	98.00	98.00	97.00	98.00	98.00	104.00	116.00	130.00	128.00	127.00	124.00	113.00	117.00	117.00	116.00	115.00	122.00	124.00	127.00	127.00	127.00	129.00	126.00	127.00	126.00	128.00	136.00	133.00	129.00	125.00	122.00	127.00	128.00	126.00	127.00	128.00	127.00	127.00	126.00	128.00	131.00	137.00	142.00	145.00	148.00	155.00	162.00	153.00	149.00	152.00	155.00	153.00	155.00	156.00	160.00	165.00	169.00	177.00	187.00	198.00	196.00	219.00	230.00	232.00	240.00	252.00	286.00	282.00	284.00	307.00	286.00	276.00	282.00	289.00	289.00	283.00	290.00	287.00	284.00	273.00	265.00	261.00	268.00	245.00	236.00	231.00	227.00	223.00	212.00	203.00	197.00	195.00	200.00	200.00	197.00	192.00	189.00	179.00	175.00	173.00	173.00	174.00	174.00	174.00	176.00	177.00	170.00	172.00
366.00	389.00	382.00	358.00	349.00	354.00	324.00	307.00	299.00	289.00	283.00	277.00	276.00	272.00	267.00	266.00	244.00	234.00	224.00	234.00	224.00	239.00	244.00	237.00	233.00	215.00	209.00	205.00	206.00	205.00	198.00	195.00	193.00	188.00	195.00	196.00	186.00	183.00	191.00	178.00	172.00	168.00	168.00	181.00	181.00	170.00	166.00	167.00	157.00	153.00	152.00	149.00	148.00	148.00	147.00	147.00	147.00	150.00	146.00	146.00	144.00	143.00	145.00	144.00	142.00	140.00	139.00	139.00	138.00	139.00	138.00	137.00	136.00	133.00	132.00	134.00	132.00	131.00	131.00	137.00	132.00	130.00	132.00	135.00	135.00	138.00	140.00	143.00	148.00	150.00	147.00	144.00	142.00	142.00	141.00	142.00	141.00	136.00	135.00	134.00	134.00	137.00	135.00	132.00	126.00	130.00	133.00	128.00	121.00	117.00	117.00	115.00	120.00	120.00	120.00	122.00	121.00	120.00	118.00	121.00	124.00	118.00	128.00	138.00	173.00	195.00	191.00	136.00	129.00	109.00	101.00	97.00	99.00	98.00	97.00	98.00	99.00	99.00	100.00	100.00	98.00	100.00	99.00	99.00	99.00	98.00	98.00	98.00	98.00	98.00	97.00	98.00	99.00	103.00	110.00	122.00	123.00	124.00	118.00	113.00	123.00	125.00	121.00	120.00	121.00	122.00	125.00	127.00	129.00	132.00	131.00	133.00	132.00	133.00	139.00	136.00	134.00	129.00	123.00	123.00	124.00	125.00	129.00	131.00	130.00	128.00	127.00	129.00	128.00	129.00	134.00	144.00	153.00	157.00	157.00	145.00	146.00	148.00	151.00	150.00	155.00	156.00	158.00	163.00	166.00	184.00	183.00	196.00	208.00	220.00	239.00	231.00	241.00	250.00	260.00	264.00	290.00	323.00	295.00	284.00	293.00	291.00	290.00	290.00	297.00	299.00	295.00	298.00	279.00	291.00	285.00	251.00	248.00	244.00	238.00	227.00	216.00	207.00	202.00	201.00	204.00	200.00	197.00	194.00	190.00	177.00	176.00	175.00	179.00	176.00	177.00	177.00	177.00	181.00	174.00	172.00
380.00	418.00	394.00	364.00	357.00	358.00	337.00	300.00	295.00	287.00	285.00	284.00	270.00	265.00	255.00	245.00	241.00	230.00	222.00	219.00	217.00	236.00	238.00	236.00	230.00	211.00	206.00	203.00	204.00	208.00	201.00	200.00	195.00	186.00	192.00	193.00	187.00	181.00	180.00	177.00	173.00	167.00	166.00	175.00	175.00	168.00	162.00	158.00	152.00	151.00	151.00	149.00	148.00	147.00	147.00	146.00	146.00	148.00	146.00	146.00	145.00	144.00	144.00	142.00	142.00	141.00	139.00	139.00	139.00	139.00	135.00	134.00	135.00	134.00	134.00	133.00	133.00	132.00	131.00	131.00	131.00	129.00	130.00	134.00	136.00	138.00	139.00	142.00	147.00	151.00	147.00	144.00	141.00	138.00	138.00	138.00	138.00	135.00	136.00	136.00	136.00	137.00	135.00	131.00	129.00	131.00	130.00	126.00	121.00	119.00	117.00	117.00	121.00	122.00	120.00	121.00	121.00	120.00	115.00	122.00	123.00	120.00	135.00	155.00	186.00	209.00	219.00	147.00	131.00	112.00	105.00	98.00	98.00	99.00	98.00	99.00	99.00	99.00	98.00	98.00	101.00	101.00	99.00	100.00	100.00	99.00	99.00	98.00	98.00	97.00	97.00	97.00	99.00	103.00	106.00	119.00	125.00	125.00	117.00	114.00	126.00	128.00	125.00	128.00	122.00	121.00	121.00	123.00	126.00	129.00	132.00	135.00	135.00	138.00	140.00	137.00	133.00	130.00	126.00	125.00	126.00	127.00	131.00	133.00	134.00	131.00	128.00	130.00	130.00	130.00	133.00	149.00	154.00	155.00	146.00	144.00	146.00	148.00	152.00	154.00	157.00	157.00	159.00	164.00	169.00	191.00	190.00	187.00	197.00	229.00	228.00	223.00	225.00	231.00	245.00	257.00	282.00	301.00	296.00	298.00	316.00	302.00	298.00	298.00	302.00	310.00	306.00	303.00	285.00	308.00	308.00	262.00	255.00	247.00	236.00	233.00	224.00	214.00	209.00	208.00	203.00	199.00	195.00	192.00	188.00	179.00	178.00	177.00	178.00	182.00	182.00	182.00	183.00	185.00	183.00	173.00
397.00	388.00	380.00	373.00	355.00	348.00	344.00	317.00	308.00	304.00	292.00	280.00	266.00	258.00	250.00	241.00	229.00	225.00	222.00	221.00	221.00	217.00	216.00	215.00	212.00	206.00	202.00	202.00	204.00	208.00	196.00	192.00	195.00	187.00	183.00	190.00	188.00	183.00	172.00	176.00	173.00	168.00	164.00	167.00	166.00	162.00	159.00	156.00	152.00	151.00	151.00	150.00	148.00	147.00	149.00	148.00	149.00	146.00	147.00	147.00	147.00	144.00	144.00	144.00	144.00	142.00	140.00	139.00	139.00	138.00	137.00	137.00	138.00	135.00	135.00	134.00	133.00	133.00	132.00	130.00	130.00	129.00	129.00	146.00	144.00	144.00	145.00	145.00	150.00	153.00	148.00	146.00	142.00	140.00	136.00	136.00	135.00	133.00	135.00	136.00	136.00	134.00	134.00	134.00	133.00	134.00	133.00	131.00	129.00	124.00	127.00	121.00	122.00	129.00	124.00	118.00	117.00	118.00	122.00	120.00	122.00	119.00	123.00	129.00	185.00	199.00	199.00	156.00	131.00	119.00	110.00	101.00	98.00	98.00	98.00	99.00	98.00	99.00	98.00	98.00	104.00	103.00	98.00	98.00	98.00	97.00	97.00	97.00	96.00	97.00	98.00	97.00	97.00	100.00	103.00	123.00	130.00	127.00	118.00	116.00	127.00	129.00	128.00	129.00	127.00	126.00	125.00	124.00	124.00	126.00	129.00	131.00	133.00	136.00	138.00	137.00	133.00	134.00	132.00	130.00	130.00	129.00	133.00	137.00	139.00	134.00	131.00	129.00	130.00	130.00	132.00	150.00	144.00	153.00	144.00	143.00	148.00	149.00	152.00	165.00	162.00	162.00	160.00	162.00	168.00	184.00	194.00	193.00	193.00	208.00	211.00	214.00	221.00	231.00	262.00	277.00	282.00	311.00	313.00	322.00	343.00	330.00	314.00	321.00	312.00	320.00	323.00	305.00	299.00	319.00	301.00	262.00	253.00	243.00	242.00	239.00	235.00	223.00	216.00	214.00	212.00	207.00	198.00	192.00	187.00	181.00	180.00	179.00	182.00	192.00	187.00	192.00	194.00	196.00	183.00	178.00
401.00	394.00	394.00	379.00	364.00	355.00	366.00	335.00	328.00	308.00	296.00	282.00	269.00	258.00	259.00	257.00	227.00	226.00	228.00	229.00	222.00	214.00	213.00	209.00	208.00	204.00	206.00	199.00	203.00	207.00	196.00	189.00	190.00	188.00	178.00	184.00	187.00	181.00	172.00	168.00	167.00	164.00	163.00	164.00	159.00	155.00	155.00	154.00	150.00	151.00	151.00	151.00	151.00	151.00	151.00	152.00	152.00	147.00	149.00	149.00	150.00	143.00	144.00	143.00	143.00	141.00	143.00	147.00	147.00	137.00	135.00	135.00	135.00	136.00	134.00	136.00	136.00	136.00	134.00	130.00	129.00	129.00	129.00	137.00	151.00	156.00	155.00	154.00	154.00	147.00	146.00	148.00	141.00	140.00	136.00	132.00	135.00	134.00	136.00	135.00	133.00	132.00	133.00	135.00	136.00	135.00	134.00	132.00	128.00	127.00	132.00	127.00	126.00	130.00	128.00	120.00	125.00	123.00	122.00	121.00	120.00	118.00	114.00	123.00	155.00	153.00	185.00	157.00	145.00	133.00	111.00	101.00	98.00	97.00	98.00	99.00	99.00	98.00	98.00	100.00	108.00	102.00	101.00	99.00	99.00	100.00	99.00	98.00	97.00	98.00	98.00	98.00	99.00	99.00	102.00	124.00	130.00	128.00	120.00	115.00	125.00	128.00	129.00	130.00	129.00	128.00	127.00	126.00	126.00	127.00	128.00	130.00	131.00	133.00	139.00	140.00	137.00	139.00	139.00	136.00	137.00	133.00	135.00	139.00	143.00	138.00	134.00	130.00	131.00	131.00	132.00	136.00	136.00	141.00	141.00	144.00	147.00	146.00	151.00	167.00	171.00	171.00	165.00	163.00	167.00	189.00	196.00	208.00	198.00	206.00	209.00	214.00	222.00	232.00	257.00	269.00	269.00	288.00	339.00	371.00	370.00	365.00	327.00	357.00	341.00	339.00	345.00	335.00	312.00	292.00	283.00	259.00	254.00	250.00	247.00	244.00	235.00	231.00	225.00	217.00	250.00	228.00	197.00	187.00	184.00	182.00	182.00	181.00	188.00	206.00	193.00	210.00	238.00	237.00	196.00	187.00
394.00	437.00	400.00	400.00	382.00	365.00	388.00	361.00	343.00	335.00	311.00	287.00	279.00	266.00	274.00	266.00	229.00	235.00	237.00	225.00	214.00	224.00	216.00	211.00	209.00	204.00	202.00	198.00	205.00	204.00	191.00	188.00	184.00	189.00	174.00	178.00	185.00	180.00	174.00	165.00	164.00	163.00	159.00	161.00	158.00	156.00	156.00	155.00	152.00	157.00	157.00	156.00	155.00	155.00	156.00	158.00	151.00	149.00	149.00	153.00	152.00	146.00	148.00	148.00	146.00	141.00	155.00	158.00	149.00	137.00	135.00	134.00	136.00	136.00	134.00	134.00	133.00	132.00	133.00	130.00	130.00	129.00	128.00	138.00	150.00	159.00	156.00	153.00	143.00	140.00	145.00	149.00	143.00	143.00	142.00	139.00	132.00	127.00	130.00	133.00	132.00	131.00	131.00	131.00	135.00	135.00	136.00	135.00	134.00	139.00	135.00	130.00	128.00	127.00	126.00	124.00	126.00	123.00	119.00	116.00	117.00	120.00	116.00	122.00	139.00	156.00	180.00	160.00	144.00	154.00	114.00	102.00	98.00	97.00	98.00	99.00	100.00	99.00	99.00	105.00	113.00	103.00	99.00	100.00	100.00	99.00	98.00	98.00	98.00	98.00	98.00	98.00	99.00	101.00	103.00	122.00	127.00	129.00	124.00	117.00	121.00	126.00	129.00	129.00	131.00	128.00	129.00	128.00	128.00	129.00	130.00	132.00	133.00	135.00	137.00	139.00	140.00	141.00	144.00	142.00	140.00	136.00	140.00	139.00	148.00	143.00	138.00	131.00	131.00	131.00	134.00	135.00	135.00	137.00	139.00	140.00	141.00	143.00	149.00	155.00	179.00	185.00	177.00	166.00	166.00	196.00	204.00	208.00	207.00	204.00	210.00	216.00	221.00	228.00	249.00	258.00	266.00	274.00	314.00	360.00	403.00	375.00	348.00	354.00	406.00	392.00	383.00	374.00	342.00	320.00	298.00	274.00	270.00	257.00	256.00	250.00	244.00	241.00	229.00	222.00	240.00	264.00	217.00	191.00	184.00	184.00	183.00	185.00	200.00	206.00	200.00	223.00	280.00	287.00	239.00	205.00
417.00	426.00	404.00	408.00	393.00	368.00	383.00	375.00	362.00	346.00	319.00	298.00	277.00	276.00	276.00	256.00	235.00	239.00	228.00	221.00	225.00	230.00	223.00	224.00	220.00	207.00	201.00	199.00	200.00	203.00	187.00	182.00	178.00	179.00	173.00	175.00	178.00	174.00	167.00	166.00	167.00	163.00	160.00	160.00	163.00	159.00	159.00	160.00	160.00	161.00	157.00	157.00	157.00	156.00	154.00	151.00	149.00	150.00	155.00	160.00	157.00	154.00	161.00	165.00	148.00	142.00	153.00	151.00	147.00	144.00	136.00	133.00	135.00	134.00	135.00	133.00	132.00	131.00	130.00	132.00	131.00	129.00	128.00	130.00	137.00	142.00	142.00	139.00	140.00	138.00	139.00	145.00	140.00	137.00	141.00	140.00	133.00	125.00	126.00	128.00	134.00	132.00	132.00	131.00	132.00	133.00	138.00	139.00	139.00	134.00	129.00	131.00	130.00	131.00	130.00	129.00	129.00	125.00	117.00	114.00	115.00	120.00	119.00	124.00	155.00	168.00	184.00	166.00	126.00	126.00	110.00	100.00	98.00	98.00	99.00	98.00	100.00	104.00	108.00	112.00	111.00	102.00	101.00	100.00	99.00	99.00	98.00	99.00	98.00	99.00	99.00	99.00	100.00	102.00	105.00	122.00	126.00	129.00	128.00	122.00	118.00	122.00	127.00	127.00	131.00	129.00	130.00	131.00	130.00	131.00	132.00	133.00	135.00	138.00	139.00	141.00	142.00	144.00	145.00	146.00	143.00	139.00	146.00	143.00	150.00	145.00	140.00	133.00	131.00	131.00	132.00	136.00	136.00	137.00	137.00	141.00	142.00	142.00	145.00	149.00	170.00	186.00	184.00	174.00	168.00	189.00	206.00	217.00	215.00	198.00	203.00	213.00	217.00	222.00	237.00	243.00	253.00	258.00	286.00	303.00	349.00	397.00	405.00	372.00	393.00	479.00	456.00	407.00	338.00	358.00	368.00	294.00	278.00	267.00	268.00	259.00	252.00	236.00	228.00	234.00	228.00	224.00	214.00	196.00	186.00	188.00	188.00	191.00	193.00	203.00	208.00	217.00	246.00	280.00	288.00	229.00
