349.69	369.56	363.12	353.06	374.06	394.69	432.88	410.50	397.56	382.19	417.06	415.56	415.69	375.31	359.56	391.69	389.19	360.44	299.75	301.50	326.00	336.31	347.69	348.38	366.44	373.19	380.31	393.06	390.12	382.25	369.25	358.56	365.06	418.38	423.81	424.81	425.19	426.81	418.44	411.62	386.06	374.56	378.94	394.31	513.75	623.12	625.50	553.12	621.81	690.62	596.25	662.19	713.44	715.50	775.38	713.69	796.62	862.12	843.94	954.12	786.25	976.94	1058.06	885.81	857.50	1225.62	1188.69	891.06	684.81	680.50	689.19	704.75	602.00	508.25	454.44	273.69	203.56	197.69	187.69	181.56	180.25	180.62	180.25	180.94	179.38	180.19	180.44	179.38	181.38	209.19	208.12	282.12	332.12	391.12	370.38	235.12	193.75	181.81	188.69	196.94	199.81	206.12	230.50	274.81	341.75	389.06	420.81	318.75	429.88	432.31	635.31	628.31	910.94	1053.94	1118.81	999.56	988.69	968.94	976.44	907.38	908.69	913.69	892.12	893.00	863.56	818.75	806.06	759.31	746.69	709.25	685.94	708.56	728.50	713.31	660.94	626.88	640.50	675.31	656.38	630.50	659.56	691.81	903.69	973.62	932.25	925.75	840.50	806.88	830.75	908.19	899.50	864.75	872.50	864.19	844.75	808.69	792.00	785.12	785.44	703.81	709.56	729.94	687.75	658.69	678.00	645.19	619.25	666.62	648.88	614.62	611.44	593.25	572.94	537.31	536.31	577.94	591.81	573.06	581.38	586.50	590.31	599.06	585.88	627.31	635.81	629.00	604.88	595.75	586.75	553.81	573.50	608.31	591.38	601.44	569.62	597.69	563.81	593.19	576.06	578.88	606.00	623.25	573.44	540.25	540.12	554.44	565.00	547.38	569.75	594.06	577.25	563.31	603.50	590.25	632.44	627.88	597.19	574.56	562.88	567.19	564.12	572.38	570.19	567.12	623.12	645.62	621.06	601.38	577.50	576.94	576.12	576.56	576.44	580.69	580.69	584.88	577.62	577.69	589.25	594.88	587.94	580.44	590.94	586.44	593.56	596.12	615.38	624.25	602.62	583.62	541.69	541.06	571.69	583.94	589.12	577.31
352.38	365.88	377.31	355.50	350.25	369.69	380.88	362.31	360.06	380.31	401.94	408.06	365.50	348.19	371.69	380.19	376.56	321.31	302.25	286.50	308.06	319.94	347.81	363.44	383.94	413.06	433.44	396.44	384.81	338.81	331.44	343.31	358.50	375.38	385.19	389.44	407.69	412.69	417.69	387.38	395.50	430.62	438.25	388.94	427.00	571.88	690.75	671.31	640.56	702.00	727.25	701.81	763.44	784.38	835.12	864.88	803.69	821.56	887.12	959.75	903.38	879.00	948.75	909.94	1063.56	1211.50	1054.12	920.50	742.50	789.00	773.31	748.50	673.44	559.56	412.81	287.94	212.06	202.00	190.44	184.50	182.50	180.56	180.88	180.31	180.69	181.75	184.00	181.19	183.50	195.00	210.62	287.50	307.00	345.62	367.25	234.56	195.75	197.69	195.38	203.38	209.81	209.00	215.88	253.44	304.69	386.50	293.31	384.88	523.06	559.31	427.50	569.62	744.19	774.44	1072.38	1041.06	1036.94	997.62	1003.44	999.88	987.50	946.38	925.88	901.81	875.88	822.94	801.94	766.19	743.81	720.31	725.44	762.44	743.12	701.69	650.94	662.62	712.94	686.31	663.75	649.44	651.56	704.00	937.06	964.25	940.88	909.38	913.44	885.62	826.06	820.88	885.50	879.88	853.19	842.25	820.44	785.38	730.19	738.00	734.62	718.56	664.81	712.94	657.56	652.19	631.69	636.00	619.62	623.50	604.50	605.06	611.88	600.56	565.12	536.00	547.31	583.94	606.56	602.25	588.88	620.31	595.19	585.31	579.81	612.50	626.88	606.00	593.31	590.25	578.00	543.19	588.12	612.44	614.69	605.44	597.06	602.00	574.25	610.94	594.19	579.69	575.19	618.38	564.31	545.19	543.44	546.19	552.19	552.69	593.12	622.94	596.44	573.50	579.75	598.06	636.31	628.38	632.94	593.38	572.44	584.75	576.88	579.94	609.50	572.69	578.75	593.19	614.81	599.31	582.19	582.31	582.12	583.81	582.81	588.44	586.06	593.94	588.00	587.50	584.88	599.69	591.69	599.19	595.56	597.00	611.62	604.94	598.19	610.44	596.62	562.00	535.81	550.50	581.50	583.88	594.69	587.62
360.12	376.12	397.12	395.75	395.31	392.94	360.31	398.19	397.00	396.50	406.94	352.12	338.94	342.69	348.25	355.56	340.25	313.94	293.44	294.31	322.44	326.25	331.75	356.06	385.25	424.12	428.56	397.88	358.38	361.75	331.31	340.19	339.00	362.81	406.19	411.50	425.69	448.62	423.44	405.69	417.75	437.19	486.25	496.94	413.88	524.31	693.38	742.81	778.19	715.19	631.62	639.19	626.88	727.88	824.31	871.69	844.81	691.06	798.94	782.12	867.69	899.75	988.56	984.12	1188.62	1053.12	830.94	802.38	902.94	908.06	852.25	735.31	553.50	359.50	269.06	234.88	216.56	205.25	195.00	186.19	184.50	182.56	183.19	183.94	183.25	184.31	186.69	183.69	184.06	183.44	209.44	257.06	373.75	396.12	306.19	232.88	193.12	201.25	199.06	198.69	205.06	215.88	222.50	231.50	263.56	307.31	392.81	579.81	782.00	867.38	628.19	598.69	550.56	702.38	893.75	1054.56	1015.81	1017.94	1007.94	991.69	971.06	961.62	922.31	879.69	850.19	842.31	799.56	773.00	737.75	760.94	765.81	759.19	734.50	700.12	661.62	695.19	716.94	693.50	684.56	684.00	665.75	677.38	875.12	916.38	919.81	912.81	884.88	889.25	882.75	852.75	808.44	853.56	841.94	822.50	747.81	701.25	725.69	673.00	631.50	656.94	625.81	639.81	589.75	593.81	615.50	624.31	612.19	630.62	593.25	621.88	600.19	588.94	551.69	544.31	556.19	588.88	617.69	622.50	599.62	596.81	583.75	577.81	577.38	603.88	607.44	594.00	577.19	574.12	570.12	563.31	558.94	607.69	626.38	623.94	616.12	610.75	579.62	624.94	608.88	605.06	580.38	588.94	555.69	551.00	550.06	550.44	559.06	557.88	616.75	632.19	618.19	584.81	576.56	614.12	636.81	651.94	643.69	601.00	583.88	607.69	588.19	581.56	604.25	616.69	589.50	582.75	595.75	610.56	594.25	589.50	590.31	589.69	594.25	597.44	595.69	596.88	590.94	594.00	583.62	609.94	608.88	601.88	609.06	621.69	636.56	615.12	578.88	596.88	581.75	549.25	535.81	556.31	589.12	584.69	584.88	604.00
356.00	387.81	405.50	425.62	406.50	444.44	364.25	395.94	421.25	400.94	347.75	328.62	336.56	364.69	355.88	297.81	303.88	295.44	282.12	317.31	341.81	357.50	359.88	393.12	442.56	443.19	405.12	385.31	383.25	345.81	342.50	368.38	366.12	371.44	401.69	439.31	460.56	496.25	475.94	445.81	415.44	501.94	568.06	542.06	405.38	499.88	617.31	743.31	727.12	612.69	563.69	716.44	730.50	705.25	715.19	714.75	700.12	802.00	934.81	905.44	881.31	963.75	967.44	1104.06	1025.06	893.94	796.69	624.69	801.94	706.06	684.75	566.50	420.25	292.50	359.06	270.75	212.75	201.75	192.19	187.06	186.75	184.81	186.19	188.50	185.38	187.94	186.94	185.12	186.25	183.94	241.00	306.50	379.31	324.81	233.56	189.38	188.69	191.31	204.62	202.75	208.00	214.94	230.81	244.62	295.94	519.56	572.75	730.00	1020.81	1037.56	903.81	969.81	560.75	875.62	881.00	1032.38	986.75	965.12	1007.44	957.50	1001.31	931.19	954.75	917.00	876.06	834.38	783.62	754.69	717.38	735.50	757.81	737.12	709.94	683.38	694.25	726.06	729.12	709.81	735.38	738.62	705.69	688.81	715.19	776.62	888.75	887.44	848.69	847.31	867.75	836.44	755.12	849.88	822.19	707.56	737.75	787.75	775.75	727.75	687.88	660.62	654.88	619.94	611.62	647.88	611.12	600.12	592.12	570.12	563.62	567.81	554.12	552.56	543.75	555.69	560.19	593.88	602.88	616.12	602.62	583.69	583.00	578.81	577.88	601.19	609.50	592.12	588.69	583.38	574.69	579.12	550.31	557.69	629.25	626.00	636.06	623.38	597.19	626.38	616.12	608.00	594.88	582.00	565.19	556.19	556.00	554.19	565.56	571.06	636.38	656.69	633.38	592.50	578.94	611.06	610.88	653.88	652.38	613.38	594.06	609.12	592.81	589.56	612.00	646.56	615.19	590.50	591.94	599.38	601.75	598.19	599.38	596.94	609.56	610.25	602.50	606.75	601.75	603.94	588.44	620.25	619.44	610.44	623.75	644.44	634.25	622.31	577.56	579.75	569.50	543.38	537.69	572.50	573.25	570.06	596.75	593.69
363.62	378.44	403.62	434.44	449.19	470.12	402.19	377.81	393.38	385.00	321.94	323.56	329.94	323.12	335.44	289.12	286.69	294.00	296.94	319.62	330.75	360.50	398.56	450.25	467.44	435.31	406.38	382.94	360.69	340.38	369.94	387.75	387.62	401.69	444.75	445.38	503.06	558.00	547.12	487.50	449.19	496.00	591.06	455.50	469.31	687.00	707.25	637.19	513.12	583.12	723.12	766.31	828.25	896.31	924.81	799.12	807.50	917.44	1016.88	1001.25	981.81	930.31	1039.12	1135.56	799.94	666.12	588.19	507.38	553.88	564.38	469.00	395.56	317.12	407.94	528.81	337.44	204.81	193.00	189.12	192.81	193.12	187.38	188.00	192.69	191.25	190.50	187.44	184.25	185.94	183.31	223.19	282.56	281.00	248.75	190.81	193.50	196.94	197.44	207.56	214.75	220.31	220.06	237.19	264.50	333.00	438.31	491.31	698.62	987.44	1032.00	1004.75	983.50	620.06	864.06	938.88	1009.06	986.81	915.75	951.94	904.31	948.06	877.19	946.38	950.12	902.31	851.94	798.19	746.56	717.69	724.62	758.62	723.06	710.75	718.50	731.31	744.56	744.69	728.44	755.75	764.25	788.88	870.62	833.94	700.25	837.06	868.06	867.94	799.12	846.50	827.00	726.31	756.69	701.38	760.88	823.56	801.25	770.19	734.19	718.56	683.69	659.06	630.25	646.06	643.62	629.06	627.12	618.50	574.69	559.00	554.38	550.69	549.94	562.88	566.12	573.94	587.81	583.38	608.50	601.38	613.94	611.94	586.00	580.75	589.06	598.00	599.38	585.75	605.75	598.12	590.12	551.38	584.25	633.06	634.81	649.88	639.50	628.31	613.81	633.69	620.06	611.00	586.94	582.75	561.31	560.62	558.44	572.00	588.88	651.69	661.38	629.81	595.69	582.06	598.06	599.50	626.75	671.94	620.62	605.00	603.62	619.19	598.69	623.06	659.62	646.62	598.44	600.88	600.81	601.88	608.81	603.56	605.94	614.00	612.06	608.50	626.06	608.19	606.88	593.25	628.69	627.56	620.31	628.88	664.31	642.69	614.69	593.12	577.81	565.81	532.81	539.88	583.06	561.44	575.38	580.75	574.19
377.50	388.75	417.69	432.38	418.19	460.81	439.94	396.69	386.88	375.19	331.62	294.12	289.62	278.62	309.56	271.44	275.88	287.25	311.81	315.69	349.50	388.75	429.31	454.12	464.75	440.62	417.25	365.69	349.31	359.06	384.88	406.06	416.62	456.94	503.62	528.94	563.62	563.81	565.94	519.81	524.19	529.69	553.56	414.88	578.31	767.94	699.06	486.44	568.75	713.75	742.69	810.94	849.12	822.44	855.38	798.69	834.25	967.25	1043.50	965.56	1045.94	1032.25	1169.94	1137.19	966.31	870.06	706.94	544.69	413.81	416.75	387.69	356.19	442.69	622.50	589.12	337.19	209.62	189.12	191.06	193.12	190.31	189.44	189.38	193.94	193.19	189.69	188.38	185.94	186.50	185.56	201.69	207.62	200.94	195.56	194.75	219.19	199.12	204.88	209.19	217.94	226.25	230.00	262.94	335.44	404.38	431.19	469.06	553.81	812.88	879.81	935.88	993.31	784.38	783.25	909.38	972.88	941.94	942.69	911.62	935.75	895.31	895.44	904.50	945.44	901.12	842.94	786.56	742.62	733.75	719.69	749.81	713.81	721.62	762.69	755.94	745.19	750.69	737.62	735.69	726.88	769.50	878.44	879.31	712.06	854.31	850.94	842.50	768.62	757.31	768.81	717.25	720.25	767.50	848.38	816.62	803.19	763.12	731.38	696.62	671.62	657.88	654.31	662.50	637.50	615.38	600.88	599.69	572.06	584.50	573.88	557.19	567.69	594.25	583.75	588.62	570.88	579.44	602.62	614.50	619.88	633.00	595.00	583.88	585.31	604.06	603.00	576.25	613.38	590.62	563.31	600.81	617.25	622.00	646.25	654.50	647.25	640.88	619.00	642.06	630.50	618.38	593.62	583.81	566.31	563.38	561.50	578.50	600.38	665.75	656.56	620.62	597.06	599.12	615.81	594.75	622.81	673.50	619.44	614.56	611.00	626.75	608.81	616.69	661.75	662.19	607.62	607.19	606.94	606.69	608.62	608.38	610.75	620.81	618.88	614.81	624.44	612.62	613.06	601.81	637.81	632.69	627.94	643.50	655.44	649.81	623.31	599.31	591.19	561.25	531.00	543.31	592.06	581.50	567.50	565.19	614.56
391.12	387.25	385.25	369.69	357.50	388.75	444.19	410.44	345.75	334.19	323.94	311.50	264.50	264.81	265.25	262.06	291.94	309.62	330.88	343.56	386.81	428.75	447.19	464.62	461.94	452.19	388.25	328.50	335.81	351.75	378.00	397.88	483.56	562.12	559.94	553.56	568.19	584.62	581.31	539.81	538.06	526.62	468.12	402.56	427.31	567.06	567.69	431.00	433.00	509.75	571.06	643.69	598.69	719.06	696.06	775.69	909.62	946.81	912.44	1026.69	943.19	1087.00	1222.88	1054.19	941.38	741.44	560.69	483.44	579.25	587.56	552.94	486.56	608.88	661.19	560.31	332.44	220.06	189.69	191.25	191.75	190.31	190.88	190.69	194.12	194.75	190.69	191.12	188.50	188.69	189.56	189.19	191.50	192.00	191.19	228.25	210.81	204.25	213.00	222.12	234.00	235.81	246.44	343.06	399.12	487.06	646.62	671.25	626.50	704.56	793.25	885.00	961.25	969.06	743.81	896.19	936.81	980.00	1026.31	1033.56	1001.50	1000.44	963.56	862.44	941.19	905.44	833.00	773.06	737.88	708.69	707.31	732.25	706.38	710.56	760.19	755.06	749.12	789.19	782.81	814.62	770.88	717.62	860.19	861.19	724.50	856.88	809.25	803.81	705.00	666.44	706.50	647.62	707.19	789.38	826.31	800.31	763.50	726.06	692.50	662.69	648.69	659.06	666.88	659.19	622.81	591.12	612.25	586.50	597.50	609.88	583.56	574.38	581.50	599.50	602.00	601.56	590.88	580.31	599.56	635.50	642.75	632.12	603.12	590.06	586.31	591.06	583.12	571.50	573.00	547.38	570.06	649.44	622.56	655.56	650.38	659.81	654.56	649.31	635.06	652.75	637.75	613.69	606.88	594.06	572.31	567.94	570.75	577.25	618.69	669.62	651.00	615.56	602.81	605.56	615.44	601.06	622.69	668.50	617.62	620.75	631.75	622.25	617.38	618.38	658.75	669.25	624.06	613.81	615.06	612.94	615.25	615.50	620.62	630.12	627.06	622.88	633.06	622.94	620.75	610.00	636.62	646.25	639.56	659.44	660.38	628.69	623.75	623.75	593.00	557.12	531.00	542.19	600.44	575.81	556.38	619.44	647.62
385.88	381.31	375.69	323.81	422.81	444.38	435.00	444.25	346.75	309.19	292.31	287.81	264.44	261.44	276.25	291.44	304.88	317.50	328.69	342.25	378.56	432.38	464.56	456.94	436.69	420.31	307.00	305.31	333.62	360.69	381.62	437.19	553.25	557.25	537.31	525.38	522.12	535.12	557.12	556.62	554.38	521.12	506.38	486.81	418.44	409.50	411.06	480.44	467.94	409.56	478.50	519.19	738.75	850.50	917.56	955.81	892.44	767.94	975.44	939.75	993.81	1119.12	1039.00	828.94	656.75	549.69	627.94	674.25	791.81	737.75	557.25	634.00	674.50	580.19	496.56	269.31	208.62	192.00	195.44	192.44	193.50	192.88	192.94	193.88	193.56	191.75	193.69	190.69	189.19	191.75	193.06	192.38	196.12	211.25	236.75	211.62	212.19	218.62	227.06	239.50	248.94	272.44	417.75	606.31	598.31	643.38	651.94	579.25	689.62	727.38	732.00	815.94	920.88	846.25	791.69	939.88	974.44	1049.19	1026.62	1009.00	971.19	920.31	885.31	931.62	899.81	835.38	774.62	757.94	719.44	716.12	736.94	699.06	703.62	757.50	730.00	747.56	842.81	803.44	782.75	810.38	810.69	789.81	813.75	725.00	838.31	730.06	691.50	656.12	733.50	705.50	666.94	726.00	781.06	792.25	757.75	716.75	709.69	663.62	632.88	645.31	620.88	637.31	623.50	622.19	601.88	631.75	635.75	633.62	592.31	586.25	595.31	599.81	609.44	622.00	624.12	614.25	592.88	591.06	631.25	667.00	650.31	630.12	604.12	579.69	579.44	591.12	584.81	555.69	560.56	637.31	654.62	613.25	645.38	662.25	668.38	681.25	663.44	682.19	674.38	634.44	614.00	640.25	616.88	577.25	572.31	580.56	584.31	596.38	620.25	619.44	612.62	621.00	610.94	610.00	610.44	624.38	644.44	629.81	634.06	650.75	630.38	622.94	627.25	656.75	674.06	636.38	620.75	620.81	617.94	624.75	622.31	626.81	636.31	633.19	628.62	645.56	649.69	624.38	610.12	635.31	657.38	655.81	667.00	672.88	644.25	621.69	644.50	605.19	557.69	531.06	535.88	575.38	541.69	625.19	646.25	666.69
394.56	394.62	352.56	340.44	391.00	360.31	342.75	367.69	345.38	312.56	319.56	283.88	240.56	288.75	313.31	299.94	321.69	326.94	315.56	326.88	369.69	406.81	359.88	353.81	338.00	304.06	295.06	301.19	323.25	363.44	399.81	480.69	541.75	532.50	511.06	510.38	527.31	540.12	557.81	588.38	581.88	572.62	607.50	619.00	552.25	394.88	474.94	574.50	630.94	428.56	471.62	637.56	854.38	936.81	950.25	769.25	715.75	873.12	837.06	909.75	977.62	1084.25	930.12	745.69	840.56	673.69	764.19	955.12	940.50	686.88	645.81	590.75	484.12	554.94	461.62	228.88	193.75	199.31	198.75	194.69	195.25	196.50	197.00	196.62	195.69	193.75	194.12	192.12	191.44	191.00	193.00	196.19	194.56	260.88	232.19	205.38	216.69	226.88	233.75	248.00	264.31	301.12	401.12	458.75	440.88	462.50	462.12	563.56	605.75	661.06	668.88	734.94	864.88	912.19	895.44	1047.44	1060.12	1041.56	1016.75	1019.19	1059.62	955.38	876.69	856.94	846.88	824.38	758.69	769.56	749.19	726.62	729.44	682.44	702.19	749.62	715.44	717.88	800.56	842.38	894.06	829.06	819.94	727.12	788.12	711.94	745.25	649.94	729.75	719.88	775.44	755.06	752.62	767.94	769.19	747.50	708.31	694.44	666.50	637.12	621.81	631.50	630.44	603.62	627.12	640.00	610.00	632.94	655.44	648.69	592.00	609.50	619.56	622.62	625.94	639.75	645.56	631.44	623.50	620.38	610.94	642.56	666.06	659.56	615.50	560.62	565.50	574.88	573.62	590.69	577.25	640.38	621.62	619.06	666.56	683.12	673.75	682.31	676.25	673.88	656.56	644.25	640.06	642.69	619.50	586.00	579.56	590.62	594.12	593.12	606.44	623.12	620.62	626.69	618.88	635.12	619.81	624.31	647.06	669.75	651.81	663.06	654.56	635.62	638.31	644.75	688.00	638.88	632.31	627.12	624.88	640.75	629.44	635.88	641.69	640.31	636.06	653.38	668.25	631.31	612.31	650.88	666.38	668.50	678.19	655.44	644.94	649.88	654.31	630.56	567.56	531.00	531.00	532.19	555.06	659.44	668.62	688.38
402.50	366.19	311.50	295.19	314.44	315.50	346.75	323.88	377.88	300.62	317.56	279.06	252.50	317.69	331.25	328.94	294.88	267.94	269.69	300.31	355.25	323.81	303.88	296.38	286.25	289.69	293.50	313.75	373.06	404.62	415.38	521.00	533.12	488.00	500.19	502.88	538.38	558.44	546.12	552.62	547.44	602.50	676.81	718.75	590.81	417.94	530.38	658.06	790.06	514.50	560.44	709.44	875.31	888.56	768.94	783.50	842.69	913.19	988.44	1010.81	779.75	1031.62	1023.94	798.31	1092.94	727.00	804.12	1046.12	1099.50	841.50	642.44	390.88	392.31	507.50	498.50	253.06	196.25	198.44	200.25	196.88	197.56	197.12	199.12	197.94	196.69	196.00	195.94	193.81	192.44	193.31	194.19	195.19	195.31	248.81	229.00	208.94	222.94	228.50	234.06	251.50	271.94	329.44	354.38	326.69	337.38	361.56	389.50	468.75	531.06	650.56	669.25	776.31	871.25	958.69	1003.69	983.19	1057.12	1074.69	989.81	969.81	1007.44	956.06	983.88	884.56	875.44	804.81	771.38	741.38	754.19	716.69	726.56	679.94	722.44	731.19	702.81	700.44	767.56	820.38	838.12	892.94	892.25	786.62	809.81	796.00	670.44	661.31	729.38	787.38	777.19	802.88	766.81	733.69	733.56	706.00	683.44	672.31	654.44	636.12	615.38	654.62	635.25	642.50	650.31	626.12	628.88	611.69	641.12	642.88	616.81	594.50	607.75	625.44	636.62	655.31	641.88	661.88	645.31	624.19	606.56	602.19	656.44	678.62	626.38	550.00	561.25	569.75	567.81	588.25	595.56	584.69	605.81	636.69	666.56	675.25	699.75	695.88	662.62	678.25	662.50	671.06	653.69	654.50	628.06	592.25	601.25	605.31	604.75	600.19	603.69	628.62	627.75	634.50	639.12	669.44	634.69	634.94	639.62	670.31	659.69	675.81	675.75	654.56	669.31	649.19	677.88	653.00	647.69	633.31	636.81	660.69	639.75	653.56	647.50	651.06	645.31	667.38	665.38	636.62	618.38	662.25	673.75	682.31	693.38	666.44	644.62	651.75	663.12	650.88	578.56	531.06	531.00	541.06	624.50	689.44	689.56	690.06
407.38	406.88	401.50	339.00	300.19	279.44	314.12	298.44	293.19	279.62	330.31	265.31	258.19	274.50	310.50	302.69	291.88	273.25	258.94	288.75	272.75	271.25	263.62	270.88	281.38	310.88	326.94	342.94	368.12	397.25	465.19	435.44	409.19	444.69	479.62	516.25	539.81	522.75	532.12	573.25	580.31	569.25	599.06	669.44	682.44	494.12	586.62	606.25	748.94	623.88	503.69	673.00	719.25	811.06	679.44	632.88	683.19	915.25	1010.44	1017.38	691.44	916.81	1096.81	957.75	1112.31	931.38	1135.38	957.12	923.00	836.38	621.88	375.00	374.56	344.94	368.88	281.12	199.06	199.38	201.62	199.06	199.50	198.50	198.69	200.06	198.06	199.31	199.88	195.56	195.56	197.12	196.56	198.00	197.50	214.25	214.75	217.31	218.38	235.69	347.12	351.25	327.00	430.00	614.31	514.50	406.00	378.81	400.75	436.19	519.00	620.06	774.62	814.94	935.56	1045.62	990.31	996.50	972.50	1018.06	1081.38	1046.75	993.25	981.94	1007.56	951.81	897.56	827.56	762.75	715.69	765.00	714.81	719.19	676.69	682.62	711.06	707.62	691.06	767.25	827.19	876.25	835.12	855.69	837.00	744.81	689.38	767.25	768.94	730.00	812.31	792.88	775.44	746.00	739.69	707.12	689.25	667.19	641.94	642.88	623.69	634.75	656.69	638.31	651.62	653.44	630.69	640.19	618.62	643.81	631.38	620.62	624.62	606.81	639.44	650.88	672.44	670.62	667.62	646.06	615.31	605.75	591.44	625.00	664.44	620.38	549.88	568.00	574.56	573.00	593.25	624.50	598.56	604.50	630.88	657.44	706.81	718.56	697.50	669.31	682.44	670.62	692.00	674.62	657.88	635.69	592.81	613.94	621.25	617.75	608.81	605.94	626.00	635.44	642.56	656.88	698.75	664.81	653.69	645.12	671.25	677.38	707.19	680.19	661.00	707.62	669.19	659.69	664.81	658.06	639.44	652.12	657.94	647.50	664.88	658.81	662.00	654.38	683.00	651.12	643.44	622.69	669.69	682.50	689.38	696.44	682.62	664.81	660.94	681.12	663.12	591.06	535.12	531.00	578.38	659.94	693.44	707.75	696.00
402.31	421.81	392.31	328.25	302.06	277.75	290.19	286.44	270.25	284.56	308.31	259.75	247.50	250.56	272.88	279.94	273.50	277.44	265.25	252.62	250.00	248.38	266.06	278.50	298.44	319.06	329.50	354.69	370.06	396.81	366.31	370.44	388.75	447.44	483.25	481.75	487.31	488.81	577.19	556.94	477.44	540.31	635.44	667.06	674.31	469.00	613.62	811.44	805.06	814.50	608.12	513.88	516.50	590.00	597.75	736.88	891.06	972.00	1007.88	965.38	605.12	804.12	952.56	1173.06	1170.38	1104.44	1063.19	781.19	589.69	604.50	571.06	500.94	414.94	284.31	267.12	235.75	201.50	201.56	201.88	201.69	201.50	201.62	202.88	200.69	200.88	202.50	203.81	197.38	197.31	199.06	197.62	198.44	200.31	202.25	211.06	217.75	247.31	294.88	416.00	433.38	386.81	537.44	640.12	587.81	575.38	434.94	481.38	551.12	646.44	836.19	958.81	1040.88	1054.94	1089.62	993.44	935.06	974.00	919.62	1019.81	1061.00	1028.12	987.00	955.94	929.69	888.62	824.62	772.06	720.00	776.69	755.81	696.94	675.88	680.12	700.50	693.06	710.75	767.88	865.19	811.94	822.06	787.56	788.62	679.00	727.62	777.94	812.31	785.69	752.94	775.69	746.38	731.75	712.00	685.75	675.19	657.88	649.44	634.81	614.69	634.00	664.25	652.06	669.88	662.75	631.62	642.50	636.31	655.88	663.06	660.50	659.06	625.94	632.38	651.19	663.25	666.88	635.44	625.44	619.31	574.12	577.31	590.75	602.50	573.38	558.38	571.00	579.44	590.81	600.44	623.88	617.44	603.81	631.94	658.56	692.94	703.31	683.12	680.56	679.56	691.12	701.69	686.25	679.31	653.12	593.00	624.50	630.19	626.81	619.50	613.38	633.31	654.38	669.62	652.56	687.00	699.88	669.06	658.94	684.38	719.31	726.31	689.19	675.75	726.62	701.56	673.94	671.44	667.69	644.81	656.50	653.50	678.25	669.69	667.94	672.00	668.25	697.44	653.56	652.31	635.31	683.56	704.44	716.25	706.75	693.56	674.19	676.38	680.25	656.38	599.19	539.12	531.38	576.31	686.25	703.94	710.31	701.38
376.50	362.25	368.44	386.56	335.81	310.00	276.25	282.88	269.94	257.19	258.62	261.94	267.56	244.44	251.19	277.94	260.38	250.94	246.00	258.50	268.56	259.19	265.69	292.56	298.38	307.31	326.25	331.06	346.69	345.75	330.44	342.56	348.06	410.94	415.50	429.38	463.25	515.94	563.19	421.38	494.88	581.94	664.25	732.75	781.75	611.00	494.12	601.62	740.81	797.19	810.81	705.62	656.31	773.94	746.88	748.62	711.94	835.94	1036.44	904.25	564.56	656.44	880.75	1160.44	1043.00	858.69	752.12	669.06	626.50	506.69	410.06	501.44	426.88	268.56	251.56	210.44	203.69	204.69	203.56	203.19	202.56	203.12	203.44	202.88	203.25	204.69	203.19	199.94	199.94	202.19	200.12	201.19	202.62	206.62	216.06	227.81	265.06	384.44	389.19	414.12	509.75	541.31	641.56	740.75	798.31	506.62	516.75	703.31	686.06	841.69	1033.56	1010.69	988.38	1098.81	1020.12	921.88	930.94	939.88	977.69	1007.19	971.81	939.62	895.62	859.25	852.06	804.56	747.31	719.69	733.00	722.06	696.81	675.69	672.12	682.06	681.94	706.50	714.81	795.38	848.50	779.25	718.38	692.56	684.19	775.88	814.62	818.56	785.94	744.44	747.38	728.19	730.19	700.62	682.88	667.69	659.69	656.75	631.94	619.44	635.00	648.44	669.69	659.50	654.94	649.88	640.06	659.06	644.44	656.94	662.62	647.06	617.06	629.94	637.88	638.31	632.88	633.50	613.12	591.44	572.00	567.44	578.00	578.12	559.19	563.94	574.12	581.81	590.25	600.88	615.75	633.12	618.06	691.19	679.69	659.81	670.88	655.00	691.44	700.94	715.00	712.19	697.88	689.38	657.44	597.62	643.19	639.75	636.62	639.06	623.19	641.88	678.50	704.75	675.31	695.88	730.38	691.62	701.31	719.06	740.62	733.56	686.81	696.25	720.50	690.50	707.31	691.88	666.38	655.50	663.44	660.31	684.56	675.31	675.69	685.50	703.31	702.19	667.69	660.94	647.44	681.56	719.12	731.31	719.31	699.94	697.19	698.12	694.44	642.62	604.50	542.19	533.25	555.62	672.62	711.75	723.50	709.06
335.12	311.00	308.31	414.94	343.06	297.69	316.38	320.75	315.69	302.00	302.06	305.62	320.81	280.44	244.31	245.25	233.88	240.62	275.25	310.50	327.06	293.50	280.12	299.31	289.25	277.25	305.94	305.25	300.25	277.94	288.88	300.62	296.81	324.38	403.12	440.25	469.00	470.75	405.94	462.19	500.56	594.44	690.56	741.81	724.31	753.00	581.62	549.31	667.69	725.31	747.06	788.69	846.06	677.19	770.31	1008.56	900.06	868.00	929.94	917.25	609.44	597.12	957.44	1074.31	1113.75	1034.50	903.44	962.94	776.31	575.25	424.06	384.69	482.06	256.38	226.56	217.00	207.62	208.69	205.94	205.31	204.44	206.38	205.69	206.12	206.50	206.75	205.69	201.69	201.75	203.88	203.56	205.12	207.25	220.31	228.81	232.81	279.50	319.19	343.88	499.38	703.88	746.56	846.44	1023.56	926.62	693.62	742.44	775.06	1005.19	886.38	867.00	932.06	956.81	978.00	995.50	942.69	867.25	873.88	945.31	968.88	947.75	912.94	880.44	833.94	799.12	796.56	776.12	775.06	741.50	702.06	689.31	686.38	680.25	673.81	670.12	699.19	720.75	691.12	693.81	706.38	770.38	754.62	752.81	745.94	760.81	761.44	757.12	734.25	727.00	708.94	695.62	686.81	679.81	654.25	642.06	635.31	628.94	631.56	655.25	651.00	683.50	669.38	654.81	636.62	643.06	663.38	651.19	659.56	651.44	631.00	615.81	618.56	664.00	689.62	691.00	634.25	615.50	586.94	579.88	570.31	572.88	572.94	560.56	555.06	560.19	575.44	583.62	596.62	614.56	642.69	689.88	741.06	663.12	652.62	652.75	676.19	733.38	722.69	726.94	734.19	716.44	697.81	649.44	612.19	618.38	655.38	646.50	677.38	637.44	641.25	695.50	734.75	703.75	685.44	730.94	725.50	756.06	739.44	780.62	744.19	722.38	741.50	725.25	749.31	739.81	703.94	663.44	672.75	676.12	678.00	691.94	690.25	688.44	709.56	726.88	718.38	695.50	678.44	679.62	663.38	698.38	714.00	712.56	701.38	707.06	707.56	675.69	618.44	593.00	544.44	535.12	544.44	625.94	713.00	729.00	717.06
269.25	302.31	305.75	359.06	380.62	314.62	297.25	310.19	305.25	292.69	285.50	282.50	293.88	262.88	277.44	235.81	232.50	263.62	311.44	301.19	317.88	303.19	288.12	288.50	285.56	277.38	257.69	257.38	285.94	272.06	265.12	273.94	295.88	318.50	332.88	373.50	391.00	359.00	440.94	570.56	616.38	674.00	710.31	635.75	674.56	608.25	590.88	481.69	517.00	551.31	556.94	688.31	618.56	675.88	803.50	956.62	882.75	839.38	983.50	989.44	691.38	493.12	752.69	707.06	901.94	1109.75	1143.88	1223.19	874.44	733.31	558.50	406.00	326.06	258.69	237.00	222.00	211.12	208.25	207.44	207.62	207.50	210.12	208.94	208.19	210.62	209.56	207.50	204.44	205.12	205.44	208.44	208.69	215.00	227.25	241.38	248.56	270.06	317.88	424.00	537.12	637.62	845.19	1016.19	1134.88	885.00	942.56	1108.75	987.44	918.31	1158.88	1056.12	1001.06	914.06	928.38	888.94	877.62	1012.75	926.75	876.06	931.62	912.88	875.25	852.06	829.62	807.25	802.62	800.69	810.44	771.00	725.12	706.50	711.81	701.75	694.31	702.31	756.94	803.75	808.56	723.38	760.38	778.38	773.06	710.38	703.25	690.38	700.62	706.81	696.81	712.75	689.38	638.75	652.94	664.75	641.62	607.38	620.81	638.81	643.88	660.75	670.50	673.12	658.56	632.31	630.81	684.50	685.56	661.50	697.06	686.94	652.50	617.12	609.94	617.12	637.75	667.56	641.50	602.81	591.06	575.56	574.12	582.81	562.69	546.06	572.00	552.12	578.88	589.69	626.62	627.88	659.88	720.94	680.31	652.06	657.19	664.31	714.12	739.31	734.94	738.75	741.56	727.00	673.31	614.12	628.38	612.75	646.06	666.69	699.00	655.31	646.12	661.25	741.69	713.06	701.06	740.38	755.12	779.75	747.50	789.44	776.69	781.75	763.06	734.62	789.31	765.44	735.94	685.75	684.62	695.06	702.44	709.19	702.75	715.44	743.38	750.94	737.56	730.81	712.06	697.56	689.75	661.19	678.19	706.25	703.44	713.31	713.25	647.81	610.38	578.00	550.62	539.25	540.50	579.19	669.06	701.44	710.06
288.12	341.12	274.38	293.06	379.69	363.00	293.62	280.75	272.69	282.81	257.69	269.94	281.12	248.44	258.06	249.75	242.88	278.00	292.88	284.94	319.12	285.38	275.25	270.31	303.56	273.50	263.81	248.44	276.19	255.38	254.00	269.12	280.12	298.12	312.75	328.81	343.75	419.06	507.62	602.06	647.50	650.38	654.12	580.19	592.12	506.69	609.00	647.31	720.38	528.31	483.69	566.38	572.44	762.38	810.44	893.81	684.56	817.88	980.62	891.81	628.94	473.00	559.62	645.12	732.00	937.81	1010.88	1160.94	838.69	775.44	502.31	443.75	321.81	257.56	238.69	223.44	212.81	209.81	209.38	209.31	208.81	212.62	210.94	210.44	213.75	211.56	208.25	205.12	205.38	208.00	210.69	210.88	221.75	234.38	250.75	264.12	324.00	403.75	467.06	578.56	746.25	891.62	1059.56	1100.94	965.00	866.06	1000.50	1191.00	1083.62	1208.19	1126.88	1143.12	981.25	972.19	880.94	975.69	1064.25	1072.19	947.31	896.38	895.94	834.38	826.69	808.00	805.88	780.75	748.88	766.62	755.00	732.12	733.25	743.88	734.69	766.19	828.75	882.75	839.12	796.94	718.75	801.38	776.12	756.62	674.31	660.56	654.94	671.38	682.25	665.00	686.12	654.81	628.44	635.31	657.50	601.56	598.94	634.19	667.56	637.69	663.31	682.94	678.62	645.94	624.94	637.06	688.88	694.25	687.69	670.75	709.38	728.31	643.81	612.00	609.62	616.31	624.69	655.62	620.56	592.25	573.19	575.62	582.31	542.50	525.44	545.25	554.00	579.81	595.56	617.62	629.62	676.25	696.50	660.50	655.88	685.50	673.81	703.06	709.56	732.31	745.50	739.44	727.62	660.06	621.81	643.31	639.50	628.31	667.31	706.94	672.50	659.44	667.31	725.12	738.88	704.81	745.94	791.81	793.12	760.81	777.06	797.69	786.06	765.88	751.31	794.56	793.19	773.69	719.75	678.31	701.88	718.44	728.38	716.94	755.62	758.88	773.75	761.81	751.81	736.06	727.44	704.38	677.31	673.69	714.12	692.94	714.50	723.94	661.81	604.50	594.25	551.00	542.06	542.31	562.69	624.31	649.00	671.62
264.88	272.25	344.50	376.31	398.75	366.88	282.75	251.44	247.50	274.19	242.00	282.25	303.94	283.25	235.50	237.75	255.62	267.12	275.25	284.50	273.50	267.81	260.56	287.75	276.88	267.69	248.88	252.38	253.12	244.56	255.00	267.88	283.19	290.19	300.81	337.69	397.94	479.88	538.56	561.81	542.81	572.12	565.50	468.81	550.00	624.62	624.31	688.44	734.88	668.69	586.25	501.44	579.50	643.38	750.38	669.56	795.31	892.75	922.69	637.62	531.94	547.94	475.12	473.31	584.94	690.00	724.75	825.81	827.38	676.81	496.19	343.88	293.50	254.62	236.00	221.81	215.94	214.38	212.31	211.56	212.00	214.06	214.12	214.31	220.44	218.50	209.12	207.44	206.88	210.12	213.00	215.50	238.25	248.69	264.56	285.31	447.06	590.25	646.75	655.75	645.00	807.12	1121.00	1157.69	1137.25	1167.94	1131.88	1214.56	1324.06	1213.56	1058.50	1015.62	982.69	972.38	967.44	953.94	917.00	919.25	935.88	854.94	894.19	844.81	848.25	819.25	820.31	784.94	739.56	706.50	731.69	739.44	765.31	784.31	792.50	769.12	882.88	863.62	809.00	740.88	751.81	793.38	787.75	707.81	640.75	626.38	624.06	667.19	656.88	633.19	618.38	605.44	589.19	581.12	598.38	565.31	631.62	627.06	632.62	641.25	643.88	669.69	665.31	639.44	621.38	606.12	649.56	665.06	702.44	712.75	696.44	725.81	712.25	631.69	613.44	655.81	639.38	640.12	647.44	589.44	577.69	585.69	577.50	488.69	477.94	537.06	571.62	594.19	595.56	613.25	641.06	683.75	676.19	665.25	675.44	741.25	682.69	648.00	714.06	750.38	761.88	740.00	682.69	635.19	635.12	669.12	655.75	673.12	642.38	685.94	707.62	690.44	687.50	726.25	777.31	763.00	760.81	801.06	839.25	765.56	820.25	824.69	791.19	800.50	766.00	761.06	802.75	805.38	726.62	684.19	701.00	736.12	734.69	742.12	774.31	777.56	778.69	787.25	771.00	766.75	758.94	736.38	685.75	688.88	711.44	719.25	730.50	720.12	636.69	601.25	602.25	556.75	545.25	546.81	564.12	601.25	629.62	632.69
259.00	286.88	339.06	356.44	348.56	325.69	339.44	254.56	236.44	242.88	225.44	259.50	246.25	227.81	242.62	301.94	255.50	279.31	315.12	312.75	284.88	256.12	258.25	273.19	264.81	248.25	248.31	254.81	246.00	260.31	295.25	278.31	277.69	303.62	328.88	382.31	430.88	477.94	484.69	476.81	485.94	569.19	507.75	454.31	583.00	610.12	640.44	659.19	686.44	734.12	696.31	622.56	664.38	578.38	665.50	794.38	998.81	1039.25	1034.12	797.00	683.56	614.69	618.50	565.62	461.44	624.31	562.06	695.38	836.69	707.69	525.69	325.69	260.00	245.50	232.50	223.69	221.50	216.25	214.62	214.12	214.88	217.75	218.38	219.75	225.12	221.94	208.81	208.12	210.56	214.50	215.81	219.12	256.31	274.88	308.62	372.81	391.50	493.19	519.38	607.94	862.31	869.38	1164.69	1171.44	1110.19	1158.88	1283.00	1253.56	1282.12	1256.88	1085.25	1045.19	1020.75	988.75	1030.00	947.12	911.50	864.94	850.19	841.44	820.94	853.44	855.50	834.50	791.88	773.50	740.12	702.56	714.88	723.44	739.19	790.56	753.88	756.75	817.56	786.81	753.25	718.19	755.81	789.75	782.19	650.88	582.31	557.00	601.00	621.75	623.19	599.94	552.44	516.06	517.44	535.94	565.12	534.69	549.94	563.19	543.94	577.62	581.88	650.06	680.69	647.06	607.75	577.19	624.50	684.00	700.88	751.31	709.62	704.31	704.19	716.44	637.12	623.69	683.50	671.38	649.56	592.25	588.38	581.94	555.62	457.25	458.25	513.94	559.31	592.19	592.38	604.44	633.75	674.62	683.75	674.56	695.38	734.50	673.44	649.56	717.44	755.25	711.00	667.06	636.44	676.69	703.38	678.44	666.12	679.12	678.94	654.56	736.94	739.31	706.88	749.31	797.00	826.12	778.19	822.19	849.50	775.31	832.75	848.81	823.81	806.38	784.25	771.00	809.56	824.94	725.56	701.56	705.81	752.50	740.25	781.50	780.69	796.38	806.75	809.81	787.06	787.88	777.12	749.12	712.88	711.25	733.62	732.00	740.06	724.06	659.00	598.88	598.69	564.12	548.88	550.00	590.00	649.44	625.56	632.00
307.31	330.75	290.62	340.06	310.38	333.81	318.75	241.69	237.44	255.25	252.56	221.75	231.94	229.19	263.19	263.94	266.56	302.50	305.25	295.25	268.69	253.88	302.06	294.81	282.56	268.62	248.88	246.06	267.00	289.69	288.56	273.50	299.69	355.12	383.12	384.44	404.75	425.00	412.44	487.75	508.12	526.75	443.12	446.81	525.81	567.31	592.12	631.81	622.69	661.12	603.56	779.06	853.12	673.44	659.19	707.12	765.44	955.38	1120.88	994.06	853.00	807.56	735.75	620.31	529.25	441.00	513.12	676.88	951.25	756.88	499.31	318.19	258.94	240.94	237.06	230.69	224.81	220.75	215.62	216.81	218.88	223.56	226.19	226.19	226.25	218.94	210.19	209.69	212.75	218.38	219.00	233.44	267.19	293.81	353.06	559.12	528.06	522.00	467.50	665.00	896.56	1005.25	1054.50	1023.81	1020.69	1048.44	1055.19	1025.06	1194.56	1255.12	1132.06	1213.62	1104.75	1018.19	1065.50	1065.00	1064.88	988.06	906.75	875.31	804.94	772.75	770.75	750.06	746.12	723.25	695.25	687.25	654.31	659.06	672.00	788.50	805.12	765.56	736.06	735.44	766.00	751.94	774.94	724.25	712.00	671.81	579.69	536.00	532.81	537.81	549.62	533.38	525.25	471.62	474.44	494.06	528.69	509.25	496.31	535.44	528.25	571.81	543.06	608.06	681.31	683.56	625.06	579.31	596.69	684.75	713.69	747.50	716.50	699.38	729.50	740.38	689.19	588.06	650.19	692.38	685.75	587.75	599.25	582.75	515.81	442.25	449.19	485.06	545.75	581.12	574.69	602.75	632.25	663.50	692.88	695.62	723.19	709.25	674.00	659.62	665.69	675.44	640.44	642.06	686.88	708.62	708.31	679.25	684.62	676.50	686.62	675.19	759.06	746.50	712.75	721.75	799.88	843.19	822.69	825.50	862.31	771.19	774.38	840.75	855.31	820.56	787.81	760.75	825.94	819.00	730.88	730.75	714.25	760.25	749.69	790.25	767.75	828.31	829.75	823.19	796.00	793.81	748.44	710.75	709.94	717.81	731.94	730.31	740.94	762.56	726.00	601.25	604.00	566.25	553.56	561.06	602.50	639.00	637.50	634.69
253.19	278.38	258.69	301.62	259.31	290.25	243.19	247.75	295.06	277.00	236.75	218.06	217.81	221.69	240.00	250.94	236.94	255.62	257.50	248.62	247.12	294.38	308.12	291.00	303.56	285.31	248.06	252.06	258.62	248.50	255.38	314.62	340.56	345.88	349.31	337.38	341.88	354.06	360.62	372.88	382.75	424.75	410.62	503.69	493.12	517.69	592.12	590.12	544.25	504.56	628.44	705.75	972.00	953.81	776.81	938.50	873.19	992.06	939.75	813.56	729.75	821.44	963.25	843.88	641.62	468.69	458.81	684.12	633.06	552.19	379.06	298.81	261.69	253.88	246.38	237.12	229.94	223.81	220.44	219.94	222.69	226.56	228.94	228.25	228.94	217.75	211.38	213.06	215.69	221.88	223.75	258.81	259.88	303.31	451.69	489.25	640.88	686.00	572.38	723.88	1028.00	1171.81	987.69	869.50	985.81	817.81	881.25	1155.12	1271.06	1173.69	992.81	1077.06	1094.31	970.12	1030.81	1042.69	1046.81	1071.56	1029.12	960.62	905.56	854.56	816.38	807.12	763.75	748.69	752.56	752.88	741.62	695.56	602.12	682.00	724.88	730.06	790.88	777.62	790.94	762.81	695.94	650.00	654.69	649.12	537.06	497.69	483.56	484.69	482.56	470.06	469.62	502.19	461.50	456.50	456.56	498.94	516.12	541.62	544.81	586.12	621.12	557.38	600.44	686.38	662.69	569.25	539.75	600.75	717.38	739.81	745.94	709.69	743.50	774.38	740.56	616.06	589.88	668.06	669.69	595.81	593.94	565.19	474.50	440.06	450.56	481.38	518.69	557.50	603.75	592.94	624.81	666.12	688.69	700.12	703.81	683.50	663.31	658.12	670.56	667.31	650.75	650.06	686.44	687.75	688.62	683.25	702.19	695.94	702.81	687.00	709.62	721.06	720.31	706.25	729.75	810.62	830.06	816.25	855.38	795.19	774.62	839.44	867.31	828.00	785.69	761.56	800.38	779.94	727.12	741.06	708.81	751.06	757.69	771.06	781.94	840.12	836.75	802.62	757.75	741.88	728.06	711.31	726.81	719.69	750.44	727.69	722.75	744.75	700.50	604.81	605.81	567.25	559.25	576.50	601.81	631.75	647.88	633.62
303.44	272.88	257.06	255.62	238.31	245.06	255.44	276.31	257.19	277.88	265.62	286.62	253.94	216.00	220.94	217.38	230.56	245.06	232.69	231.94	288.19	278.81	267.19	257.69	261.06	243.00	231.56	256.00	245.69	256.44	270.69	301.94	307.12	308.06	302.69	298.12	316.50	351.38	398.50	407.19	378.56	414.06	417.25	472.31	507.06	535.38	563.56	500.44	463.69	639.25	786.75	814.00	1012.69	1043.62	981.50	1091.19	824.94	753.88	810.75	638.88	659.12	662.94	968.19	1027.69	732.88	505.81	403.62	494.06	490.00	378.38	313.56	280.38	265.31	253.62	245.12	241.50	229.81	227.00	222.94	222.50	223.44	228.62	230.50	229.00	227.69	219.06	213.44	214.19	219.94	224.81	241.31	286.94	330.38	433.56	581.50	598.50	579.50	742.25	692.69	968.44	1225.19	1090.81	960.62	791.50	901.44	802.19	1037.75	1105.94	1047.50	1097.94	1066.56	989.44	1207.00	1103.94	929.12	941.50	982.25	1050.81	1024.25	985.62	954.19	910.12	865.62	861.88	863.44	837.06	819.25	793.44	739.44	717.00	691.94	632.12	628.75	737.88	809.75	786.31	732.44	674.38	629.56	620.56	620.06	531.19	494.00	487.25	460.31	461.19	467.62	452.75	450.75	482.12	570.81	463.56	420.50	407.88	455.56	440.44	457.81	561.00	596.75	636.25	567.88	610.06	631.50	557.12	479.75	481.06	540.12	682.00	762.12	781.75	650.00	760.12	764.88	667.38	589.38	638.69	639.69	604.12	576.44	529.88	472.31	438.06	448.38	515.38	585.25	620.38	643.25	675.31	700.44	655.50	672.75	689.88	711.38	694.75	652.00	654.88	663.19	687.62	669.25	655.31	663.25	681.19	697.00	698.00	711.75	715.19	734.81	729.75	712.25	694.69	704.75	697.00	707.62	733.19	775.69	821.12	848.94	797.19	810.00	823.38	824.31	796.50	774.56	752.25	780.50	733.31	717.88	707.62	703.50	737.75	770.25	769.31	807.06	865.00	805.56	773.06	737.69	728.50	722.94	710.56	710.06	685.94	741.75	750.69	739.75	751.06	711.81	618.00	593.75	565.75	562.38	596.56	620.06	622.81	655.50	653.56
315.81	308.19	302.69	330.19	321.69	287.81	264.94	266.75	262.81	252.75	283.00	251.94	241.00	229.31	223.06	235.62	235.00	246.88	249.25	238.06	258.31	242.25	233.94	232.38	228.56	232.44	235.69	252.12	277.50	289.00	261.69	263.19	275.06	276.69	285.69	298.38	301.06	321.56	370.06	412.25	445.88	467.00	460.31	441.62	456.62	481.62	485.50	469.31	567.88	638.75	670.56	926.94	948.69	890.69	982.00	1004.00	917.00	675.62	580.44	534.12	508.69	668.75	825.19	755.94	720.81	605.56	472.06	342.88	338.69	310.19	295.69	282.75	268.75	257.69	249.69	244.56	235.75	229.69	225.69	225.44	225.50	231.38	233.38	230.88	231.56	220.75	216.25	216.50	225.38	232.94	271.06	296.50	369.50	443.38	538.06	727.06	830.94	974.06	912.25	931.44	849.94	893.56	813.12	692.44	694.12	742.25	916.38	1013.25	1050.75	965.06	1018.88	942.75	1152.56	1180.31	1121.38	1009.69	970.25	1008.94	1014.06	1006.12	936.81	884.25	819.56	796.56	818.00	771.06	765.56	748.06	710.00	647.56	620.44	600.69	612.06	778.56	769.44	735.00	676.12	633.69	582.88	545.00	533.69	520.56	566.00	560.56	555.50	477.12	446.25	446.81	447.69	458.75	514.88	566.25	434.94	438.19	424.50	398.81	402.19	512.69	605.00	602.38	625.62	534.12	536.75	537.38	491.69	456.94	453.00	522.00	585.19	675.00	623.94	628.88	705.88	655.38	610.00	613.81	604.56	587.00	546.00	510.56	498.12	437.88	466.62	568.25	605.56	626.31	657.56	716.25	700.81	642.44	654.25	667.69	676.44	658.69	667.69	676.44	666.12	720.19	695.62	670.75	670.00	696.38	709.06	710.25	747.00	748.81	752.00	736.75	714.06	699.38	670.06	666.69	683.44	709.88	739.00	841.00	873.44	792.31	834.88	847.19	828.12	795.50	772.00	755.75	753.50	735.19	718.50	715.50	717.56	757.00	782.25	773.69	817.88	896.12	828.25	766.00	748.81	747.81	733.19	721.25	703.88	707.06	721.88	752.56	789.38	875.44	742.62	609.50	587.12	580.06	571.31	601.31	621.19	617.81	657.00	671.56
346.06	339.75	347.38	333.19	315.69	288.25	286.25	292.75	313.00	270.69	246.69	231.38	241.44	238.19	240.44	254.88	231.56	226.31	244.31	225.00	242.12	248.81	222.31	226.69	228.69	244.38	262.75	267.31	263.25	275.31	255.75	254.94	261.50	269.50	277.38	286.81	297.38	320.88	350.50	379.00	424.06	462.62	448.50	414.50	426.81	407.44	479.31	627.50	708.94	712.81	865.31	882.38	844.81	982.38	862.44	880.69	975.06	838.69	824.44	753.00	515.56	529.69	558.31	607.75	558.69	527.88	423.62	344.50	314.56	306.38	293.94	283.69	271.94	259.00	253.06	243.31	235.88	232.25	228.75	228.94	228.94	234.38	233.44	232.06	230.81	220.06	217.12	221.25	229.81	254.88	316.81	369.19	440.75	675.38	816.31	940.38	1014.69	1043.50	1085.38	854.44	821.75	723.38	687.56	588.75	833.38	967.31	802.06	1033.94	1136.81	985.44	925.44	876.88	933.88	1052.94	1094.88	1019.38	986.81	1029.69	936.31	954.62	915.56	869.06	808.06	790.88	762.25	702.44	684.44	685.69	650.38	637.81	578.69	590.94	653.06	834.31	791.44	699.56	661.12	618.38	548.50	510.56	509.75	610.31	681.88	547.94	567.62	492.25	434.50	440.25	467.06	473.56	454.00	556.56	491.88	620.50	607.06	555.00	408.12	392.19	404.62	509.00	534.69	524.50	482.38	504.88	502.31	475.50	439.19	475.44	492.81	558.00	572.62	540.00	611.44	593.56	587.06	600.50	590.38	572.38	525.38	510.88	470.31	444.44	523.81	581.12	602.69	639.25	707.06	725.25	704.88	654.06	639.38	646.38	663.38	653.88	682.31	690.06	673.50	693.81	699.19	702.50	684.88	698.94	728.06	735.12	798.38	810.44	789.81	790.81	766.00	717.12	669.12	655.19	670.12	689.62	723.00	810.38	864.44	776.69	847.88	862.19	812.00	793.62	774.31	762.69	756.62	744.12	722.25	738.88	740.38	745.62	782.44	803.44	821.44	868.31	860.38	776.25	762.88	758.50	742.38	736.44	745.56	722.50	744.19	749.75	731.56	746.19	678.44	598.50	589.19	584.12	607.00	617.94	616.19	613.94	656.94	670.44
355.25	357.56	374.75	352.00	346.94	324.38	314.62	336.81	323.12	293.94	263.25	270.75	253.25	237.94	245.19	243.75	225.94	215.31	226.62	225.06	237.62	240.75	215.81	232.19	245.06	249.88	251.25	255.75	270.38	301.75	271.50	258.88	262.19	264.88	276.75	293.56	304.44	315.56	336.62	363.19	413.25	446.25	426.38	375.62	398.19	405.38	612.06	662.25	707.75	800.00	793.12	726.12	943.44	848.81	717.00	810.12	863.75	857.62	918.31	837.00	624.56	469.81	435.88	573.69	479.56	453.44	393.38	347.69	310.00	301.00	292.31	284.06	273.06	260.25	255.81	245.69	238.44	235.25	232.00	230.62	232.56	234.69	233.94	233.19	233.62	221.19	218.81	225.19	233.81	295.00	363.38	402.31	511.50	645.81	1006.06	828.75	928.50	881.62	962.44	806.00	802.38	784.50	647.31	655.06	848.94	1066.62	838.94	985.31	1117.12	1048.12	1011.88	906.12	861.06	987.38	1049.25	1070.75	962.06	1024.56	945.06	938.94	887.31	835.69	784.06	749.19	805.44	720.38	638.88	620.00	588.25	560.56	556.88	627.38	615.88	813.75	826.88	733.12	689.62	642.94	543.44	510.44	501.38	552.31	607.31	536.88	540.12	467.00	438.94	450.88	461.00	436.75	429.69	468.31	466.25	530.12	567.50	610.94	501.62	406.38	392.00	421.62	467.94	481.44	473.25	478.19	512.81	512.44	440.00	455.19	485.81	523.31	517.00	517.69	551.88	557.56	557.50	570.38	563.31	543.38	513.56	483.19	441.12	478.94	570.38	589.38	605.25	654.25	733.00	691.12	676.94	663.81	635.25	645.31	663.81	651.81	671.50	678.81	683.94	676.62	709.31	714.62	702.75	707.25	740.56	754.75	819.88	847.88	827.19	805.62	801.81	758.56	708.88	672.62	658.81	685.12	713.50	756.38	810.75	754.44	839.00	885.06	819.88	787.06	772.31	780.19	752.81	743.06	729.06	753.94	747.56	745.50	791.56	863.12	815.81	855.94	868.38	777.00	753.19	745.94	733.62	767.69	742.94	738.19	733.81	725.88	699.50	694.12	642.56	618.88	600.06	585.25	594.75	626.25	632.38	627.75	661.94	678.50
343.50	353.88	369.12	369.81	355.50	329.50	314.62	352.06	334.19	309.12	286.56	262.50	246.00	248.62	261.62	256.69	257.00	236.56	214.62	226.06	219.62	220.12	230.25	247.31	267.44	303.75	293.06	289.62	329.31	321.06	342.88	279.25	275.50	268.06	271.12	282.25	297.88	306.44	317.75	339.44	385.75	413.81	394.50	342.12	359.19	472.12	530.88	535.62	580.19	666.44	594.81	798.69	914.62	668.19	588.69	697.56	646.62	757.50	753.62	821.75	811.25	616.31	444.06	438.25	395.44	375.44	378.19	349.19	320.25	298.75	289.44	281.62	272.88	258.75	253.50	250.31	241.62	237.06	234.69	235.12	233.94	236.56	238.62	237.44	236.88	224.06	223.06	224.31	241.88	310.19	351.44	366.81	457.44	674.44	830.62	758.94	841.00	741.56	850.38	771.31	744.88	896.88	597.12	707.19	853.62	1044.12	1082.69	1079.12	1034.38	1104.12	1016.62	953.50	966.19	849.25	884.06	991.62	874.19	960.69	916.25	952.00	866.56	835.12	804.19	704.44	750.75	745.88	714.19	648.38	611.69	520.38	552.62	564.75	601.06	785.19	756.12	627.06	680.00	672.88	617.19	500.06	506.00	472.44	479.94	466.38	499.06	480.19	433.38	437.50	434.12	427.12	413.75	421.94	440.12	431.75	466.19	506.12	532.94	501.88	439.56	393.12	396.50	422.06	457.75	454.44	462.38	471.25	439.38	441.00	516.19	566.12	548.81	588.06	565.38	520.50	520.75	530.12	524.06	515.31	489.62	455.31	430.44	520.81	567.94	593.06	616.50	683.19	711.00	673.94	657.00	672.12	639.56	653.50	653.62	650.19	658.56	662.94	688.69	673.69	716.38	714.19	699.50	703.25	730.88	760.12	836.56	909.50	879.94	852.50	853.75	812.69	759.69	712.62	664.31	682.00	707.88	734.44	734.06	754.75	823.25	865.25	844.44	800.88	785.62	780.00	759.56	739.19	741.12	759.50	751.56	730.94	798.94	846.88	820.12	836.75	810.19	776.19	751.69	732.62	757.88	766.25	770.19	834.88	762.50	763.12	738.94	741.44	724.88	696.62	657.81	617.06	615.06	626.81	632.38	648.62	672.12	679.56
338.56	348.81	358.44	356.06	344.62	329.69	313.75	335.44	298.69	289.88	267.94	280.31	279.38	281.50	294.62	303.88	292.06	251.06	213.88	212.81	238.69	278.25	310.88	303.56	367.44	317.06	371.12	365.62	334.06	326.19	361.19	343.31	300.62	321.94	302.38	285.56	285.44	292.06	313.31	319.00	335.56	360.06	345.81	329.81	430.56	643.88	630.00	595.19	750.12	600.88	572.44	737.12	721.56	662.00	521.50	520.06	675.81	814.25	619.12	626.06	611.62	612.62	457.69	419.12	383.88	362.19	341.50	324.50	314.25	307.50	289.25	279.00	269.88	258.38	252.44	247.44	246.31	240.50	243.94	266.94	251.06	240.62	239.56	240.75	240.00	226.00	224.25	226.88	301.88	298.25	331.25	401.56	455.56	560.88	696.25	770.75	861.75	666.94	732.06	634.25	787.88	923.12	588.31	788.44	911.38	932.62	1045.62	967.94	947.38	1073.38	1051.50	1034.38	960.94	980.94	857.75	892.69	814.00	868.56	879.81	904.25	853.88	792.94	769.50	694.94	728.00	699.38	685.25	618.44	499.88	500.81	525.75	599.75	795.00	814.44	742.06	659.75	580.50	615.94	571.31	480.25	465.12	470.25	485.06	506.62	462.25	440.19	425.81	431.56	425.50	406.06	399.50	402.06	405.81	414.75	443.31	439.94	472.56	527.06	518.88	436.50	397.94	392.06	399.00	430.12	438.38	444.19	439.31	431.31	441.31	514.31	553.06	653.06	702.50	595.94	506.00	496.25	499.69	492.25	456.69	424.88	435.69	533.56	574.81	605.31	647.38	703.94	667.88	660.19	656.44	669.56	610.94	656.94	657.56	652.56	652.12	644.00	655.31	695.12	700.12	712.75	715.31	712.12	743.50	820.50	795.25	856.75	895.88	935.75	911.12	859.25	800.00	762.06	683.19	673.75	724.19	728.94	721.38	788.31	857.44	876.50	844.19	815.00	796.12	767.00	767.56	754.88	774.75	778.88	753.38	730.62	752.44	849.88	889.06	856.50	768.56	764.62	737.38	751.50	763.00	766.81	834.00	834.12	744.12	749.44	751.44	736.62	715.31	700.00	687.12	634.31	635.88	646.38	652.56	650.00	670.25	672.81
321.00	335.62	336.38	295.75	317.06	289.69	274.31	266.31	273.50	263.38	274.94	289.62	277.38	279.25	294.00	320.12	314.12	251.69	220.25	223.38	257.19	273.31	317.69	346.81	363.75	321.38	328.00	315.38	282.50	306.81	311.81	321.62	367.38	392.94	340.12	318.06	302.94	313.75	331.25	339.12	327.75	328.00	333.75	340.50	499.88	575.69	534.56	613.06	628.62	515.94	480.56	514.75	500.12	487.12	484.88	459.75	503.38	598.12	537.88	521.88	472.31	436.19	411.25	408.69	385.94	351.88	351.19	335.69	312.50	297.69	285.81	276.12	272.25	275.69	276.06	269.00	255.19	263.56	289.44	298.19	281.81	249.50	241.38	245.50	242.12	229.00	225.62	236.81	344.06	354.62	369.62	413.25	475.69	491.44	547.69	760.75	818.50	643.19	602.00	650.31	854.62	842.69	561.00	734.38	760.69	962.06	1046.56	930.31	955.75	1025.44	997.12	992.50	976.88	918.94	816.88	981.44	928.00	810.31	836.25	822.88	806.88	766.38	717.06	671.12	699.50	632.44	640.38	565.12	512.75	548.38	538.00	667.19	796.06	718.75	644.44	622.50	538.56	538.12	486.12	471.50	489.88	454.00	429.94	428.94	438.88	463.44	422.25	436.00	428.88	398.62	397.00	393.12	396.94	393.88	414.88	441.75	432.88	445.88	460.00	475.69	449.56	406.88	392.00	392.69	418.88	445.56	425.69	432.44	427.19	449.75	494.69	574.88	634.81	540.25	463.50	469.31	481.56	469.81	446.75	435.44	446.88	518.00	594.44	607.12	627.38	670.88	605.00	613.12	641.81	652.38	589.69	665.56	636.94	631.94	653.25	672.38	682.69	669.62	700.56	775.06	737.69	706.25	757.31	890.62	852.44	929.06	989.56	935.44	978.44	918.38	822.31	809.75	701.56	675.38	718.44	726.38	754.44	830.38	905.69	900.56	840.56	818.31	823.19	811.56	804.31	791.25	771.94	789.06	775.44	740.25	770.75	865.56	954.12	847.75	771.12	757.75	736.12	759.31	772.06	777.81	815.00	827.75	787.81	761.25	833.44	865.81	776.56	733.00	704.75	680.06	656.38	667.12	656.88	665.19	670.81	677.75
301.44	292.06	289.12	281.00	363.38	278.88	284.44	267.25	265.69	268.25	293.56	292.06	273.19	312.31	319.06	331.44	318.12	252.62	225.81	252.75	266.94	271.62	289.06	319.38	322.81	296.06	277.56	260.56	253.25	285.62	297.12	326.38	425.75	373.06	347.62	323.31	310.31	315.06	321.81	321.44	317.88	312.62	318.31	326.62	396.31	397.44	433.12	475.38	452.44	459.19	443.69	508.56	515.94	448.56	429.25	435.50	433.12	455.69	468.00	446.31	470.12	405.31	396.94	391.69	396.44	366.88	330.31	318.69	319.44	302.81	288.00	291.44	277.56	296.81	293.62	284.50	247.69	297.12	330.06	314.69	267.06	240.88	246.25	247.50	243.94	231.50	230.81	283.38	340.69	354.38	382.75	363.06	385.31	454.75	660.19	799.88	713.56	670.25	547.44	703.56	706.69	595.62	565.88	783.88	981.00	1002.88	923.12	857.12	971.06	958.75	976.62	973.56	950.19	774.25	873.31	914.00	879.06	756.12	785.81	767.75	728.62	695.12	655.44	607.38	640.44	619.31	581.88	489.25	538.00	531.31	522.44	523.06	680.62	631.06	622.19	586.00	505.81	460.50	458.44	460.38	453.19	507.88	451.38	425.62	422.56	416.50	434.12	422.50	424.56	409.06	408.31	403.62	394.00	392.06	392.38	394.50	407.50	433.75	464.50	487.06	486.94	434.19	392.00	392.06	439.81	516.19	502.19	436.19	425.00	434.31	433.75	443.25	463.81	448.38	444.56	467.62	482.38	455.25	430.56	431.38	457.38	518.00	572.38	539.00	599.44	650.06	608.94	582.56	639.00	636.00	586.38	611.12	612.19	654.44	685.00	701.00	690.00	684.06	683.75	729.12	702.25	701.38	753.06	907.00	885.94	975.75	1053.50	1039.44	955.00	896.88	824.50	798.19	718.81	700.19	717.38	749.44	801.50	862.94	926.69	913.44	851.69	823.25	817.25	824.00	823.38	809.00	790.94	801.00	787.62	749.00	758.19	796.06	835.00	799.94	767.56	751.06	730.19	751.50	767.06	820.81	903.12	891.88	846.69	799.56	815.81	832.62	849.81	749.69	730.38	725.56	673.50	664.62	677.00	675.12	670.06	700.62
293.25	279.62	270.69	338.31	364.62	257.00	267.94	267.88	257.06	247.25	270.88	284.06	294.31	311.44	293.12	309.50	309.81	262.81	227.50	253.38	275.12	265.31	282.19	295.19	273.88	252.88	257.06	245.94	240.50	266.31	303.12	341.06	397.38	321.25	334.25	308.56	306.12	310.94	313.44	311.94	334.88	310.38	324.75	333.00	352.81	383.94	362.56	370.62	386.75	413.44	429.25	465.56	474.69	421.00	411.94	417.81	414.06	415.81	447.69	424.38	405.69	380.25	383.00	380.69	384.06	359.50	352.62	308.06	323.44	308.25	290.25	289.56	283.62	288.38	282.75	259.69	267.19	316.19	340.06	319.12	267.44	242.19	249.25	250.00	247.81	231.94	279.94	332.44	322.94	333.81	301.44	384.75	434.75	506.81	575.94	578.75	589.44	592.25	563.06	590.38	623.19	566.00	719.75	836.56	925.75	929.50	868.25	854.19	971.44	953.62	931.31	930.62	899.44	726.00	869.88	830.19	785.81	698.38	643.00	698.69	649.50	633.00	627.94	541.12	605.12	520.75	467.94	514.38	503.50	437.69	448.94	457.06	469.62	516.88	541.50	527.69	440.06	433.31	441.81	415.81	413.62	473.94	534.25	546.12	457.00	437.06	584.88	606.44	640.06	590.31	531.94	466.81	450.69	403.50	392.00	395.31	397.69	392.69	410.94	440.25	447.69	450.94	400.38	392.00	397.88	451.19	495.62	482.44	457.69	434.12	431.69	425.38	439.88	455.81	450.81	457.06	463.62	436.12	410.12	421.81	458.50	516.31	515.06	536.88	583.50	596.50	565.56	556.38	588.69	579.69	569.81	581.44	623.81	670.50	684.75	664.56	662.19	680.62	691.06	690.75	693.75	704.56	726.25	918.50	995.62	947.56	989.31	1033.62	957.38	899.56	844.38	769.19	754.25	708.12	711.81	769.38	816.56	868.75	913.81	905.62	857.19	829.44	832.75	839.62	837.69	815.88	803.88	800.81	809.81	765.19	787.12	785.44	794.75	791.12	775.19	734.94	742.50	762.94	796.12	861.25	869.69	866.50	850.12	782.19	786.19	785.00	771.38	735.88	706.31	681.31	661.81	651.69	653.12	679.94	661.31	682.81
282.94	263.69	296.19	311.19	322.00	267.44	278.31	257.06	259.06	239.06	252.81	264.38	290.31	322.62	275.12	279.62	285.75	284.75	221.88	242.44	263.69	261.81	278.56	273.06	242.56	251.00	291.94	248.69	235.50	263.12	286.69	343.56	354.12	326.81	350.44	318.25	299.62	304.81	299.31	297.50	309.62	308.62	315.88	330.00	356.56	383.50	381.50	392.38	428.62	427.25	415.00	397.69	397.75	392.19	395.81	402.06	407.25	422.88	414.44	416.06	385.69	376.94	372.19	382.25	388.38	345.31	338.88	301.62	299.12	312.88	289.31	280.81	279.31	276.31	271.69	293.31	297.38	329.06	340.00	290.31	266.06	247.88	251.12	253.06	248.75	236.88	311.00	340.00	339.88	333.31	293.56	333.31	426.81	480.38	599.06	536.44	427.75	453.69	449.62	489.50	527.56	598.19	819.25	745.69	879.31	797.19	807.50	932.38	948.12	954.81	887.12	842.19	827.25	704.38	800.44	794.94	759.31	720.31	655.31	573.44	616.12	648.31	529.38	580.44	562.69	466.25	487.62	532.00	426.62	417.19	431.56	443.56	497.31	465.44	481.69	489.56	432.56	461.44	416.69	400.94	408.69	413.81	416.44	435.06	441.50	410.12	503.81	577.62	628.50	672.56	653.31	536.19	447.75	402.75	392.00	393.50	399.44	393.50	393.50	402.75	419.75	442.25	427.75	392.88	392.00	394.38	422.81	453.81	468.69	449.19	431.31	418.56	430.81	449.56	445.50	433.12	430.44	424.06	408.25	423.56	482.75	551.56	514.38	525.62	557.12	559.31	552.88	557.00	559.62	581.56	587.38	564.00	597.75	645.44	621.56	642.00	671.81	685.19	696.19	701.12	717.50	723.44	729.12	841.06	972.44	964.00	958.88	984.19	921.50	905.00	884.00	778.19	735.12	710.06	711.69	775.62	813.88	876.88	905.81	891.75	869.88	852.31	857.50	844.44	845.62	832.81	818.38	795.38	813.38	799.81	807.19	799.06	791.88	784.31	780.62	744.25	760.50	793.94	816.88	850.25	870.12	891.94	885.25	816.62	821.44	814.50	805.69	760.94	716.06	675.69	652.94	648.62	649.62	687.44	669.38	691.12
292.12	244.19	316.38	287.25	271.31	275.06	250.62	246.69	243.56	236.56	250.50	243.50	280.25	293.81	274.31	235.62	264.19	254.44	226.25	256.69	253.69	252.88	254.12	251.31	238.00	274.31	283.06	250.50	314.44	299.06	298.25	304.56	317.50	346.19	320.25	308.62	299.56	298.19	297.56	292.44	294.25	298.12	312.69	323.19	327.31	375.81	455.44	472.69	427.19	414.62	390.56	399.12	396.81	416.25	430.25	389.81	420.44	411.00	372.88	363.44	370.44	370.25	361.69	370.94	382.38	355.88	322.50	305.44	290.94	290.00	278.62	274.75	271.38	268.75	279.25	358.56	362.06	377.50	307.12	282.00	290.62	286.31	261.00	250.25	251.81	236.75	277.88	345.88	323.25	306.88	296.38	315.06	355.69	451.44	497.75	514.25	428.25	492.38	513.75	488.62	422.12	472.88	552.00	593.62	722.12	782.81	941.81	898.81	891.56	912.31	871.44	813.75	754.06	708.25	723.12	727.81	694.75	642.62	646.12	528.12	627.12	608.38	482.31	525.50	495.00	454.44	499.19	440.69	410.88	448.38	525.25	620.56	585.56	566.56	484.56	422.38	438.31	514.06	541.25	427.00	440.62	429.75	417.69	458.50	442.81	418.25	471.56	544.38	524.50	557.69	503.50	432.19	398.81	433.69	472.06	468.00	442.94	408.06	393.44	395.06	397.75	405.12	417.00	398.31	392.00	392.00	392.00	395.38	412.56	426.06	414.62	399.31	411.06	433.38	427.88	410.81	408.00	417.75	411.00	416.62	475.94	530.94	501.50	533.00	578.19	566.56	547.50	538.06	544.62	551.56	549.38	565.31	597.94	599.50	631.44	658.62	673.31	709.56	722.38	791.88	767.94	757.69	750.75	762.19	810.75	848.69	929.00	945.00	943.44	904.88	851.56	762.31	715.50	707.69	721.06	766.38	861.44	888.56	913.75	943.19	898.12	890.38	887.88	856.44	851.50	836.06	825.56	803.38	801.88	832.88	821.94	813.44	802.06	792.88	773.06	768.00	807.25	831.44	840.56	864.25	906.06	906.56	909.44	851.06	877.25	880.44	850.56	802.19	752.06	703.50	691.44	683.31	672.19	662.31	657.56	649.19
280.56	243.44	286.31	278.00	256.25	255.19	238.00	228.25	229.88	238.56	253.62	239.88	263.38	258.19	249.12	222.44	226.00	218.31	219.12	237.12	262.62	238.00	233.56	223.75	236.50	267.06	273.88	302.50	349.19	305.50	344.62	319.88	313.25	320.19	329.50	332.69	321.12	306.25	288.94	288.25	296.44	312.12	310.56	309.25	322.00	378.81	452.38	468.19	410.44	402.94	371.50	382.00	407.69	494.81	497.19	370.19	376.88	374.19	355.19	353.38	362.62	369.25	355.75	362.31	373.25	365.06	322.88	299.50	296.56	285.06	288.44	288.88	287.50	300.62	286.31	331.25	360.69	329.38	304.00	317.12	312.38	287.44	280.75	257.19	256.81	247.19	235.81	280.88	269.38	287.06	334.75	303.44	376.56	437.31	416.88	412.25	407.88	458.56	438.50	448.38	403.94	466.19	462.19	465.12	609.06	857.31	995.88	889.69	854.00	863.25	803.44	754.00	660.56	681.50	655.25	689.25	658.75	623.50	534.81	474.00	560.38	545.50	438.62	447.31	402.00	493.75	477.88	407.94	414.06	448.12	524.88	570.25	555.50	504.62	441.38	402.31	404.25	444.56	514.56	465.69	444.75	440.50	440.75	424.12	495.44	476.06	423.81	410.94	418.50	434.00	413.06	435.88	470.75	581.88	651.62	640.50	565.00	504.00	476.75	426.44	405.75	403.75	393.25	392.00	392.00	392.00	392.00	392.00	392.00	393.50	392.00	392.00	392.12	404.25	410.94	402.31	406.94	417.38	413.25	421.50	475.88	530.56	500.88	526.31	560.06	560.88	554.00	523.38	545.62	543.88	555.44	566.62	587.44	607.88	634.94	632.50	633.25	686.75	690.88	730.25	774.25	760.62	810.12	816.94	873.06	954.44	940.38	905.25	925.19	902.75	817.25	744.75	714.50	699.81	731.56	837.06	917.56	883.38	905.81	893.94	879.00	880.00	883.62	879.94	865.94	844.31	835.25	813.88	838.06	861.38	855.88	830.88	806.94	783.75	768.44	780.38	806.06	823.69	866.62	928.69	963.12	976.19	931.75	847.88	839.31	872.06	986.75	969.38	842.94	685.31	650.38	631.25	622.44	621.12	627.81	656.00
297.19	258.12	248.69	254.56	241.69	246.56	229.19	226.19	248.44	251.75	237.38	248.38	225.94	216.00	214.56	220.00	234.25	238.25	220.62	249.81	241.06	212.88	212.44	221.62	229.06	268.38	339.19	307.19	316.12	313.06	339.88	331.44	312.12	298.25	299.06	312.69	297.38	297.06	291.44	290.25	305.62	309.88	307.56	316.88	349.00	380.69	437.38	428.38	398.44	374.50	380.44	399.31	399.38	399.06	401.19	369.38	377.19	385.69	362.75	351.50	359.44	366.62	352.25	356.06	363.31	344.94	323.62	301.94	298.56	298.69	317.88	321.56	322.44	326.81	291.81	361.44	314.69	327.62	333.62	325.94	312.75	307.81	295.38	275.00	256.44	254.31	236.69	238.44	245.38	261.88	309.56	298.62	383.44	350.00	336.62	344.31	354.88	370.25	379.62	399.50	441.44	461.38	451.44	393.75	568.56	814.88	881.88	859.44	840.31	822.44	737.75	670.44	623.81	617.19	647.12	605.62	603.38	564.88	526.62	399.50	421.25	416.06	392.69	389.31	414.81	494.19	409.81	414.31	442.00	557.69	559.19	514.25	495.00	468.75	430.75	380.88	397.25	410.62	435.75	467.38	473.62	469.00	448.81	427.25	564.88	586.75	546.44	479.31	470.81	462.25	552.88	575.94	567.12	625.25	662.19	635.75	614.00	584.19	562.00	517.88	475.62	449.25	416.19	399.12	392.38	392.00	392.00	392.00	392.00	392.00	392.00	392.00	392.00	392.00	392.25	392.19	397.62	412.38	416.12	432.62	482.62	504.00	476.81	486.56	513.94	535.69	537.44	532.44	536.25	548.69	548.25	566.25	599.81	623.06	664.06	692.19	642.62	650.38	668.06	701.06	733.88	852.81	902.00	836.56	835.12	834.81	836.00	878.88	940.50	911.94	771.38	717.38	713.00	708.88	798.44	882.81	859.81	923.81	1007.56	943.56	896.44	899.31	904.50	902.88	883.50	854.06	835.56	828.12	881.00	892.75	936.44	870.88	802.38	791.00	821.31	821.62	797.88	828.00	1057.44	1234.38	1287.12	1267.56	1126.62	959.56	955.12	844.56	1131.19	1337.38	1151.06	837.81	652.50	631.06	627.50	625.75	635.06	687.06
267.81	244.94	226.12	238.69	231.31	243.69	226.88	221.62	245.12	250.75	231.69	244.50	208.00	219.94	210.62	213.44	235.94	246.62	225.88	227.25	239.19	264.94	218.00	244.50	235.62	268.94	304.75	293.19	310.12	361.62	336.50	340.75	343.69	303.06	287.56	294.88	286.69	285.38	278.19	295.31	307.19	308.06	324.19	352.00	366.94	389.12	382.62	404.69	433.62	399.94	417.75	422.56	389.38	388.88	374.50	366.38	372.31	380.62	358.06	348.75	347.56	362.62	352.06	352.06	352.44	346.69	340.56	307.88	310.12	306.06	323.69	321.06	307.81	314.00	297.62	334.75	308.19	334.25	340.75	360.75	353.62	347.75	307.69	289.06	268.12	254.62	240.88	238.19	240.06	259.19	281.56	342.62	323.62	320.38	366.81	402.25	423.56	433.56	455.75	486.62	493.31	454.06	451.94	375.25	563.69	864.50	810.38	764.56	771.38	788.31	695.81	604.50	559.56	600.94	559.31	534.69	501.81	458.62	457.94	366.81	349.62	365.44	361.56	374.50	421.25	435.12	402.19	431.69	495.62	554.56	531.06	533.50	523.81	493.12	417.19	385.81	388.56	403.94	410.62	419.44	444.19	468.00	464.06	433.06	463.75	523.12	606.62	575.12	568.00	571.81	587.31	562.50	550.12	570.62	571.94	568.06	567.69	574.12	570.06	558.06	536.44	517.50	478.75	446.12	414.94	396.62	392.00	392.00	392.00	392.00	392.00	392.00	392.00	392.00	392.00	392.00	392.19	399.44	426.06	433.62	436.38	450.88	469.19	481.69	486.00	515.19	538.00	544.56	540.25	544.94	543.50	587.00	631.88	662.81	686.50	681.56	688.62	658.06	703.81	755.50	810.50	875.88	848.69	846.62	894.38	933.12	980.31	1011.19	954.81	827.56	739.25	727.19	707.25	745.75	838.12	855.44	909.44	1045.81	1016.50	917.88	896.38	888.88	896.00	894.12	893.50	866.81	833.88	859.38	884.31	879.75	904.69	855.06	793.56	782.50	818.06	817.38	854.69	1086.00	1284.19	1334.69	1407.88	1287.31	1171.94	1125.00	1130.88	852.06	980.50	1190.62	1226.06	1130.31	772.38	638.88	629.88	626.94	649.38	763.81
242.06	243.94	245.31	225.88	220.44	233.75	235.62	215.88	230.06	245.19	245.06	212.75	206.75	234.06	227.19	213.69	237.12	245.81	240.94	229.44	314.81	380.75	282.50	237.75	245.38	252.88	257.69	319.88	332.81	362.12	367.62	364.81	353.81	343.38	316.31	308.94	290.38	281.50	307.31	309.06	296.50	309.50	339.12	342.62	366.38	378.25	424.88	420.00	440.75	414.19	363.88	379.25	382.06	397.19	367.25	357.81	358.50	386.00	366.88	366.25	356.56	349.50	345.31	348.56	353.81	354.75	356.44	329.62	356.19	346.31	344.31	321.56	317.00	355.31	330.25	339.69	320.50	357.12	373.06	386.00	397.25	372.00	323.00	303.19	294.94	259.75	249.56	239.44	240.94	251.75	276.44	392.50	295.38	371.50	414.94	424.50	421.19	445.25	423.06	435.19	447.19	426.31	441.56	402.12	456.25	820.19	778.06	721.31	685.94	662.44	654.75	597.88	509.56	460.94	424.88	393.44	324.38	327.62	346.94	332.19	324.06	348.38	459.00	394.25	390.94	424.00	470.25	579.06	542.81	484.06	480.56	468.25	441.31	469.31	399.06	370.25	375.69	393.56	398.69	420.50	415.88	450.69	482.75	467.31	462.69	443.56	478.62	543.69	599.00	589.44	528.75	503.06	492.81	489.06	473.50	477.06	495.56	513.06	519.19	519.25	529.44	545.75	543.44	520.94	479.06	439.94	408.06	393.31	392.00	392.00	392.00	392.00	392.00	392.00	392.00	392.00	392.00	395.00	416.88	411.44	434.38	484.38	487.31	493.00	497.44	514.56	526.44	537.06	534.00	516.56	548.44	635.31	728.75	769.88	770.44	719.06	702.81	697.19	733.56	794.31	794.50	804.31	880.31	863.50	945.62	1109.81	1077.44	1006.50	934.69	832.38	729.62	716.25	741.94	902.56	872.62	913.56	1051.56	999.00	915.19	902.50	960.19	1000.88	960.25	888.88	912.06	935.38	861.31	811.31	803.94	834.00	854.75	812.62	774.69	786.75	797.69	836.69	1027.00	1161.75	1156.38	1230.50	1123.31	1060.62	1023.75	1158.88	1152.25	924.56	855.69	981.62	1264.19	1343.94	1000.56	634.75	629.38	647.75	923.75	1281.31
250.50	255.88	240.69	244.38	216.25	232.94	211.50	220.12	242.62	224.88	222.62	215.06	223.94	219.94	243.50	232.88	236.88	250.62	235.88	248.06	353.50	352.38	373.44	341.19	360.56	293.94	265.44	285.19	307.81	380.62	418.62	334.88	371.00	342.38	307.19	328.00	281.25	289.06	321.19	318.19	295.75	330.31	359.38	378.94	379.19	407.38	420.94	466.75	401.69	371.69	348.62	428.75	400.31	408.06	363.12	365.81	353.00	364.19	364.62	371.44	355.44	337.81	345.94	368.12	363.88	367.44	375.75	359.44	362.50	383.88	380.44	364.25	318.56	343.38	380.75	389.75	369.00	340.88	348.56	375.19	403.19	395.75	347.94	307.56	288.25	267.81	260.44	247.62	242.12	245.69	266.00	331.00	294.44	406.31	449.94	404.56	402.38	431.12	376.81	374.75	377.50	376.31	358.12	414.88	396.88	737.62	740.12	691.75	654.31	602.81	551.38	518.81	440.06	394.38	334.12	310.62	335.94	365.62	330.38	383.19	384.62	320.62	385.50	442.94	532.12	619.44	585.50	542.81	528.88	509.12	428.00	393.50	416.06	431.38	392.88	357.69	386.75	382.75	363.81	386.88	380.62	412.06	429.88	463.25	503.75	490.06	471.12	468.31	445.81	453.38	448.50	418.88	409.25	408.69	414.44	426.50	448.00	483.81	500.56	519.88	541.00	566.19	569.75	555.31	524.62	491.19	447.31	413.19	393.06	392.00	392.00	392.00	392.00	392.00	392.00	392.00	392.00	392.38	401.50	403.75	411.12	451.06	469.06	477.69	476.38	499.50	515.12	533.50	502.50	509.62	594.94	760.56	788.81	780.75	739.31	661.38	703.50	782.38	841.81	798.50	882.75	905.81	872.88	997.50	900.81	936.75	998.81	976.69	891.94	797.44	712.75	723.44	904.69	923.62	858.94	1049.75	1007.06	929.56	923.25	1114.06	1172.88	1339.69	1261.19	964.31	866.62	895.81	877.06	821.31	820.06	784.81	795.25	790.75	775.69	794.94	789.38	1010.12	1103.56	1032.94	1131.88	1209.69	1169.50	1170.94	1185.44	1279.12	1324.56	1203.38	918.12	844.31	986.50	1179.88	1056.88	660.75	640.56	704.81	1031.25	1293.12
241.25	241.75	235.00	236.31	228.62	207.62	203.56	213.31	204.06	204.62	214.69	223.56	217.94	243.12	252.12	232.69	225.31	232.56	254.94	262.00	369.12	323.81	365.00	370.12	369.19	293.94	290.00	290.06	295.44	352.31	380.25	351.50	328.31	365.44	316.50	307.75	286.44	296.31	297.38	288.88	290.62	300.69	340.81	399.12	405.94	435.38	420.94	389.62	390.19	398.00	353.88	367.81	368.31	400.94	399.38	373.25	347.56	371.50	361.31	358.12	335.75	343.25	367.06	375.00	375.25	372.81	385.19	380.88	355.00	388.00	407.00	402.00	368.62	357.50	347.94	357.50	396.31	398.75	404.31	391.44	401.50	400.44	349.50	323.12	313.12	297.19	266.56	260.69	252.88	249.38	259.12	270.06	313.94	412.25	471.75	392.44	385.62	388.31	345.94	308.38	293.00	295.00	313.44	305.81	376.75	634.00	685.31	600.06	543.38	505.31	457.19	420.44	368.94	369.69	383.31	451.06	432.00	365.50	317.12	372.88	486.50	384.44	337.25	452.19	543.50	466.00	428.31	464.69	385.69	376.00	377.00	389.81	438.69	434.56	347.31	351.12	398.06	439.56	434.12	432.81	438.88	410.62	383.94	377.94	389.69	425.50	437.38	432.31	420.88	403.31	398.75	396.69	408.06	426.94	422.00	413.12	420.69	495.19	606.94	637.81	588.94	554.69	550.38	543.38	523.88	510.00	494.00	470.12	434.44	405.75	392.69	392.00	392.00	392.00	392.00	392.00	392.00	392.00	392.81	394.56	395.31	425.06	434.38	455.69	463.81	480.00	505.81	502.12	477.94	591.00	707.19	771.44	801.56	766.69	648.81	651.94	792.25	799.81	840.31	801.75	849.94	953.94	976.06	1008.06	1043.75	993.25	905.75	834.56	825.81	759.69	712.88	757.38	918.06	893.75	1057.00	1065.25	1059.81	1046.69	1008.81	1196.75	1303.69	1288.44	1129.12	969.56	863.38	925.88	882.75	822.56	809.88	790.81	795.38	782.62	788.31	793.38	931.25	1230.50	1177.81	1262.12	1481.62	1566.38	1519.50	1395.44	1364.75	1390.81	1294.81	1265.44	1156.44	964.25	1161.56	1384.19	1101.19	786.19	662.81	843.94	973.06	972.69
215.00	224.38	225.69	235.19	249.69	203.19	207.94	204.50	202.00	232.38	247.00	235.25	234.94	250.38	240.19	235.88	239.50	243.50	258.06	336.00	312.44	352.06	368.38	374.44	338.94	356.38	374.81	343.00	338.25	317.62	314.38	316.69	340.69	363.38	294.62	292.56	281.75	278.25	273.06	275.94	282.62	318.62	328.50	324.56	352.94	386.69	382.69	398.94	440.81	386.12	371.50	345.50	385.69	401.62	382.19	376.31	347.69	381.50	352.56	337.38	346.50	367.88	370.81	377.12	386.81	385.00	388.12	398.00	377.00	367.25	401.00	406.50	395.38	377.19	390.12	358.25	379.00	421.38	429.88	432.69	413.25	421.06	368.62	358.81	334.06	311.50	275.25	269.62	266.12	255.44	258.12	277.00	401.25	461.69	484.88	474.62	331.31	289.62	284.44	289.06	297.81	321.88	341.00	323.12	326.06	405.12	420.19	449.94	426.81	390.25	367.25	338.12	335.25	430.12	472.62	491.69	487.25	424.56	351.81	329.81	420.31	460.50	412.19	388.06	392.50	388.00	397.69	370.31	376.56	379.88	435.19	447.44	415.31	439.25	452.81	424.06	427.38	466.88	486.06	444.06	472.12	482.94	445.81	430.19	408.00	388.75	387.25	387.44	393.38	405.81	437.38	516.56	592.00	580.50	544.50	495.38	439.12	423.94	445.88	481.44	478.62	478.75	486.19	487.44	483.75	479.25	463.62	457.06	458.81	439.50	405.56	392.25	392.00	392.00	392.00	392.00	392.00	392.00	392.00	392.00	392.00	395.50	399.62	415.62	425.31	433.56	480.31	445.94	522.25	772.06	866.56	881.31	758.31	685.12	637.94	767.31	833.06	818.19	885.25	798.56	844.19	923.38	1024.25	1047.56	895.31	804.25	790.12	807.12	797.81	769.25	741.62	746.69	832.31	1182.94	1291.06	1117.81	1174.25	1327.62	1085.19	1127.25	1079.38	1064.12	1148.69	1126.06	898.38	1003.88	1028.00	914.56	829.00	815.69	811.31	806.50	793.88	907.25	1314.50	1447.19	1355.62	1317.88	1518.38	1403.62	1222.44	1098.62	1015.50	951.25	940.06	947.75	969.38	1015.50	956.38	1021.94	859.06	667.75	787.06	1334.56	1407.00	1291.56
238.00	229.88	210.50	228.56	230.31	201.94	219.06	233.25	220.12	217.81	216.69	237.75	243.88	251.56	248.81	241.19	248.56	262.62	303.56	336.00	333.31	387.56	379.94	334.38	376.00	360.81	355.69	331.38	329.88	294.19	306.44	328.06	348.94	328.06	283.44	273.69	270.88	291.38	285.00	285.88	299.69	346.94	329.06	316.69	354.56	387.38	395.44	442.44	389.81	378.69	404.81	399.81	354.44	383.56	380.31	349.31	340.50	404.50	343.25	339.12	369.94	388.56	390.12	389.62	395.06	399.38	393.25	404.12	402.38	379.38	393.19	402.31	416.31	402.44	407.00	386.19	358.12	402.12	417.06	428.19	430.81	434.94	429.38	384.69	354.88	331.50	303.88	278.94	277.44	268.12	259.94	269.12	312.00	338.00	382.81	328.38	275.44	274.50	280.81	300.31	311.69	334.44	358.31	316.19	293.12	299.75	297.81	308.38	324.56	315.62	340.31	421.25	421.62	481.62	421.69	479.44	516.44	468.06	350.88	357.56	399.06	455.06	531.12	521.62	490.81	502.19	470.88	455.00	467.81	422.69	413.25	406.38	469.25	418.50	571.19	546.31	499.94	531.38	490.25	441.12	456.06	486.50	464.88	433.50	429.38	419.50	416.38	418.06	416.69	467.19	549.44	605.94	633.00	640.38	574.19	522.75	484.31	446.50	441.25	436.81	438.25	449.38	467.31	459.69	452.81	445.88	444.81	437.94	435.06	422.19	402.38	392.44	392.00	392.00	392.00	392.00	392.00	392.00	392.00	392.00	392.00	392.00	392.12	397.62	399.00	401.12	418.62	420.88	616.38	895.06	965.81	821.06	712.38	641.62	708.56	842.38	902.25	784.06	856.75	841.12	810.25	835.44	818.44	795.88	872.69	1028.31	1175.06	1240.44	941.31	788.56	731.12	731.19	956.25	1408.50	1228.12	1105.75	1371.81	1393.50	1073.38	1242.56	1118.81	1289.88	1102.50	1276.06	1316.31	1032.06	904.88	871.94	850.69	850.19	937.38	887.81	857.38	1120.94	1444.75	1516.00	1694.19	1710.94	1620.31	1589.75	1279.75	1118.06	1298.31	1034.12	1359.62	1354.62	1413.88	1513.56	1184.88	943.31	696.75	774.12	1383.31	1748.62	1652.62	1477.12
243.88	226.12	200.50	205.69	200.44	199.38	220.38	251.19	242.56	232.38	214.31	224.94	227.19	230.06	226.12	240.38	255.75	284.19	296.19	328.50	384.31	398.69	343.81	371.19	338.88	353.25	312.12	330.56	283.69	317.12	362.94	360.00	338.81	286.44	266.75	266.81	276.62	290.19	297.50	292.12	313.31	339.38	354.38	338.19	423.38	453.44	415.31	400.81	361.69	373.50	396.31	417.75	353.62	351.75	375.38	338.38	345.50	362.56	332.88	364.12	351.12	357.81	379.50	398.38	400.69	407.12	404.75	408.69	415.56	417.12	400.19	409.25	412.81	426.50	416.75	421.00	421.56	383.06	427.62	449.50	450.19	469.44	462.62	408.75	370.19	363.56	340.06	333.81	312.62	311.94	271.06	277.75	269.12	262.81	266.44	277.56	312.25	359.62	389.06	364.62	406.00	461.38	417.69	496.75	428.81	411.12	373.94	327.94	367.56	377.00	391.38	472.69	427.44	495.38	474.75	539.56	585.56	472.81	358.12	366.88	426.81	448.56	493.19	582.44	580.38	524.38	550.12	521.00	579.38	424.81	456.81	426.31	441.75	450.38	453.31	574.19	599.81	554.69	474.25	427.56	432.88	461.12	497.81	473.88	469.06	487.94	485.50	512.75	506.69	473.94	533.12	569.56	620.19	582.56	523.94	525.00	512.56	521.19	505.56	485.38	454.81	450.19	473.31	500.56	530.19	515.81	489.94	471.25	451.00	430.88	417.81	404.31	393.50	392.00	392.00	392.00	392.00	392.00	392.00	392.00	392.00	392.00	392.00	392.00	392.44	392.00	394.38	411.31	627.38	905.31	930.56	773.44	655.62	610.44	840.44	951.56	919.19	710.12	734.75	738.19	791.56	946.12	1035.75	1137.38	1253.94	1289.75	1329.00	1243.56	1217.75	1068.56	786.12	736.19	913.62	1065.56	1077.94	1330.88	1457.31	1208.00	1087.81	1085.19	1281.94	1445.12	1157.56	1232.62	1600.56	1617.38	1284.38	1198.44	939.75	839.69	869.75	998.25	1253.00	1533.81	1315.38	1531.06	1559.81	1459.06	1280.94	1207.31	1407.12	1677.62	1453.38	1138.31	1639.88	1518.69	1560.75	1245.12	1022.75	744.75	742.19	1423.44	1690.12	1677.19	1479.12	1379.81
220.50	195.38	217.50	203.62	216.88	212.81	238.50	255.19	253.62	254.56	230.69	221.69	239.62	237.00	240.25	242.31	252.75	294.94	363.38	405.75	417.56	349.62	347.31	352.75	300.25	294.81	298.19	308.56	282.06	305.31	331.31	311.94	306.25	288.56	262.50	273.44	283.00	300.19	315.88	324.69	338.38	338.25	440.19	448.38	429.94	427.38	385.56	377.69	362.06	388.44	371.31	375.31	372.19	336.25	330.31	322.06	333.56	346.56	354.38	388.94	391.94	389.88	367.81	392.38	393.19	398.38	407.94	417.56	422.94	435.94	415.94	411.50	424.12	432.50	434.06	443.19	449.38	408.44	398.94	447.38	470.19	495.88	497.56	415.88	386.12	384.75	385.88	346.38	327.44	335.19	283.81	319.62	314.50	307.56	298.12	309.56	359.31	390.75	430.19	369.69	406.88	470.19	530.75	444.00	525.06	470.75	485.19	424.25	363.00	438.62	456.19	574.56	496.31	625.94	512.94	543.00	536.62	452.81	351.62	422.25	504.44	532.25	450.88	496.12	518.56	563.94	607.44	544.81	503.94	437.62	436.81	412.25	426.44	508.38	438.31	438.56	483.31	445.81	434.00	446.69	472.56	485.38	465.38	470.75	516.44	552.25	572.06	551.12	552.62	478.75	467.25	504.12	520.06	477.31	497.88	522.69	569.06	589.12	563.00	531.12	504.25	488.25	474.50	541.25	553.56	527.19	525.12	506.88	488.75	463.19	445.56	427.44	405.62	393.75	392.00	392.00	392.00	392.00	392.00	392.00	392.00	392.00	392.00	392.06	392.00	392.00	392.00	398.00	731.81	947.81	944.12	798.69	603.12	655.62	946.50	946.00	739.06	650.69	829.69	977.19	950.44	938.19	1169.81	1182.62	1211.94	1246.81	1448.19	1426.06	1207.94	982.12	795.69	739.69	778.06	1025.12	1217.12	1352.56	1395.56	1269.12	1182.31	1172.69	1302.38	1414.75	1452.00	1259.50	1322.19	1678.62	1455.06	1552.56	1418.94	1070.94	880.69	888.94	1057.50	1589.12	1453.94	1570.31	1563.69	1245.62	1575.19	1520.38	1715.31	1557.12	1603.88	1289.31	1477.50	1654.31	1360.38	1143.81	830.56	693.00	1002.94	1509.56	1356.38	1300.12	1209.38	1165.75
207.62	192.31	225.62	225.94	226.00	246.88	240.44	246.19	254.62	264.06	245.88	227.00	233.62	250.06	235.88	235.62	242.50	291.25	405.00	386.75	366.69	336.44	335.94	327.69	313.81	288.06	283.25	277.31	315.06	307.38	302.44	284.31	265.94	268.56	282.69	300.88	309.12	352.00	348.81	379.50	390.44	414.12	447.50	439.50	410.19	433.50	391.19	371.69	371.56	386.44	381.00	374.38	334.75	325.56	320.69	331.12	346.94	399.75	383.56	377.31	399.44	411.62	382.19	411.56	439.88	423.06	429.88	429.19	464.12	444.56	435.25	436.06	437.19	446.88	461.81	481.50	462.81	447.75	390.44	391.31	413.25	473.69	492.12	433.38	382.31	356.38	347.00	316.69	352.56	327.06	299.19	446.25	437.69	464.94	388.06	319.50	436.38	422.81	527.00	440.75	496.50	512.25	553.06	592.00	480.62	524.81	537.88	466.00	370.94	415.12	494.25	535.00	504.19	601.75	548.31	489.31	417.06	389.38	376.94	445.69	549.25	607.75	536.06	452.69	475.50	521.88	570.88	574.06	502.38	452.31	422.44	418.75	417.94	518.62	502.44	471.56	547.44	486.12	467.00	440.56	462.06	491.12	466.88	471.81	525.38	546.56	551.12	593.38	547.31	499.00	481.94	484.94	502.94	516.88	541.88	605.00	657.06	703.56	648.06	616.44	605.56	571.81	531.06	528.19	526.62	498.56	510.31	524.06	518.81	496.38	460.44	428.94	408.00	397.12	392.00	392.00	392.00	392.00	392.12	392.12	392.00	392.00	392.31	392.62	392.25	394.56	395.50	399.50	789.25	889.56	823.19	650.88	568.94	769.00	865.94	670.62	644.12	797.44	1062.19	1174.19	1109.62	1011.75	1073.62	1330.50	1487.62	1419.44	1238.94	1062.06	1040.44	998.50	792.12	750.06	789.69	849.44	898.19	898.56	931.00	1236.50	1530.69	1372.56	1154.56	1178.00	1212.19	1206.50	1185.75	1565.56	1731.19	1621.62	1499.62	1463.12	1055.81	852.06	920.69	1305.50	1336.00	1304.25	1481.88	1335.69	1600.94	1559.81	1716.50	1530.56	1637.62	1330.06	1507.56	1597.25	1655.19	1329.56	771.81	768.44	1280.44	1505.56	1426.06	1357.25	1229.94	1001.62
219.00	194.62	205.19	234.81	242.25	247.88	233.81	242.94	255.12	253.88	261.62	244.56	235.88	247.81	237.75	263.62	292.62	290.94	404.56	373.19	380.75	313.12	319.81	286.25	295.94	299.19	265.19	289.00	307.00	296.94	282.25	256.44	272.19	281.88	305.44	310.69	336.62	365.38	392.00	420.88	483.56	456.75	396.62	390.31	384.88	404.50	409.25	379.75	361.44	400.38	365.25	364.62	323.69	330.31	333.50	330.62	377.50	406.06	412.12	423.00	440.31	418.31	399.56	425.12	459.94	423.38	448.81	493.19	451.56	474.62	478.19	452.75	455.25	471.50	573.06	607.56	571.12	560.69	541.00	470.56	403.00	421.25	419.81	370.38	386.06	385.31	335.25	319.62	337.00	305.88	314.81	496.94	615.94	551.06	428.12	327.12	475.44	497.69	530.62	529.12	533.69	596.50	577.81	579.94	507.69	623.12	621.19	420.62	426.81	459.75	466.75	436.69	469.62	518.62	574.50	505.19	419.56	417.94	344.75	368.25	390.12	467.56	542.44	494.50	563.25	564.88	530.69	503.31	450.75	419.19	417.19	427.00	431.75	509.50	537.19	474.62	550.75	612.50	555.12	498.19	450.94	469.38	455.00	545.31	537.00	566.88	593.12	525.62	535.00	551.75	521.00	498.44	505.00	520.94	557.56	649.88	682.50	693.31	634.06	676.94	647.75	583.12	569.88	493.19	509.00	564.12	557.75	544.75	548.56	561.00	548.88	506.44	450.38	420.00	403.06	392.69	392.00	392.00	394.38	397.25	393.25	393.88	394.12	394.06	395.69	402.06	407.19	454.25	699.50	634.06	561.94	549.06	643.44	724.94	653.94	659.56	701.38	1073.88	1247.50	1276.00	1287.50	1323.44	1543.75	1465.44	1325.19	1230.75	1249.38	1124.62	1288.44	1006.31	827.00	768.31	859.56	963.38	1065.50	1116.31	878.81	1302.06	1627.62	1612.12	1543.75	1377.88	1222.62	1323.44	1208.31	1246.94	1375.69	1654.50	1723.12	1464.19	974.94	845.00	867.19	1002.50	1250.81	1462.75	1293.56	1134.06	1316.94	1476.00	1266.19	1119.12	1023.56	1244.69	1316.31	1135.75	1011.50	799.94	708.94	734.25	916.94	1056.44	977.06	979.12	995.44	946.75
205.00	194.06	201.81	228.94	239.12	222.69	219.56	235.75	246.75	250.75	255.88	254.31	240.75	259.50	253.00	307.19	324.06	294.81	331.56	360.94	358.06	298.94	346.94	304.44	306.31	315.69	269.00	298.88	295.56	289.81	265.69	259.62	262.69	277.69	287.38	318.25	381.50	416.94	385.94	443.75	495.06	418.62	363.00	428.94	380.19	377.38	407.31	411.75	347.88	336.56	327.50	351.19	326.19	347.69	339.75	330.00	370.88	401.12	452.56	474.25	493.62	465.56	466.31	455.44	429.69	446.31	438.69	431.81	450.69	445.94	474.81	453.88	471.38	535.88	541.44	558.06	543.44	526.12	508.19	460.56	412.31	419.69	379.56	439.06	521.75	470.12	402.62	362.62	341.06	305.81	338.19	547.94	685.81	596.56	472.62	386.81	362.50	457.81	497.50	567.94	617.62	507.38	500.44	559.56	654.19	677.56	506.25	451.25	508.19	496.19	447.88	461.44	503.25	551.31	553.00	460.88	375.31	357.12	355.25	462.69	445.88	422.50	428.00	585.06	673.38	702.88	704.62	658.88	486.75	422.19	426.56	423.75	422.75	477.75	528.44	541.06	526.25	586.31	607.38	531.44	475.81	554.94	485.62	534.12	607.44	619.19	638.25	608.69	590.75	549.88	609.81	579.12	528.62	510.31	537.19	637.12	643.94	619.69	593.56	591.38	559.56	566.62	546.50	504.50	555.56	577.50	585.25	596.88	570.75	569.75	584.81	562.81	518.19	481.25	434.19	409.31	409.62	423.88	425.88	411.75	396.50	396.38	395.25	395.31	396.81	400.81	408.69	420.38	519.62	579.69	715.56	610.56	545.00	583.06	676.75	770.31	780.25	1140.19	1283.44	1327.88	1262.44	1229.81	1285.81	1391.88	1509.44	1492.62	1297.31	1209.06	1405.56	989.12	817.19	776.44	878.00	1068.31	1257.12	1295.50	1111.06	1012.69	1379.56	1641.56	1758.69	1617.50	1357.00	1662.44	1493.94	1564.69	1312.44	1378.25	1659.88	1175.62	882.38	855.62	891.56	1234.56	1236.19	1391.00	1138.62	1081.25	1095.56	1097.56	1045.06	873.81	978.19	916.12	855.62	800.62	758.88	742.62	791.50	795.19	849.88	974.06	1051.94	1052.19	1045.94	970.25
188.31	195.31	207.19	219.38	238.94	206.75	236.12	238.12	243.94	249.19	243.69	262.00	254.38	281.69	299.06	358.19	336.19	333.00	329.56	366.06	323.00	288.50	288.12	292.94	272.69	278.19	305.44	311.94	286.31	264.06	257.25	282.75	295.19	307.38	344.94	403.75	406.81	394.19	347.56	410.88	435.44	395.50	338.69	382.06	386.44	384.88	381.12	367.19	323.69	364.00	395.19	351.25	382.25	382.88	370.50	340.69	378.69	403.38	490.44	554.00	554.69	528.31	530.50	503.69	457.69	503.44	483.75	442.81	463.56	444.50	459.06	462.38	517.25	591.19	564.38	577.25	554.56	589.81	525.31	463.12	437.69	448.50	444.31	529.50	599.69	644.31	640.19	583.75	431.44	337.56	410.25	627.81	705.38	624.75	425.88	455.06	404.50	407.56	399.12	410.06	446.00	427.19	475.44	502.25	567.50	625.94	513.31	494.38	521.88	541.50	483.69	524.19	559.62	636.25	524.12	360.19	404.75	416.88	389.44	440.50	519.88	462.06	388.50	441.38	494.31	481.06	516.44	568.38	512.25	459.88	444.81	428.44	421.50	431.00	479.19	532.19	561.88	585.31	591.75	556.69	496.50	533.81	507.62	541.81	614.44	688.75	733.88	748.44	663.62	681.25	594.75	587.56	576.06	538.50	557.12	578.31	582.19	527.56	517.75	536.19	564.06	550.88	493.62	527.25	577.31	601.62	660.19	733.88	698.94	609.81	582.31	595.44	574.12	533.62	516.88	533.19	607.44	673.50	533.56	447.31	417.31	401.50	399.56	398.44	397.94	398.88	406.25	415.69	640.12	816.88	895.69	701.44	607.19	595.62	708.31	853.88	830.25	874.38	902.19	1014.56	1225.75	1339.56	1299.19	1156.25	1160.75	1448.94	1386.06	1443.75	1444.00	1019.75	816.56	775.50	903.25	1211.25	1412.44	1391.19	1710.81	1166.06	946.56	1455.12	1895.94	1440.75	1406.56	1813.00	1728.12	1593.25	1336.31	1367.19	1654.94	1079.19	924.12	994.12	1081.50	1420.19	1295.81	1097.00	1521.62	1537.62	1225.06	1458.38	1120.56	1043.00	1206.56	1025.06	917.88	875.19	834.12	978.94	1184.62	1094.94	1014.62	1101.38	1061.19	1085.56	1116.19	1113.44
196.56	199.50	198.88	204.69	212.94	200.88	214.44	236.38	253.75	253.44	244.31	266.06	277.06	357.00	376.81	369.25	324.75	328.94	317.50	309.31	299.75	347.38	325.50	294.31	277.19	272.00	264.75	283.88	267.56	268.56	276.56	322.94	316.94	319.44	427.38	431.06	413.06	406.31	366.12	356.31	396.88	345.56	331.88	305.50	319.25	327.12	316.38	318.19	359.62	447.19	441.25	396.69	355.94	346.12	342.31	398.25	426.25	437.25	566.00	592.50	587.44	592.50	556.88	565.31	481.62	492.50	511.25	478.88	483.00	475.56	489.94	484.81	544.75	654.62	697.94	711.88	690.19	669.44	614.88	590.75	577.50	659.81	689.06	709.06	644.06	608.31	504.69	445.12	535.38	397.44	502.75	649.38	622.81	484.88	463.50	451.69	413.88	503.19	542.25	506.56	479.88	544.38	520.88	594.50	585.88	613.81	586.69	612.88	544.25	664.44	565.00	669.56	622.81	575.25	398.88	367.88	425.25	394.88	397.62	384.00	420.94	472.44	463.00	404.44	453.00	434.19	432.88	425.00	434.81	459.00	491.81	480.75	428.94	426.81	450.56	467.12	492.31	524.50	553.31	538.94	557.69	624.31	626.69	551.50	572.06	624.56	682.00	739.62	699.31	679.62	613.31	621.44	565.88	630.25	601.38	563.19	532.94	550.25	546.50	511.44	503.38	528.06	582.06	584.19	604.75	651.31	759.38	824.94	792.12	655.50	666.19	677.12	633.44	621.81	751.75	823.19	874.06	790.81	748.19	748.12	713.12	560.12	449.75	401.62	398.38	400.81	404.12	411.94	522.50	720.06	742.44	774.88	883.44	686.38	618.31	698.44	726.94	780.88	996.12	1000.50	1050.44	1059.38	1169.25	1208.62	1249.50	1260.62	1578.81	1496.50	1307.56	986.88	850.31	802.38	935.25	1491.38	1454.50	1462.69	1877.44	1591.31	1166.31	1351.69	1785.88	1497.50	1751.25	1671.56	1576.12	1458.00	1342.31	1078.44	1047.44	930.50	1047.75	1188.56	1105.00	1009.00	1282.06	1438.88	1635.44	1733.50	1505.62	1612.62	1201.00	1352.69	1460.81	1128.88	1244.75	1620.94	1324.81	1474.81	1312.88	1038.75	1138.50	1226.69	1175.94	1107.06	1285.50	1151.94
209.12	230.06	221.38	208.94	208.56	200.38	200.50	209.00	224.25	224.38	253.06	267.19	320.31	374.31	370.44	346.75	316.94	319.56	342.25	291.06	280.00	313.25	301.81	295.19	276.69	266.12	246.56	271.81	256.69	276.12	316.88	351.62	329.88	328.31	430.88	439.00	449.00	400.44	420.69	347.81	364.69	313.69	308.62	332.75	314.19	306.69	347.19	393.56	426.88	463.44	455.50	452.44	349.94	444.06	400.25	476.00	476.25	449.69	569.38	592.62	582.75	592.12	576.06	589.94	536.69	470.44	490.62	501.31	484.06	481.88	509.19	600.31	657.31	703.06	666.31	628.94	613.12	549.12	553.62	570.12	614.50	622.50	599.88	531.62	501.00	444.38	363.56	402.94	427.06	502.44	557.94	612.69	591.94	539.81	486.94	455.44	498.06	476.81	555.38	507.19	585.75	513.69	585.12	559.94	618.00	701.50	682.44	724.00	691.19	676.88	632.38	634.88	525.75	539.00	439.25	387.62	500.06	420.62	404.75	386.69	409.56	440.56	601.75	457.00	408.88	468.81	540.81	522.75	468.25	448.44	445.44	462.62	454.50	432.00	462.88	486.31	454.81	492.00	524.44	515.88	558.81	657.06	603.12	637.56	598.31	602.56	606.06	652.19	665.75	770.94	711.44	620.50	604.19	656.56	670.31	632.94	578.44	587.12	628.62	586.12	560.38	582.06	607.44	614.19	616.00	676.19	759.38	814.44	748.00	641.38	697.25	679.06	696.19	693.50	772.50	909.69	1005.44	904.94	868.19	824.06	790.38	568.94	437.69	403.50	402.19	404.31	410.25	416.56	616.81	792.38	882.19	1006.81	946.38	709.75	597.94	692.81	927.81	993.69	868.56	909.44	1018.88	1260.19	1415.81	1367.31	1341.44	1200.69	1351.38	1413.94	1264.19	1055.38	946.94	830.00	973.81	1455.25	1739.75	1723.62	1904.00	1570.69	1256.19	1607.38	1851.25	1795.06	1843.75	1885.94	1813.50	1187.75	1000.44	926.25	998.25	1075.50	1338.88	1658.50	1561.44	1145.56	1271.94	1758.44	1722.31	1699.25	1940.44	1788.50	1207.38	1277.19	1464.50	1659.94	1979.00	1732.62	1966.75	1790.94	1397.06	1093.00	1482.38	1571.56	1622.88	1494.62	1201.62	1065.62
219.88	216.19	232.75	213.44	231.56	210.50	206.31	204.50	211.75	228.44	268.50	351.19	367.62	352.75	326.19	309.06	308.44	298.00	325.94	289.19	268.19	278.81	298.06	298.81	271.25	243.12	250.81	247.62	260.19	265.12	347.00	339.69	366.50	408.25	433.75	441.31	427.00	401.44	395.62	375.69	308.12	302.94	326.25	362.81	362.31	367.50	402.06	401.81	393.00	485.81	486.25	511.75	361.88	494.69	488.00	531.44	506.94	483.62	551.00	565.56	569.69	574.44	587.12	550.81	520.88	480.69	449.38	468.44	459.69	477.75	489.38	517.69	590.81	683.00	732.88	744.94	727.88	672.69	704.06	706.88	587.06	540.69	591.94	509.88	429.00	362.50	406.56	412.19	485.88	630.44	732.62	694.19	655.25	678.31	561.62	563.00	565.94	488.06	546.75	508.06	573.94	540.06	601.94	577.31	732.75	786.75	809.00	627.88	648.19	533.38	476.62	524.88	537.44	491.75	408.56	371.56	451.12	469.69	413.81	393.62	372.25	423.44	513.06	640.94	468.12	389.69	397.88	454.44	519.62	532.25	500.19	457.88	449.69	428.50	447.56	462.00	445.31	482.69	509.31	518.88	531.06	580.88	645.00	682.75	628.50	705.50	636.00	717.62	757.00	794.38	735.75	680.75	673.31	731.50	719.62	680.88	619.19	632.56	696.00	663.94	644.94	617.00	612.06	633.25	637.38	667.94	722.38	699.56	627.44	655.94	727.75	811.75	872.62	875.75	809.44	893.81	1000.06	1039.25	912.56	790.88	632.44	456.06	402.81	404.56	403.62	410.44	421.12	431.56	751.25	1095.06	1135.81	888.62	699.56	617.69	604.50	767.00	887.62	992.31	1045.75	998.25	882.62	1011.69	1174.69	1273.31	1414.31	1455.75	1338.62	1391.56	1299.88	1067.62	876.12	796.50	1042.62	1704.62	1940.75	1836.69	1391.81	1233.00	1590.06	1771.75	1588.75	1441.31	1492.62	1309.88	1268.12	924.00	1103.44	1383.56	1501.94	1171.75	1267.81	1767.19	1729.81	1514.19	1245.44	1147.19	1176.00	1202.69	1538.00	1594.00	1225.44	1176.44	1587.12	2506.50	2464.62	2405.00	2202.81	1806.44	1367.75	1548.50	1945.25	1991.81	2055.00	1530.62	1123.88	1307.38
234.31	234.94	232.44	222.31	222.44	206.69	215.50	219.62	259.81	318.19	301.94	361.75	374.62	344.31	273.69	319.56	306.00	284.94	311.44	268.62	268.50	289.62	275.50	243.81	240.12	242.62	271.38	272.88	269.69	340.00	412.19	396.69	416.69	400.31	441.00	446.69	429.12	400.38	358.56	311.06	316.62	347.81	410.12	408.19	409.00	421.50	482.44	508.56	480.44	473.44	526.38	495.06	425.38	547.81	559.81	544.50	517.50	467.50	521.56	568.25	562.00	550.56	528.50	500.12	474.38	470.25	487.69	486.75	498.62	531.06	589.25	623.69	707.88	716.31	749.31	794.56	725.12	691.31	668.88	545.38	602.56	561.69	505.06	495.38	479.62	435.69	410.69	427.25	529.31	620.44	688.00	737.94	671.62	620.06	651.56	669.19	572.31	582.25	564.50	593.19	641.81	625.44	839.88	672.69	758.69	693.19	632.12	533.44	444.94	452.00	379.25	369.94	378.50	372.56	377.44	387.62	407.56	418.81	485.12	499.56	410.12	379.12	428.31	635.56	637.94	434.19	392.31	398.62	396.25	416.44	459.69	524.94	465.88	478.19	441.81	434.75	436.19	446.12	491.19	519.56	540.62	537.94	596.25	658.94	680.12	711.88	666.12	666.19	725.00	761.38	792.19	740.38	753.69	797.81	751.12	734.56	622.00	644.50	712.31	738.50	734.56	720.12	673.12	653.44	671.06	700.31	708.12	664.75	650.69	756.19	851.31	921.12	938.88	961.94	918.94	907.75	975.25	998.12	848.88	670.69	485.19	418.06	405.00	405.31	404.94	413.25	428.38	464.62	676.94	956.31	1279.56	989.50	678.38	662.88	812.69	1096.06	1416.69	1451.56	1392.44	1347.25	1074.38	1036.81	992.38	1113.69	1262.75	1253.00	1190.56	1230.75	1130.81	956.38	896.94	812.69	1026.44	1466.31	1703.31	1812.50	1631.12	1462.56	1840.81	1673.62	1567.25	1461.50	1464.31	1502.12	1029.69	1075.00	1776.12	1751.44	1365.69	1602.12	1576.00	1305.50	1481.62	1391.69	1323.56	1558.25	1748.94	1510.00	1156.38	1056.56	1004.31	1150.19	1731.44	2465.81	2227.00	1837.88	1725.94	1773.88	1973.38	1948.75	2248.06	1890.62	1227.06	1166.94	1577.25	1338.56
218.56	223.12	233.25	236.94	240.56	233.88	232.75	262.12	339.12	338.19	348.38	368.88	339.38	292.19	269.06	298.00	262.94	263.44	288.75	254.94	260.69	253.31	234.25	245.88	236.44	254.31	271.50	303.62	377.75	353.44	406.44	419.19	390.06	401.06	440.56	434.31	425.06	428.12	460.81	333.81	437.81	453.00	476.38	454.94	486.81	513.69	469.25	530.62	500.81	469.62	426.06	405.44	434.81	479.19	510.06	540.75	505.62	547.81	583.38	575.12	539.31	523.69	541.38	564.06	557.88	547.00	561.31	587.69	618.12	687.31	759.50	779.69	809.44	817.25	842.56	821.19	784.94	719.44	589.00	492.81	543.31	561.38	630.62	602.56	513.50	569.19	506.25	494.12	640.69	655.81	685.94	774.81	797.75	679.12	697.69	728.50	599.19	678.94	752.31	655.19	775.56	669.94	711.00	808.38	649.38	497.75	474.44	478.81	383.44	394.12	392.50	385.56	401.44	402.12	405.50	410.56	429.19	429.31	427.44	480.62	497.12	379.75	396.50	550.94	698.81	513.62	459.75	430.50	491.38	439.81	403.69	407.88	444.50	598.06	565.81	485.12	442.75	442.25	449.62	481.44	532.38	531.44	546.56	611.31	713.81	770.12	668.94	694.75	780.44	841.19	816.25	822.25	830.44	823.06	780.75	701.00	624.75	608.12	697.56	782.44	795.69	837.06	799.19	761.25	774.00	768.62	779.88	817.81	739.19	723.12	822.75	838.69	918.25	1008.50	1085.12	1098.81	961.12	728.75	510.00	421.19	407.50	405.56	405.00	407.25	407.56	413.56	485.81	688.81	667.94	752.19	1142.25	1191.12	792.31	773.88	789.69	885.06	1171.19	1375.44	1461.19	1425.44	1212.44	1176.31	1347.56	1383.62	1423.81	1473.75	1442.06	1202.00	1120.88	1121.06	1091.75	856.00	945.12	1177.25	1222.88	1634.69	1929.50	1747.50	2070.81	1836.12	2026.25	1868.94	1907.25	1433.06	980.38	1260.81	1681.94	1829.69	1768.06	1889.88	1623.38	1324.88	1603.38	1730.88	1797.06	1774.88	1924.50	1760.50	1480.12	1075.69	1032.38	1148.75	1384.00	1792.25	1985.06	2029.75	2097.31	2103.88	2038.06	2002.00	1892.44	1472.75	1162.25	1691.88	1594.88	1269.62
229.12	234.00	226.44	231.75	241.06	251.94	248.44	282.81	315.31	343.31	349.38	312.75	320.31	260.19	258.12	250.44	247.31	272.75	275.50	264.88	241.44	234.38	236.31	261.38	279.06	272.38	314.00	416.69	449.62	375.88	398.69	402.62	424.75	441.69	447.00	460.75	376.69	390.69	309.88	306.38	357.75	429.00	452.94	492.88	580.50	536.31	493.25	438.25	439.88	478.75	528.00	449.88	524.88	579.75	584.81	569.81	596.31	641.81	616.38	609.69	681.19	686.25	738.56	756.88	776.12	784.31	762.12	763.19	769.50	699.62	671.81	719.88	780.62	678.88	760.94	736.56	673.44	569.69	484.38	519.56	604.31	691.31	775.62	747.94	653.31	708.94	628.50	572.25	735.56	773.75	839.00	853.81	936.12	987.69	917.50	953.69	727.06	849.19	880.38	751.62	785.06	727.31	619.44	644.75	471.38	422.19	437.81	427.81	418.94	449.88	422.50	403.25	428.38	446.94	442.38	428.06	461.19	481.50	426.44	438.00	505.00	412.44	363.44	453.38	615.25	531.88	503.12	463.94	569.06	542.69	431.50	417.62	416.38	512.00	630.12	617.06	500.50	441.62	441.50	461.50	493.06	556.06	544.06	564.81	651.69	680.62	688.19	688.31	781.88	813.81	896.62	913.25	811.50	765.12	734.00	711.06	649.81	651.25	690.44	693.88	767.81	831.12	838.19	811.44	864.50	812.75	817.94	834.69	760.50	764.06	808.56	871.50	884.25	951.81	1097.44	1091.44	887.50	622.94	438.62	415.19	409.38	409.12	408.25	408.75	410.00	482.12	835.19	1096.31	876.75	865.38	1152.88	1251.44	1131.25	868.81	680.44	772.12	898.38	1082.38	1161.50	1175.38	1132.75	1232.94	1546.12	1765.75	1815.31	1675.38	1381.88	1158.25	1082.69	1359.44	1230.44	1024.12	1063.25	1416.81	1655.50	1359.12	1918.06	1884.94	1874.62	1842.56	1611.62	1643.31	1503.75	1133.31	1035.00	1245.31	1290.56	1528.31	1977.81	1828.62	1574.44	1518.94	1420.44	1903.88	2056.44	1756.88	1702.25	1661.00	1325.50	1117.00	1373.50	1593.88	1638.62	1643.50	1582.62	1548.00	1546.12	1613.69	1572.50	1557.94	1502.19	1227.31	1203.31	1370.75	1237.88	1123.56
