442.06	464.50	533.56	596.06	563.81	510.62	559.44	597.56	491.25	438.06	427.12	449.56	438.75	439.38	545.31	698.56	797.81	842.31	569.19	464.44	407.31	472.81	552.88	393.44	377.56	352.25	345.12	334.56	330.31	319.88	294.38	277.88	244.94	219.31	216.00	216.00	216.88	216.50	217.06	217.94	218.00	218.12	226.75	282.38	328.94	362.88	391.00	421.19	441.19	457.38	473.75	489.50	499.44	510.38	526.06	540.12	558.88	556.12	545.25	529.81	524.50	519.56	501.19	485.31	470.06	451.62	429.69	407.75	383.31	352.75	332.69	320.00	309.31	291.50	279.12	276.94	270.31	261.94	253.25	254.50	258.38	253.25	251.25	255.88	269.25	265.88	264.38	257.81	251.62	251.12	248.56	246.81	251.56	253.06	252.12	249.06	244.06	248.94	254.12	254.31	259.81	263.19	263.25	261.69	255.69	253.81	256.00	263.56	280.31	286.81	290.75	292.44	281.25	265.56	269.19	273.12	265.25	265.19	267.50	265.25	265.38	267.44	263.75	259.88	264.38	266.25	267.69	270.38	271.69	272.69	273.06	281.06	282.19	286.62	289.88	292.75	295.62	298.50	299.81	300.19	302.81	302.88	299.00	293.50	289.62	288.06	290.00	294.88	295.00	291.50	286.12	287.31	286.31	296.31	287.19	298.62	303.75	319.62	325.00	320.50	329.31	315.25	325.31	328.31	318.31	318.19	344.50	349.69	335.75	345.25	327.44	360.25	365.38	359.25	340.62	352.06	368.31	381.56	377.75	368.81	378.69	389.12	382.38	389.56	394.56	396.38	397.19	405.75	410.38	409.50	418.62	399.19	388.12	384.94	408.12	405.94	422.94	403.00	410.81	417.38	414.69	427.94	432.19	437.50	451.75	471.44	493.94	502.56	530.75	573.00	603.94	619.81	630.12	619.94	624.00	620.56	630.00	644.06	662.19	657.94	656.06	651.12	656.81	671.94	687.44	667.88	641.81	567.81	489.81	443.25	396.69	367.56	357.12	338.69	332.69	331.19	333.69	337.19	329.94	326.81	329.56	321.06	321.12	327.06	329.38	325.50	317.19	319.19	319.75	320.19	318.69	313.25	313.00	313.62	315.81	314.62
362.56	507.00	603.81	687.94	556.44	509.69	595.12	606.38	588.94	468.88	439.31	452.31	499.12	541.62	632.75	733.50	826.12	855.75	606.75	600.12	425.62	492.94	638.81	455.19	415.75	396.06	378.19	366.38	348.88	332.44	325.94	314.25	295.75	259.81	220.50	216.12	221.38	225.75	226.31	226.94	227.25	218.75	219.81	245.69	274.69	313.06	352.25	381.56	404.50	424.69	445.19	462.69	471.38	484.88	502.62	514.19	527.62	528.56	513.19	505.06	505.88	500.62	491.25	470.44	448.69	432.19	410.62	381.38	355.75	338.19	322.44	311.12	300.19	285.25	273.44	269.69	268.31	259.75	248.25	248.69	248.88	247.69	251.50	260.62	267.06	269.38	269.62	264.62	263.19	261.88	257.75	257.56	259.62	260.00	259.31	256.31	251.12	259.25	259.56	263.00	268.25	272.25	277.25	276.44	275.56	272.00	272.94	283.50	297.75	316.00	329.19	333.19	324.69	296.62	277.88	278.44	272.62	265.12	265.50	266.19	265.00	265.75	265.31	259.25	261.38	265.69	267.19	269.50	272.31	275.00	277.00	281.50	282.31	286.81	290.38	292.81	295.75	298.19	300.12	301.88	304.19	306.44	304.12	298.94	293.88	290.44	288.44	291.25	298.69	293.31	292.00	290.44	291.50	289.81	292.12	290.06	296.75	310.88	327.94	324.31	320.75	330.94	321.44	338.50	333.62	314.44	333.50	349.38	351.31	345.69	337.06	334.94	364.25	358.19	364.75	346.31	364.38	375.75	387.88	385.25	377.69	384.88	387.50	389.62	391.62	398.94	400.75	407.19	417.69	431.81	434.50	428.12	412.25	400.56	401.88	407.12	424.00	421.19	436.81	431.00	448.56	462.12	476.75	488.88	504.81	523.56	548.56	562.38	554.38	581.25	610.75	627.62	626.62	618.25	625.75	630.12	645.81	656.19	664.38	673.19	680.06	673.56	677.19	693.62	690.94	707.56	678.62	626.44	508.94	466.00	398.75	372.44	357.81	347.75	330.56	327.88	330.75	332.31	327.81	323.00	326.38	324.81	314.12	325.81	329.56	323.94	317.00	318.75	318.31	318.81	317.81	315.25	316.56	318.31	317.56	311.94
370.69	553.19	699.12	655.12	544.25	501.06	550.44	477.12	451.06	450.00	459.81	473.88	464.19	576.00	620.44	724.50	835.69	895.19	736.81	608.38	427.88	519.38	685.19	503.31	415.31	424.44	400.69	382.44	368.00	348.38	346.31	329.38	303.12	275.19	235.31	220.12	226.69	260.81	271.12	259.50	250.56	220.44	219.88	220.94	226.00	256.19	322.81	348.00	370.25	398.81	418.31	429.50	446.25	461.56	470.75	493.81	495.62	487.12	488.81	503.38	512.94	506.50	493.50	461.31	431.69	408.69	390.88	368.69	345.50	326.94	316.56	304.44	293.25	280.38	271.31	264.88	263.12	258.50	248.19	241.00	242.06	249.88	253.06	256.31	265.06	266.19	267.69	265.62	266.12	267.19	266.88	267.50	265.81	267.31	266.25	264.38	262.88	267.00	268.31	272.88	275.50	279.62	287.94	291.00	290.44	290.56	288.31	302.44	313.81	335.38	355.81	366.38	362.38	346.06	303.44	285.50	281.62	267.44	264.56	264.94	265.00	265.00	263.31	259.25	259.75	263.69	269.38	269.56	272.44	276.31	279.94	281.12	282.44	285.50	290.25	292.94	295.88	299.06	300.25	303.25	304.75	308.69	308.06	304.12	297.69	293.69	289.75	289.56	297.25	296.81	298.25	289.56	298.31	291.44	293.31	287.94	297.50	307.06	319.31	330.88	320.12	331.81	329.31	330.50	345.38	323.81	318.44	345.06	355.81	356.06	348.50	329.62	350.75	354.06	363.06	360.06	356.06	374.62	384.94	394.56	388.12	385.25	385.50	390.44	395.50	398.44	405.44	409.75	420.62	433.81	437.12	428.12	432.00	425.31	415.69	412.44	422.81	440.25	448.56	464.75	467.31	497.38	507.56	510.75	535.38	541.69	552.75	577.94	588.69	590.44	596.06	600.44	607.88	620.50	639.44	649.88	661.94	673.94	676.31	677.88	693.50	699.44	699.06	711.31	712.12	725.56	686.56	595.50	521.69	476.31	401.88	368.25	361.00	358.50	332.88	327.38	329.62	329.44	326.44	321.94	323.19	322.94	309.75	322.25	326.69	321.44	317.94	318.38	315.44	315.44	316.00	316.12	318.44	317.19	316.06	311.31
366.56	547.44	668.31	643.81	514.38	482.81	465.56	467.06	465.75	476.31	493.44	514.94	459.81	568.62	641.31	721.00	830.75	868.00	666.75	524.94	433.12	541.69	685.38	556.44	438.75	422.88	419.62	400.69	380.75	367.38	358.19	345.69	321.81	289.50	262.19	241.06	236.94	261.69	292.88	297.25	255.38	221.94	219.81	223.12	220.06	229.12	282.62	324.75	350.12	369.50	392.62	411.38	424.88	439.56	444.19	462.62	468.81	475.06	486.00	500.81	504.31	506.62	494.50	447.88	428.00	392.44	372.56	357.31	335.56	317.75	307.50	295.81	285.88	275.38	268.69	260.88	258.06	255.88	248.31	240.44	240.81	247.75	250.25	259.94	262.06	262.44	264.19	267.12	269.44	274.69	277.06	277.62	272.75	273.69	273.38	270.12	272.31	276.00	277.31	282.06	284.88	288.88	294.31	303.88	304.81	306.81	306.88	319.06	334.88	354.94	373.69	391.88	395.69	389.88	354.69	306.00	296.12	276.50	265.81	265.81	265.12	265.00	263.25	260.00	261.19	262.06	267.12	269.38	272.50	276.75	281.44	280.56	282.00	283.81	289.75	292.56	295.88	299.00	301.06	304.50	305.94	308.50	310.06	308.81	301.75	296.94	292.31	290.44	294.62	302.81	300.19	295.31	295.31	298.06	292.75	295.06	289.31	305.19	320.62	327.88	328.56	325.25	329.38	327.69	345.00	337.88	325.69	341.00	349.38	357.44	354.50	331.62	337.38	354.44	354.44	373.94	353.31	369.88	375.50	390.31	392.19	394.38	390.62	393.25	392.25	395.44	403.44	411.06	419.69	429.62	436.56	435.12	426.88	427.88	416.31	420.94	424.62	441.25	471.25	491.81	498.38	516.44	514.81	515.06	536.00	555.12	554.12	573.25	588.56	586.06	582.38	592.50	616.94	646.44	658.25	667.94	681.38	678.81	677.31	677.25	690.00	704.88	710.62	716.75	718.38	714.12	660.81	597.38	530.50	480.69	399.25	368.75	359.44	357.00	333.81	327.44	329.31	328.81	326.06	320.56	320.44	320.19	314.88	314.88	322.12	320.06	313.12	313.50	311.88	317.62	317.75	314.44	316.94	315.19	313.31	310.19
454.38	483.12	499.38	498.12	499.56	519.19	509.88	598.38	560.88	571.88	498.38	466.50	540.25	600.06	656.38	740.12	745.12	736.62	584.44	472.19	442.12	638.00	705.69	581.50	490.81	460.75	427.06	424.69	404.25	391.50	386.06	369.50	352.31	321.94	305.25	284.56	275.44	246.38	257.12	291.75	298.38	262.12	242.12	241.69	230.00	220.06	240.06	289.56	305.56	326.50	345.38	362.19	380.94	394.81	401.81	424.06	436.81	439.69	454.19	456.00	471.50	477.25	469.06	428.50	407.50	375.00	351.12	338.75	323.19	306.44	296.44	286.44	277.94	269.19	263.94	257.56	252.75	248.75	246.38	241.00	239.69	245.00	247.19	250.88	260.94	264.88	273.12	277.88	280.94	285.94	291.81	294.06	289.75	288.25	286.94	287.38	290.94	294.81	292.75	297.56	301.31	306.62	310.44	317.19	327.06	329.31	334.00	348.56	367.69	391.06	404.56	413.69	429.94	436.50	422.31	363.81	318.88	305.56	270.75	267.62	267.69	265.38	264.38	264.44	263.06	266.94	264.19	270.19	271.19	277.94	283.88	280.69	282.00	286.38	287.00	291.56	295.81	299.75	301.50	304.94	307.12	309.50	311.31	311.12	308.69	302.31	296.81	292.69	292.56	299.62	300.31	300.62	294.81	302.88	297.75	296.56	292.38	299.50	311.62	326.12	337.56	326.25	337.00	331.81	339.75	346.81	344.38	337.88	361.06	356.56	360.81	350.31	329.69	359.75	354.12	361.50	375.56	366.62	377.12	376.06	382.44	404.50	404.94	392.06	398.25	392.62	405.06	408.00	420.75	424.88	435.88	439.81	429.25	422.94	412.25	429.62	444.88	457.69	474.00	494.50	510.50	527.12	535.44	538.25	542.12	547.25	564.25	584.19	583.25	605.81	614.38	607.12	631.31	642.75	661.88	659.19	673.81	689.38	685.44	680.19	691.06	703.94	716.31	725.00	715.69	666.38	624.44	582.56	529.94	448.62	386.00	372.00	361.62	343.44	330.31	324.31	323.38	324.62	321.12	316.94	316.12	316.94	312.88	306.75	310.25	309.12	306.50	307.00	309.81	315.62	318.25	312.69	312.50	311.19	308.75	308.19
580.25	618.06	568.19	510.62	542.75	561.81	551.94	680.62	614.88	517.31	467.25	496.94	567.56	599.88	653.88	696.81	731.31	670.94	612.12	463.56	446.94	616.19	698.38	578.62	494.38	474.19	435.31	432.44	425.50	411.56	401.56	386.50	368.81	345.94	329.81	323.44	311.81	265.44	258.31	287.44	298.12	291.62	283.00	270.25	252.69	222.75	222.25	252.38	264.38	287.62	305.25	320.19	342.94	370.62	387.81	402.56	409.00	410.56	424.94	427.75	439.81	436.06	413.88	399.12	380.88	355.94	339.19	322.69	311.31	296.56	287.06	280.00	272.94	264.50	260.25	256.75	246.31	241.06	237.88	237.81	239.81	240.38	242.56	247.56	258.25	269.31	280.50	286.06	291.00	296.75	302.38	305.00	304.94	307.44	303.00	302.44	306.75	308.50	309.19	313.00	315.12	322.06	328.94	333.56	345.00	349.50	353.62	367.19	389.19	413.38	429.44	432.69	445.00	459.69	465.50	421.44	340.00	330.25	294.94	271.00	272.38	267.44	266.19	266.44	263.75	265.25	266.62	267.81	271.12	276.38	283.69	283.38	281.88	285.88	288.19	290.94	295.38	299.38	301.50	303.81	307.38	310.44	312.19	312.88	311.62	307.81	300.44	295.69	292.62	297.00	300.12	302.12	301.75	300.38	308.88	293.00	298.50	299.38	314.81	320.56	331.44	329.75	326.81	346.38	349.94	347.75	345.69	350.31	355.50	367.06	365.50	358.88	339.81	343.44	357.25	357.56	376.44	366.56	377.56	380.88	378.06	387.62	409.62	403.75	399.38	394.94	408.44	412.50	417.19	423.00	431.12	444.38	444.62	430.88	428.31	457.31	462.56	474.69	480.44	489.19	509.44	528.56	533.38	539.88	553.38	566.75	586.00	582.62	605.38	629.94	628.25	628.31	639.31	652.00	656.50	658.81	656.44	680.44	694.44	693.62	701.25	707.94	718.19	715.00	672.50	635.88	614.69	563.06	506.75	417.62	371.12	364.25	357.44	345.69	330.06	323.12	319.19	319.62	318.94	314.19	314.00	314.56	312.38	309.06	307.38	307.06	304.06	304.50	307.19	309.56	311.81	310.25	308.75	306.81	303.94	301.50
693.75	650.50	584.25	533.50	554.88	559.12	561.25	688.75	662.38	504.25	465.62	504.62	597.75	607.12	629.50	697.38	735.75	670.38	507.12	493.38	466.00	601.75	668.75	580.62	489.25	457.25	450.25	459.62	454.25	437.88	418.38	408.50	392.75	369.62	349.75	340.50	324.00	290.62	267.00	281.88	292.12	297.38	292.50	282.62	262.88	235.88	218.12	229.88	230.88	255.75	271.12	294.75	325.62	347.25	361.38	375.62	385.62	381.25	387.00	394.62	393.00	376.50	383.38	370.12	351.62	334.25	323.88	312.25	301.75	290.38	281.62	276.25	272.38	261.62	256.62	256.25	249.38	236.50	232.38	235.62	239.25	239.12	240.88	248.25	260.25	270.25	286.25	294.12	298.88	307.38	312.38	317.62	319.75	319.88	318.62	321.38	324.62	329.62	332.25	334.62	337.75	340.12	350.25	359.50	373.12	376.25	380.38	379.75	405.00	424.38	452.25	453.50	453.75	474.38	486.00	479.75	393.88	340.88	329.88	288.62	279.62	272.62	269.38	266.75	268.62	267.12	265.12	266.62	272.25	274.75	282.12	283.25	282.75	282.88	286.00	290.38	294.25	298.12	300.88	303.88	307.00	310.62	312.50	314.12	313.62	311.62	306.25	299.12	295.88	296.12	299.25	302.88	304.38	302.12	307.62	307.75	293.75	303.38	308.00	316.50	328.75	339.62	324.25	334.75	356.00	354.62	354.25	350.12	353.62	355.75	374.25	371.88	348.50	338.25	366.25	357.75	361.50	383.12	369.62	392.62	381.50	396.25	392.12	420.12	406.38	400.25	399.75	417.38	421.25	426.00	432.38	446.12	452.88	444.25	434.62	454.38	465.12	485.00	499.38	511.38	512.12	524.62	549.62	571.88	585.00	600.38	620.50	610.75	605.00	638.62	645.75	632.25	651.25	659.50	666.12	655.62	653.12	662.50	683.50	705.25	698.50	695.88	711.75	677.88	626.12	614.75	612.75	567.12	474.75	377.62	363.50	367.38	352.38	339.75	337.38	329.50	317.50	316.25	316.88	313.12	314.00	313.88	313.25	312.75	305.50	306.00	304.38	301.88	302.88	306.75	306.12	306.62	305.25	303.25	300.38	297.62
622.12	681.00	659.31	622.94	610.19	616.31	578.81	632.44	683.69	590.94	517.12	502.50	619.75	652.94	675.44	742.00	732.25	614.50	594.00	521.69	513.81	682.81	677.12	580.19	486.69	455.50	461.69	472.19	471.75	464.56	448.56	427.94	402.69	384.50	381.69	379.50	354.31	323.25	279.75	273.88	286.62	303.81	296.31	288.31	268.19	255.50	229.12	221.25	224.50	227.19	250.00	288.94	308.12	319.06	331.31	346.62	352.38	350.94	356.56	359.56	355.94	356.25	349.12	343.50	329.94	317.44	312.44	305.31	293.75	286.62	280.62	278.12	271.81	266.12	265.56	261.81	248.50	235.44	230.25	235.00	239.81	241.62	245.50	258.69	266.69	278.94	293.19	302.44	309.25	316.81	321.38	325.44	330.06	333.31	336.62	340.00	343.62	350.19	359.50	365.31	369.69	377.50	386.19	390.81	407.38	418.00	401.19	406.00	405.31	438.06	454.00	472.81	472.69	472.88	492.69	500.31	462.56	370.00	349.94	303.69	284.00	276.69	273.19	269.31	272.44	270.06	268.38	267.25	272.31	274.56	279.94	281.75	284.06	282.00	286.88	289.31	293.56	297.38	300.25	303.88	308.00	310.50	311.88	313.44	314.88	313.62	310.19	303.25	297.75	297.38	298.69	304.38	307.00	307.88	307.12	316.69	301.31	304.12	305.75	312.94	327.19	339.75	331.50	326.44	347.56	357.25	363.25	363.62	361.38	344.81	362.44	385.81	372.56	348.12	357.44	376.38	357.19	369.75	366.94	388.19	392.19	394.50	394.88	407.88	425.88	409.69	401.50	414.06	426.06	431.31	432.50	439.25	453.75	467.69	438.75	446.06	466.06	487.81	511.06	535.94	547.75	557.94	572.81	583.75	594.25	600.69	618.75	634.50	632.12	633.31	644.00	641.06	644.88	669.69	681.62	665.56	658.81	661.62	676.56	684.69	673.19	683.50	686.25	652.06	611.38	588.94	586.81	492.56	390.50	362.44	361.00	355.75	348.88	341.56	340.00	337.19	318.75	314.38	313.44	311.00	312.75	314.38	312.31	309.44	302.19	305.62	302.75	299.38	299.19	302.88	302.88	303.00	302.12	301.44	296.75	298.06
467.38	657.94	687.19	715.50	695.19	625.62	621.62	694.94	645.00	559.75	534.94	490.31	527.81	572.44	649.81	721.44	675.00	669.38	620.25	533.38	564.25	702.62	689.56	594.50	491.12	467.81	468.69	470.00	482.44	479.31	459.19	443.88	426.88	414.81	410.00	404.50	378.69	341.62	303.06	269.44	278.00	303.25	300.38	297.88	282.62	263.94	254.00	238.44	224.38	220.12	230.88	271.75	289.75	299.19	303.62	307.88	302.94	315.69	321.56	322.44	329.19	330.56	327.31	321.62	310.88	306.94	303.19	297.25	286.62	283.44	279.44	275.44	271.25	268.62	265.31	254.38	246.56	233.62	229.50	236.19	240.75	249.25	255.44	262.25	276.75	290.12	304.06	313.44	320.44	327.25	332.81	339.88	344.38	350.44	355.06	360.06	365.50	381.81	401.62	417.88	422.75	428.50	432.12	427.06	435.19	455.06	441.75	425.19	433.69	428.31	478.25	478.12	485.19	484.81	492.62	507.62	486.44	397.19	366.56	327.25	289.75	281.56	277.62	272.62	272.12	269.75	268.19	268.44	271.00	272.88	277.19	283.25	283.31	282.19	286.81	290.31	293.81	296.31	299.38	303.12	307.75	310.00	310.75	312.00	315.25	314.88	312.75	308.56	301.75	299.62	299.69	306.06	309.19	310.25	313.25	315.56	316.75	298.12	309.38	312.88	316.81	339.44	337.00	323.50	340.81	345.62	372.31	366.62	370.00	360.12	341.62	377.75	388.38	347.75	368.12	389.75	374.31	362.38	379.44	375.81	397.00	389.69	415.12	387.69	419.56	426.94	410.94	408.75	420.88	434.19	436.12	442.75	454.50	473.19	454.94	448.56	464.38	497.62	527.50	567.38	566.75	565.38	581.12	596.50	595.44	585.06	606.50	612.12	631.69	638.88	639.94	630.00	638.75	643.38	653.62	678.25	683.75	684.38	680.38	675.44	630.38	622.00	621.44	606.94	600.56	568.50	498.62	416.38	361.19	354.81	354.56	348.12	348.94	341.81	336.44	334.31	322.81	313.06	311.12	311.81	317.31	314.62	311.06	308.94	305.31	301.56	299.75	297.88	299.56	299.69	300.25	300.19	299.38	298.62	295.69	299.06
450.81	616.19	696.44	724.50	725.81	619.75	658.56	699.94	606.62	603.00	518.00	492.81	602.50	634.81	649.62	718.69	713.62	759.31	629.62	542.06	642.19	741.69	688.94	625.44	498.81	473.25	470.56	462.50	479.44	487.62	463.56	453.00	436.81	432.19	429.31	417.00	391.19	355.38	312.62	279.69	278.88	305.62	315.00	309.00	297.38	280.69	260.19	265.19	247.62	224.19	225.00	252.25	262.25	269.25	269.31	269.88	265.81	283.88	289.25	291.50	312.81	318.00	312.50	302.19	298.38	296.50	294.38	289.94	283.94	279.75	278.44	274.19	269.38	267.75	259.06	249.50	239.38	229.75	230.12	241.12	248.19	257.00	265.81	274.62	282.44	295.19	310.81	320.31	327.69	333.81	342.94	348.75	354.81	362.81	370.38	384.75	402.62	425.88	442.88	458.31	462.50	462.44	463.06	460.00	456.44	476.81	482.62	449.00	452.75	448.06	468.88	490.94	488.88	494.94	489.25	506.38	491.50	404.75	369.62	345.12	296.12	287.25	281.50	276.00	271.75	271.19	269.25	269.00	269.50	272.06	276.25	284.12	282.81	283.38	285.31	290.25	293.25	295.44	298.44	302.31	305.62	308.75	310.00	310.62	314.38	315.88	315.00	313.88	306.19	302.12	300.38	303.38	308.44	311.31	316.50	314.94	315.44	304.00	305.25	315.12	318.62	327.75	346.94	327.31	332.06	348.19	350.75	369.38	375.12	374.69	347.94	344.69	379.31	353.19	359.56	394.81	395.38	368.88	388.81	380.00	396.56	398.25	406.88	407.00	389.25	434.44	420.69	408.00	417.38	430.56	440.06	443.62	454.06	465.12	475.06	455.75	473.19	497.94	519.31	555.19	566.12	566.44	580.25	592.94	598.75	589.31	584.38	593.12	610.06	630.62	635.19	629.44	634.38	641.38	645.25	664.12	689.69	686.00	666.00	655.69	633.38	623.62	614.31	614.81	611.38	547.44	437.56	376.56	358.31	351.94	351.62	344.56	347.38	336.81	331.75	324.12	315.75	311.31	309.19	310.81	315.81	312.25	311.69	309.25	308.38	304.31	296.44	294.19	298.19	298.38	299.44	298.00	298.19	294.69	295.69	299.38
343.56	461.12	523.06	602.75	578.50	578.12	636.00	701.81	729.44	629.81	485.44	533.62	561.38	680.81	739.31	772.94	781.81	808.81	581.81	587.31	793.69	747.81	681.00	598.81	517.81	492.62	473.88	458.38	458.12	478.88	468.25	462.81	451.38	444.25	446.75	426.44	389.25	357.25	324.06	292.50	287.06	315.06	329.75	328.81	314.00	292.69	262.50	266.62	260.88	250.44	233.06	225.25	227.62	228.31	226.00	225.00	228.44	243.44	251.88	259.69	282.50	288.12	284.06	283.38	293.06	294.94	288.94	286.31	284.56	278.12	275.94	270.94	265.81	264.19	255.25	242.62	228.50	231.69	241.62	250.50	259.50	267.38	278.94	296.00	310.19	321.19	326.31	332.88	341.62	352.12	360.69	370.50	381.69	391.44	408.00	424.81	445.56	470.50	477.88	495.12	502.25	504.81	504.00	501.62	493.56	497.12	512.50	502.31	465.12	467.12	451.56	480.69	485.75	486.00	487.94	493.50	501.62	431.75	369.88	321.12	300.88	292.62	284.88	280.50	277.56	274.19	274.50	269.12	269.25	271.94	275.81	282.69	283.12	284.06	283.94	289.06	291.69	294.19	296.88	300.75	306.56	309.31	309.50	310.50	315.50	318.12	317.69	319.31	313.69	306.75	303.06	303.44	307.00	314.69	318.44	319.31	317.88	317.62	304.00	311.94	320.56	318.31	337.56	351.62	330.38	346.12	347.50	358.62	375.81	386.94	379.81	348.06	342.44	357.94	352.81	387.06	404.12	400.69	390.25	400.06	400.50	407.62	404.94	412.25	393.25	401.06	425.94	425.31	426.25	429.94	444.56	449.62	455.56	471.56	480.00	484.06	485.12	494.62	500.81	530.56	555.00	561.06	570.88	583.88	596.31	583.62	584.62	591.81	598.88	611.25	626.19	627.06	630.88	638.25	651.81	659.69	670.81	666.06	649.00	621.06	624.31	613.12	597.94	575.75	536.06	432.50	365.44	351.19	347.62	349.06	346.12	344.25	340.88	329.94	323.75	317.19	311.38	308.81	308.69	309.75	312.81	312.00	311.12	309.06	309.25	309.44	302.44	297.25	293.50	298.50	297.56	293.94	293.81	293.75	296.50	296.94
283.69	371.44	519.25	558.81	550.62	537.06	624.44	694.50	758.81	567.56	487.88	560.44	633.50	655.62	732.19	806.69	816.12	823.12	568.06	681.25	804.75	681.38	683.44	603.31	533.06	504.62	484.94	462.31	445.88	462.19	457.50	471.00	462.00	449.44	440.19	424.69	373.19	342.50	319.19	301.56	291.81	314.00	330.50	337.75	326.31	295.56	259.94	259.38	264.38	249.81	250.38	243.06	226.44	223.88	225.19	227.38	228.12	227.62	227.38	229.12	237.38	247.81	266.62	284.88	289.00	286.12	284.06	282.31	280.25	276.88	276.44	272.06	266.38	254.62	242.00	231.81	234.62	249.50	264.00	273.19	270.88	279.19	285.94	307.19	331.38	344.25	354.19	359.69	367.12	376.12	383.12	391.62	405.44	422.06	439.19	449.88	467.31	489.56	498.12	511.31	523.25	530.62	529.88	526.12	521.75	515.75	518.88	524.75	495.62	458.75	458.50	448.38	459.81	476.38	488.00	485.31	490.06	436.12	352.44	311.56	302.94	294.38	287.75	281.56	280.75	277.56	278.69	267.44	270.00	270.88	275.69	281.31	285.00	284.81	284.31	287.69	291.00	293.06	295.81	299.94	304.38	308.00	309.38	310.00	314.81	319.69	319.44	320.00	318.69	311.56	306.00	305.69	307.56	313.81	319.75	320.75	320.81	317.38	314.00	308.19	323.25	324.38	326.19	347.94	346.25	338.56	357.62	356.69	366.00	382.75	400.25	380.62	348.50	341.44	359.50	377.75	395.25	413.19	407.00	399.31	407.25	419.31	410.88	415.19	402.12	409.00	417.81	427.06	434.12	450.00	448.81	454.12	458.25	469.25	493.62	496.06	494.00	498.75	497.12	516.38	543.12	553.75	569.88	574.19	568.94	568.50	581.12	594.06	598.31	609.00	611.00	623.62	637.94	638.25	638.06	645.00	649.44	649.94	633.88	603.88	605.06	582.44	548.75	496.25	452.06	390.81	352.88	342.94	342.88	341.69	336.06	335.06	332.38	321.62	318.69	313.69	310.19	308.31	308.50	308.38	311.06	312.88	310.62	309.44	306.94	305.88	302.88	295.25	292.94	297.94	293.25	290.25	291.12	291.38	293.00	293.06
238.19	306.00	473.94	590.25	566.88	524.56	598.50	639.94	751.19	525.62	508.69	626.50	697.62	715.94	733.19	829.50	898.62	823.94	577.31	819.38	811.38	711.06	684.19	612.25	541.44	510.81	498.12	468.25	443.44	440.75	449.44	470.88	466.75	452.38	427.62	407.00	358.81	353.25	341.38	315.50	301.06	308.44	329.75	338.88	334.62	311.69	265.50	257.31	260.31	253.38	251.50	244.50	234.69	228.56	235.81	249.12	250.75	243.06	237.06	234.19	230.50	232.81	257.38	275.50	282.81	280.25	276.94	275.38	272.62	275.69	278.69	274.44	266.69	246.25	230.31	234.44	250.94	264.56	276.69	284.50	286.75	290.06	296.25	319.38	341.06	355.94	369.00	375.50	382.69	391.94	399.62	409.75	424.62	444.06	460.25	472.00	484.44	503.81	516.25	528.56	540.44	549.62	545.25	541.69	540.19	532.06	521.56	530.25	517.25	476.25	452.38	443.06	433.44	445.56	477.00	464.56	443.38	410.75	331.50	312.12	304.88	296.31	289.88	282.38	282.00	280.44	279.88	271.44	270.81	270.50	276.19	280.25	284.56	285.94	287.38	287.44	290.50	291.69	294.62	298.88	302.56	306.44	307.56	309.19	313.56	318.44	319.25	320.00	321.31	316.75	311.12	307.56	309.25	311.75	318.81	321.50	323.38	321.50	320.00	313.00	318.69	326.00	328.31	338.19	354.56	338.44	358.50	355.25	366.81	376.94	409.88	409.44	373.56	344.44	353.38	383.31	375.19	398.88	421.88	409.75	410.31	430.88	417.50	414.75	426.50	412.81	424.56	424.94	431.75	458.25	460.12	453.75	458.25	469.69	486.25	510.19	497.94	503.75	506.06	499.25	525.31	545.31	560.25	554.69	554.56	555.62	574.31	598.50	609.44	608.50	611.31	617.75	613.69	614.31	619.06	619.62	618.62	625.69	595.50	589.88	580.31	557.44	508.38	424.62	407.19	371.56	348.62	339.00	339.00	337.25	330.12	326.25	324.31	317.00	316.69	312.06	306.06	306.12	308.19	306.88	309.25	313.31	310.56	307.50	305.12	302.50	299.56	293.25	294.25	298.81	289.56	288.75	289.38	289.38	289.44	290.00
218.31	265.31	393.94	539.56	600.25	504.44	518.25	630.25	659.62	504.31	514.81	568.12	632.69	731.38	837.88	929.75	959.62	899.56	600.69	951.44	789.06	691.88	749.19	621.56	549.88	518.06	499.44	470.81	445.06	433.25	446.69	470.19	476.75	454.38	413.06	378.25	375.12	380.00	375.56	340.12	322.06	314.44	330.69	340.94	341.44	320.50	277.12	258.06	258.50	261.25	256.44	247.50	239.00	231.81	233.31	257.19	268.25	267.75	263.56	260.81	252.06	233.06	230.06	246.50	266.94	272.56	267.19	252.00	249.81	262.25	272.88	267.94	258.12	234.38	229.25	251.12	265.19	275.25	285.38	290.88	304.31	308.44	317.75	333.06	356.12	364.25	380.81	393.38	401.69	413.81	425.94	437.44	449.69	461.56	475.00	493.06	506.62	518.75	529.50	541.69	554.94	564.19	557.81	559.56	549.00	548.25	529.19	522.56	519.44	495.69	460.00	430.69	425.75	420.81	427.44	436.19	409.19	363.12	322.88	314.19	308.50	299.44	291.50	285.88	282.94	280.56	279.50	279.06	270.94	271.56	274.69	282.12	282.19	285.25	288.69	289.25	290.00	291.06	292.88	297.19	300.94	305.69	306.94	310.56	313.94	316.25	318.06	320.00	321.62	320.81	317.25	310.88	310.69	311.31	317.38	323.06	325.50	326.75	324.12	322.69	314.44	325.50	334.38	338.19	351.38	358.19	360.38	360.00	361.06	371.12	397.00	426.38	410.44	363.06	350.25	379.50	390.25	376.44	400.12	430.44	421.88	431.12	433.56	418.38	421.88	434.31	434.75	436.62	434.19	450.69	468.00	460.06	458.12	472.31	488.19	497.94	508.62	506.75	506.19	505.31	508.81	516.38	536.12	564.25	563.44	562.00	555.00	590.06	591.69	589.38	589.56	599.56	590.75	586.44	598.00	601.75	602.69	597.12	578.62	559.38	542.00	512.31	432.69	371.00	366.38	346.12	335.62	333.75	332.94	329.81	324.12	319.06	316.81	311.75	310.12	308.50	305.62	302.06	303.25	304.69	306.31	308.69	307.12	302.44	302.25	300.25	298.44	293.50	293.94	291.75	289.69	288.50	285.75	286.00	289.38	289.88
225.50	252.69	357.25	436.94	551.44	546.88	483.75	579.56	695.38	466.44	549.88	595.81	686.25	824.50	911.75	951.12	971.75	906.81	598.44	921.88	770.75	675.75	665.62	623.31	557.31	522.88	505.44	478.88	455.31	440.94	432.50	442.50	464.62	455.81	397.12	388.94	408.25	400.88	390.56	354.31	330.38	323.75	326.12	339.50	344.00	331.38	291.56	262.94	259.25	266.12	267.75	257.88	253.62	246.44	234.69	249.19	268.31	275.19	275.56	276.88	270.12	257.62	236.00	228.31	241.56	246.06	239.12	236.62	239.12	258.12	266.56	260.69	255.19	234.75	235.88	259.75	281.19	280.75	284.38	294.50	314.62	327.25	333.25	342.31	357.81	369.00	387.00	402.69	417.06	430.38	442.94	454.50	468.69	480.00	489.94	502.75	518.75	531.62	543.75	549.50	557.12	568.56	559.06	560.75	548.19	549.38	542.44	522.88	512.69	500.69	469.81	439.69	415.25	402.81	420.44	415.19	393.12	342.12	318.94	313.50	308.62	301.00	292.81	287.31	283.50	280.56	279.06	280.94	276.25	273.31	273.44	280.00	280.69	285.00	288.50	289.81	289.56	292.00	292.44	295.94	300.38	304.38	306.69	310.56	313.31	314.81	317.12	320.00	321.69	322.12	320.31	315.62	312.25	313.06	316.75	322.75	327.62	329.56	328.62	329.00	324.19	322.19	330.88	342.56	350.06	363.25	363.50	366.19	364.75	367.44	371.44	419.88	426.00	400.50	357.62	360.88	397.06	406.50	376.50	412.75	444.25	442.62	441.56	402.94	420.62	428.88	440.62	440.62	443.81	449.56	469.75	467.88	460.50	471.00	491.81	492.88	507.44	511.25	494.12	501.38	510.75	513.31	538.31	559.06	558.38	559.06	554.88	565.44	578.00	575.06	578.38	591.31	587.56	588.00	606.00	606.56	596.81	580.06	568.56	535.50	506.94	445.00	379.19	358.69	354.50	339.00	325.25	328.38	328.06	325.44	319.00	315.31	314.94	309.69	308.62	308.00	305.31	298.94	299.94	301.50	302.88	304.81	304.25	300.44	298.44	298.25	298.19	295.69	289.62	288.75	287.50	285.62	284.25	284.25	288.12	287.81
220.38	241.75	294.25	345.88	451.50	585.88	516.75	463.00	510.75	448.75	556.50	607.75	737.62	835.00	843.25	914.25	919.62	837.50	594.88	878.38	770.62	736.75	727.00	645.25	564.00	527.62	514.00	495.12	479.75	477.50	455.62	446.50	426.88	417.00	400.12	417.38	439.38	428.50	411.75	386.88	353.12	338.12	328.62	342.12	344.88	342.88	325.25	294.12	270.12	271.38	280.50	268.62	263.12	262.88	259.25	239.25	248.50	271.50	277.75	276.62	273.62	273.88	268.38	240.25	227.50	228.50	228.00	232.62	233.38	252.50	265.12	263.12	256.25	232.25	251.75	273.38	283.50	287.88	293.12	300.62	316.50	330.50	337.00	349.50	365.38	375.38	391.25	411.75	431.00	445.75	458.50	469.75	487.25	500.12	514.62	520.50	528.38	536.88	544.00	551.88	553.12	557.25	558.75	555.12	542.12	537.50	530.00	520.00	515.00	488.88	466.88	444.12	416.38	383.00	386.75	362.00	338.12	325.50	315.12	310.50	309.88	301.88	294.50	287.25	282.88	279.62	279.25	282.50	278.88	274.25	276.75	276.88	278.38	282.50	287.00	290.12	291.12	294.12	292.38	295.00	300.62	303.00	305.62	309.00	312.50	316.00	317.62	319.50	321.38	323.12	322.75	320.75	316.62	315.50	319.50	321.62	329.25	329.50	330.75	333.00	331.12	328.75	328.88	339.62	351.75	366.00	368.62	365.38	374.62	368.88	367.62	369.50	402.12	408.62	400.00	355.12	363.50	430.88	397.25	375.00	414.00	457.00	457.25	413.25	410.50	419.75	442.62	447.38	448.75	459.25	468.38	482.38	469.25	465.75	486.12	494.25	499.38	496.75	485.38	494.12	511.75	520.88	523.88	532.12	536.00	540.38	545.38	554.50	559.88	571.75	574.62	573.75	584.88	569.50	569.12	545.75	534.25	519.88	516.00	501.88	449.88	381.50	360.25	349.25	338.12	325.38	317.88	320.62	319.25	319.50	316.50	310.88	312.50	309.25	307.25	307.75	304.88	298.25	298.12	298.38	299.25	298.88	300.12	297.88	295.12	297.50	293.00	284.88	288.25	288.75	286.25	282.88	282.62	283.50	286.38	283.00
207.81	231.25	260.00	323.75	393.12	571.31	561.12	535.38	523.81	443.81	463.56	584.38	673.62	780.69	892.81	964.06	959.31	853.81	591.94	954.19	775.00	720.81	719.38	651.31	573.19	538.38	517.56	507.88	505.19	509.00	498.44	500.62	464.81	417.69	446.62	457.75	457.88	450.06	442.25	424.81	389.81	356.06	342.06	352.12	366.12	355.44	336.62	316.81	291.81	270.69	276.12	277.62	278.62	283.81	272.75	262.38	244.81	247.75	259.19	268.94	277.88	276.94	278.88	262.50	233.56	228.12	232.38	232.12	236.50	244.50	250.81	249.75	249.00	234.06	258.69	277.75	286.38	291.75	300.56	308.50	319.00	338.62	343.19	355.88	369.75	383.81	401.56	420.38	434.56	452.94	474.75	486.94	500.12	517.44	525.56	531.38	535.56	541.69	546.06	545.31	544.25	538.62	539.38	537.50	538.62	531.25	522.94	506.31	498.81	486.06	454.06	431.56	420.06	389.25	351.38	338.00	331.69	323.06	313.81	309.81	309.00	301.19	294.25	286.69	282.38	281.00	280.69	283.75	280.81	274.94	278.19	276.31	277.75	281.19	285.50	288.50	291.38	292.50	294.81	294.25	299.31	301.56	304.31	307.69	312.19	316.06	319.25	319.50	320.88	322.88	323.69	322.19	319.69	317.81	319.88	321.75	327.56	332.56	332.44	336.50	333.88	333.31	330.94	341.06	347.06	361.88	373.38	373.56	377.62	370.31	381.75	376.75	360.88	367.88	402.31	391.06	360.25	394.69	432.44	393.44	373.50	402.12	447.00	434.56	388.44	423.50	422.81	451.44	457.75	471.38	475.94	487.56	481.94	472.12	480.25	488.25	495.25	481.25	473.25	484.88	497.88	516.81	521.69	537.94	542.69	539.31	538.62	545.25	552.31	558.44	552.50	533.38	525.81	502.81	478.12	464.06	443.00	442.44	438.81	433.25	394.44	364.56	348.12	338.19	330.12	321.12	313.81	312.94	312.75	310.88	310.75	308.38	310.25	309.62	307.88	307.69	305.50	298.25	295.81	297.75	298.38	295.50	296.38	295.19	293.44	297.56	292.25	284.69	287.69	283.75	282.25	281.38	281.38	282.50	281.31	279.69
192.75	221.12	253.06	309.06	379.50	486.00	600.62	621.44	701.19	489.81	454.44	649.19	725.44	767.19	884.69	946.94	913.94	836.94	586.38	935.12	805.31	768.00	753.00	658.75	582.38	550.75	525.06	524.12	531.56	536.00	535.19	528.75	489.00	436.81	471.38	494.06	474.56	467.12	466.19	456.62	426.62	380.38	349.25	359.50	376.75	371.81	342.75	325.25	313.75	288.38	270.81	276.31	287.94	290.12	283.75	282.19	267.81	270.75	262.50	255.31	264.88	277.00	278.00	271.00	256.19	240.94	245.81	238.25	235.94	239.31	242.88	243.06	241.00	238.25	255.12	272.75	287.06	294.88	304.75	313.38	323.88	341.12	347.62	358.44	374.12	390.00	408.31	424.88	437.56	454.12	478.94	499.44	508.50	523.12	531.75	536.50	538.50	543.62	545.50	537.44	536.62	533.38	535.69	533.12	536.25	531.81	522.19	498.25	483.19	469.56	442.81	414.88	408.75	365.31	337.06	331.31	326.25	319.06	313.06	309.31	307.06	300.31	293.88	286.25	281.88	280.44	279.25	280.75	279.38	277.50	275.44	276.31	278.44	280.88	284.75	288.00	290.75	292.44	297.44	294.12	298.44	300.62	303.00	306.88	311.31	315.12	318.56	319.75	320.56	322.31	323.94	323.75	321.94	320.50	320.62	322.38	325.75	333.00	337.44	337.31	337.56	336.56	335.50	337.38	348.50	356.25	369.06	376.94	383.44	382.62	370.25	398.25	375.31	355.25	362.62	405.56	383.31	367.31	406.31	420.12	384.19	372.00	391.56	419.06	382.62	415.94	420.19	435.69	469.19	482.25	486.69	485.94	490.38	477.25	478.06	483.62	486.94	479.00	469.44	465.38	489.94	516.31	521.38	534.56	532.31	529.88	531.56	534.56	545.75	536.94	503.31	478.06	462.25	453.19	443.25	426.31	406.38	389.31	382.38	378.56	368.06	356.00	341.75	332.62	325.44	318.50	311.38	308.56	308.81	308.88	307.25	306.44	308.56	308.25	305.69	307.81	306.12	297.56	293.94	295.38	296.00	293.38	293.88	296.50	292.69	294.19	289.38	287.12	283.56	280.56	280.56	280.31	280.00	279.94	280.06	278.81
206.31	221.75	248.50	275.62	322.62	437.31	558.19	521.25	656.81	472.19	446.44	607.88	736.19	725.94	791.94	824.69	842.56	787.62	579.88	899.88	812.62	765.81	776.50	665.56	599.94	562.69	537.50	534.69	556.75	560.19	557.56	530.88	464.06	448.81	494.31	514.88	495.56	479.88	487.00	478.19	458.44	417.62	371.12	363.56	377.75	372.69	360.00	333.31	327.81	316.25	286.69	273.12	280.12	287.12	287.62	292.31	290.69	293.19	298.31	287.75	261.94	265.56	280.12	277.00	270.44	266.00	260.19	253.25	233.62	235.50	236.50	234.12	234.69	252.12	273.12	284.69	293.50	303.00	311.06	322.19	332.81	345.69	348.50	355.69	373.25	389.12	410.25	430.19	447.62	459.31	478.31	504.81	518.88	524.31	536.19	542.44	541.12	539.75	538.62	536.06	533.62	533.81	538.88	532.81	537.81	531.38	520.31	494.44	473.81	448.19	434.75	405.31	377.50	348.38	330.81	326.38	322.31	316.06	311.44	307.94	305.19	300.38	293.06	283.56	278.31	277.44	275.06	275.44	274.81	275.94	272.50	276.50	279.56	281.25	285.38	288.12	289.62	291.69	296.94	296.62	297.06	299.25	301.56	305.88	309.94	313.88	317.19	318.19	319.56	321.56	323.94	324.75	324.12	323.75	322.75	322.69	325.25	330.81	338.62	340.69	340.44	341.38	339.31	337.88	347.00	352.19	369.56	355.38	376.31	393.75	364.56	382.06	398.12	363.69	355.81	369.56	409.06	375.69	355.69	398.38	424.00	373.56	372.00	378.81	393.44	389.94	428.69	423.00	458.69	488.50	485.50	483.25	492.19	483.88	478.75	484.69	478.56	477.50	475.06	452.69	460.19	505.94	509.69	513.75	522.00	523.06	490.12	479.38	490.38	484.62	447.94	436.25	433.50	427.94	417.75	401.94	382.75	368.25	362.81	359.19	355.56	346.19	337.94	328.19	323.75	316.88	310.75	306.00	305.75	306.81	305.69	304.25	307.75	306.44	303.38	305.00	303.12	296.38	291.19	290.38	290.44	289.75	294.62	298.06	291.06	292.19	287.38	285.56	282.31	283.75	283.62	281.81	277.81	279.12	280.56	279.44
215.88	224.50	239.62	256.06	293.00	397.69	448.38	365.56	392.00	402.19	507.25	662.62	799.88	674.81	789.69	891.12	872.12	736.44	598.62	895.62	877.44	755.25	762.75	667.75	598.00	566.75	550.31	550.75	560.50	574.31	572.56	542.06	467.75	443.62	506.31	538.12	526.75	495.19	499.06	502.19	473.94	452.75	400.81	366.38	370.69	374.06	368.44	340.56	338.19	332.31	310.62	280.12	274.69	296.69	307.25	304.62	306.44	301.19	302.00	298.44	289.31	266.19	275.50	272.31	268.25	270.50	265.12	260.75	241.44	229.62	234.50	234.38	244.75	253.56	276.56	291.69	302.12	310.88	322.62	337.56	342.88	357.38	361.75	368.06	376.75	385.81	405.81	423.81	446.75	471.06	487.75	503.50	520.75	531.69	538.38	545.69	547.62	538.19	536.12	535.00	529.62	530.88	533.50	523.56	522.12	510.25	498.81	477.50	458.88	435.75	414.12	382.44	355.12	336.00	327.31	322.44	318.44	313.12	309.50	304.94	302.94	299.81	292.12	280.69	278.19	278.50	281.69	280.19	280.44	280.06	274.75	278.25	279.38	281.62	284.69	287.56	288.62	290.50	293.44	298.81	295.94	297.44	300.12	304.19	308.06	312.12	315.06	316.06	318.00	320.81	322.81	325.19	327.31	328.25	329.06	325.56	326.25	329.56	335.56	343.25	344.19	345.88	345.69	343.38	344.44	358.56	360.88	374.31	350.62	365.88	377.19	357.62	385.56	376.19	363.38	361.19	365.81	406.81	380.12	351.00	390.25	425.75	385.19	384.06	384.06	384.75	417.62	425.56	428.56	456.38	474.00	475.38	485.38	490.81	476.81	487.75	487.62	472.69	479.00	480.69	449.56	457.94	489.31	483.88	493.62	472.56	447.06	434.06	424.81	424.50	416.75	409.88	406.75	396.81	381.25	373.25	367.75	359.38	352.81	348.56	344.94	339.75	329.75	324.44	322.62	317.94	312.75	308.56	303.44	304.25	303.75	302.69	304.19	303.25	301.56	300.19	299.69	295.38	291.12	288.44	288.44	287.75	290.94	291.75	287.81	284.62	284.25	286.19	281.75	286.38	285.00	281.44	280.00	279.31	277.06	276.88
217.56	228.75	239.81	249.75	268.50	359.62	423.38	363.38	472.31	540.31	605.62	703.19	832.50	653.38	774.56	781.00	720.62	609.94	576.25	777.88	813.50	772.38	707.62	644.00	592.56	573.00	560.88	561.50	560.50	571.19	574.25	546.38	465.19	438.56	519.88	547.50	539.81	509.56	489.25	507.19	488.25	459.75	423.44	367.44	367.12	378.50	362.44	348.06	366.12	354.00	327.44	296.00	280.50	302.81	323.12	329.75	325.50	306.19	302.06	301.69	296.19	275.88	260.31	258.50	259.94	266.25	264.88	262.75	244.94	235.75	236.00	243.31	258.50	266.06	269.00	286.44	305.00	315.69	334.56	344.88	348.31	363.25	372.44	383.75	387.69	398.25	414.69	436.00	450.75	475.75	499.75	522.06	532.56	539.12	542.00	543.06	541.44	534.81	538.12	531.88	527.94	526.38	525.19	517.00	506.19	494.88	480.62	460.56	442.94	417.81	390.38	368.06	347.19	329.75	323.12	319.38	314.25	311.25	306.19	302.69	301.06	299.31	287.19	281.44	277.50	278.94	281.75	282.62	281.19	280.00	277.19	278.94	279.94	281.06	283.56	285.38	288.06	290.50	293.69	296.25	297.62	296.50	299.12	302.62	306.69	311.31	313.06	314.69	316.75	320.12	322.44	324.50	328.38	329.62	330.44	330.19	329.62	329.81	335.44	342.25	349.31	347.38	348.75	347.56	346.44	362.94	363.81	372.81	378.12	345.88	355.38	354.00	367.62	399.31	374.19	377.12	363.38	372.00	413.62	382.94	350.69	396.88	420.44	411.94	399.25	391.75	399.38	421.00	418.56	418.94	445.25	466.44	478.75	489.81	480.62	477.81	493.12	479.38	473.12	486.12	473.31	448.25	456.44	443.00	452.31	435.38	423.12	410.25	404.88	402.69	399.25	393.62	390.88	386.06	372.00	360.31	359.38	350.50	344.38	339.75	338.44	337.94	327.25	323.12	322.50	320.25	317.12	314.19	304.19	302.00	302.12	301.62	300.12	300.19	299.50	296.56	297.62	294.88	289.81	285.88	285.19	285.44	286.94	286.12	282.56	282.38	285.88	284.94	280.31	280.81	280.31	284.19	277.44	276.88	274.50	273.50
215.31	227.94	241.62	251.25	262.50	303.25	357.38	348.56	534.50	637.25	714.50	755.75	804.38	622.69	775.69	833.31	660.69	527.56	555.25	842.25	754.69	806.00	773.62	646.56	586.56	575.00	559.25	557.44	561.94	570.50	569.69	541.44	460.88	435.44	516.69	546.94	538.56	513.00	481.81	502.06	505.50	460.31	433.06	374.56	354.38	362.19	349.94	355.06	377.94	364.31	345.75	313.94	285.75	298.56	327.38	340.75	339.12	316.44	306.19	306.69	296.75	282.94	275.12	274.19	256.81	259.00	261.25	259.44	247.75	246.31	239.00	248.38	265.00	278.19	270.94	282.25	301.81	318.06	335.62	344.25	354.00	364.31	381.50	398.00	403.50	413.62	431.31	450.06	464.31	481.88	499.38	526.81	538.31	539.75	548.06	543.19	536.88	528.81	531.25	527.69	524.12	520.25	515.12	505.12	493.50	484.31	476.38	448.19	430.38	405.31	377.75	360.31	343.62	328.06	320.00	316.94	312.00	308.94	304.94	301.44	300.12	294.94	286.44	289.38	283.56	281.38	282.50	282.94	281.00	278.81	280.06	279.19	281.06	281.44	283.50	284.62	288.19	290.38	294.44	295.31	299.19	296.50	298.56	301.44	305.38	309.62	311.38	313.88	315.88	319.31	321.69	324.62	325.44	329.81	331.56	331.88	331.38	331.12	336.00	342.31	350.38	353.69	351.94	356.19	350.19	362.94	368.06	368.62	384.00	375.38	341.19	346.62	354.12	397.06	393.38	383.19	378.69	362.81	398.38	415.88	380.38	352.50	398.88	426.44	411.94	398.31	376.81	405.75	413.00	408.12	408.44	449.88	468.31	487.31	489.25	476.56	485.94	492.12	473.56	473.94	477.38	446.12	439.38	421.56	422.50	414.94	403.94	395.94	390.38	388.31	388.31	385.44	381.25	375.81	370.44	359.06	354.00	347.62	339.12	333.94	334.19	335.00	329.38	325.50	322.75	321.62	319.31	317.19	304.56	300.19	300.50	300.62	297.62	298.62	297.69	295.12	293.81	290.69	287.25	283.88	281.38	283.88	282.50	283.56	280.62	279.94	282.06	282.06	279.88	280.00	280.12	279.56	276.44	273.62	273.06	273.25
208.44	222.75	240.56	250.69	259.38	273.19	327.44	368.75	514.44	647.44	751.19	689.12	589.00	645.12	813.06	887.12	766.31	554.75	536.94	787.44	697.56	820.19	806.06	626.25	556.44	547.50	557.50	558.88	572.00	576.62	563.25	525.06	452.44	428.25	467.44	507.00	526.56	503.19	474.12	488.69	500.62	469.25	426.69	369.00	343.19	343.00	343.00	348.75	371.38	377.06	368.06	347.06	324.94	289.19	305.44	342.25	335.19	317.19	305.00	300.50	293.81	291.19	287.44	282.69	267.31	250.25	257.44	257.62	258.81	254.69	243.56	254.81	266.19	278.00	285.94	289.31	297.81	312.88	336.00	352.81	359.06	373.69	389.62	411.31	422.38	433.88	439.62	449.44	471.44	479.88	500.50	520.44	534.25	538.00	542.31	536.25	524.94	511.19	512.06	514.69	509.25	495.19	493.25	488.94	476.25	463.50	453.25	432.31	407.38	386.25	364.62	352.12	336.69	324.62	317.12	313.88	310.00	306.00	303.25	304.81	302.75	292.06	288.31	291.31	289.69	284.88	283.94	282.81	280.38	278.75	279.00	280.62	281.44	283.06	283.19	285.06	288.06	291.00	293.88	294.69	297.75	297.25	297.75	299.94	302.81	307.19	309.69	312.31	314.25	317.81	320.50	322.94	324.62	328.56	331.75	334.31	335.88	334.88	338.38	343.12	349.25	358.00	359.31	360.94	354.56	367.81	370.81	372.31	370.12	384.00	361.50	345.44	350.56	365.69	403.62	400.12	374.25	388.19	367.81	393.31	410.38	373.62	351.50	390.12	441.06	412.31	384.44	375.44	409.19	398.69	394.69	401.69	442.50	462.81	486.12	484.06	477.81	488.25	478.94	462.00	461.88	435.31	410.81	408.00	402.88	396.19	388.19	381.38	379.00	377.50	379.06	379.00	372.62	369.56	366.00	361.75	352.31	341.94	337.25	329.31	328.88	331.38	331.06	330.56	325.12	319.50	318.62	317.56	303.44	296.69	297.81	297.88	293.38	294.06	295.56	293.25	289.62	283.94	280.81	279.88	278.75	278.25	279.88	279.62	280.06	278.56	277.69	279.12	279.38	277.88	274.62	274.88	277.25	277.19	276.69	275.19
212.19	224.12	235.94	245.31	241.31	259.19	341.44	357.69	509.12	558.56	690.25	648.31	586.88	749.50	785.69	773.62	657.00	488.75	524.62	623.50	757.31	826.56	751.44	622.62	544.69	504.94	536.75	551.44	566.50	573.81	564.38	539.31	479.12	430.19	409.88	443.25	494.69	480.62	458.94	460.25	473.69	456.75	405.94	359.88	349.00	347.69	343.06	343.06	350.12	391.12	390.81	368.25	350.75	305.56	302.75	325.12	320.19	312.62	307.12	296.62	295.06	296.81	292.81	290.56	282.50	256.75	251.69	247.38	255.50	246.50	244.94	257.38	263.25	273.44	284.06	296.50	301.25	313.00	335.31	358.00	369.69	387.25	402.88	415.00	432.19	450.25	456.62	456.81	474.94	493.06	499.25	506.25	516.62	526.06	527.00	521.19	516.19	502.50	496.44	497.62	491.00	476.50	474.88	470.75	465.81	453.81	439.12	415.38	389.31	372.81	357.44	345.25	331.56	321.12	314.50	311.38	308.19	303.88	300.94	301.38	301.50	296.31	287.38	292.06	290.44	287.06	284.69	282.31	279.19	279.69	279.88	281.94	283.06	284.56	284.69	285.75	287.81	290.38	292.75	295.06	296.06	298.69	297.06	299.25	302.00	304.44	308.25	310.81	312.94	316.19	319.62	321.62	325.38	328.88	331.88	335.56	338.38	338.31	339.56	343.75	348.88	355.50	360.06	364.06	356.94	365.50	371.19	378.00	378.31	366.81	365.31	355.19	347.31	353.00	368.31	406.62	377.38	378.62	386.25	369.81	391.25	411.06	369.69	346.31	409.75	432.31	399.31	362.75	389.06	405.38	394.38	381.75	409.19	429.19	459.44	480.50	477.19	470.31	475.06	444.94	451.50	421.50	397.19	396.38	388.75	382.19	376.44	374.44	372.00	371.31	372.19	371.75	367.31	363.44	361.56	360.06	354.31	339.25	333.50	327.19	325.38	327.38	328.38	325.62	325.19	318.38	314.06	311.56	307.06	294.69	294.50	292.56	291.00	291.38	293.06	289.44	284.50	279.94	277.62	278.81	278.62	276.88	278.25	278.19	278.69	278.00	276.12	277.06	275.69	272.44	271.62	274.94	279.69	279.69	275.94	271.88
203.88	221.00	228.31	235.31	232.06	227.12	385.31	388.50	453.00	512.81	680.19	554.50	551.62	681.25	685.12	689.69	524.50	668.94	589.06	678.69	780.62	779.75	686.19	584.75	542.06	480.12	477.62	499.94	547.12	555.12	546.69	542.94	527.12	484.31	414.31	390.62	432.56	419.56	436.62	431.81	436.88	419.12	370.44	362.50	384.19	409.62	378.69	354.81	344.31	363.62	370.81	374.88	368.12	342.75	318.38	324.50	347.19	338.81	334.44	324.94	317.00	310.19	304.12	295.19	291.56	279.12	266.69	250.50	253.94	256.38	255.19	266.06	269.94	275.25	290.06	299.62	310.25	317.56	331.44	354.81	377.50	401.75	413.56	426.38	440.25	454.38	467.31	469.94	484.69	509.56	503.88	503.81	506.81	507.88	510.25	513.12	510.19	501.56	486.94	483.62	477.25	460.38	453.38	445.56	441.06	434.56	416.75	393.12	373.56	361.00	348.25	337.44	326.44	317.44	311.19	307.25	303.88	301.38	300.62	300.00	298.88	294.88	288.38	291.25	289.56	286.75	283.94	281.00	279.50	280.00	281.81	284.12	284.50	287.00	287.31	286.50	289.19	290.00	291.75	293.81	295.88	298.38	297.88	298.38	299.94	302.06	305.75	308.88	311.75	313.56	317.56	321.75	324.94	328.00	331.31	335.00	339.06	339.88	339.94	342.94	347.81	352.25	357.62	362.69	367.44	356.94	371.00	377.00	386.62	390.44	371.00	355.38	355.38	344.88	350.50	363.31	403.44	359.19	377.75	393.19	373.38	379.88	393.00	359.44	345.50	379.25	402.38	377.19	360.00	393.56	390.69	379.44	373.19	394.94	399.31	434.50	457.25	450.06	439.88	432.00	412.25	416.12	386.62	381.12	378.31	373.38	370.25	367.31	362.81	361.12	361.75	362.25	358.94	355.81	354.19	354.44	351.62	338.38	330.88	325.25	321.25	322.69	321.00	319.69	317.75	312.75	308.75	304.69	297.50	290.25	292.69	291.94	289.69	287.81	286.94	284.12	280.12	278.12	275.62	276.06	277.38	276.31	277.56	276.94	277.00	276.50	274.56	272.25	274.19	278.12	276.88	275.50	276.50	276.00	272.00	269.06
202.00	211.44	220.75	226.56	228.44	212.81	323.94	403.12	436.69	515.94	571.31	506.00	524.81	606.94	562.50	512.25	693.81	895.88	698.06	827.00	810.31	769.50	685.00	563.94	526.12	491.44	426.62	448.06	501.06	502.12	476.75	496.19	499.44	497.69	428.94	370.38	380.81	400.19	422.12	424.94	395.69	380.75	366.38	377.44	389.12	401.25	415.50	374.50	355.25	348.56	347.81	371.31	361.94	365.31	364.25	325.00	350.69	367.88	367.69	344.94	334.12	328.81	323.06	310.81	295.56	288.62	270.56	255.06	256.69	263.75	251.94	269.88	274.25	278.81	289.62	305.25	313.69	323.06	337.19	356.06	378.19	410.50	419.94	432.12	453.44	459.44	473.56	481.31	490.62	507.50	512.75	516.62	514.50	503.00	498.75	502.19	504.38	503.31	486.12	469.69	460.69	449.25	437.00	431.69	417.50	409.81	393.50	375.50	362.88	351.44	340.25	330.12	320.81	314.94	308.94	304.50	301.50	299.69	299.12	298.56	294.62	290.44	289.00	290.19	289.44	286.25	282.25	281.06	279.75	284.12	284.81	286.12	286.06	288.06	289.31	288.19	289.81	290.44	291.00	293.88	296.50	297.50	299.00	298.12	299.44	301.69	304.56	307.31	310.38	313.62	317.12	321.06	324.00	327.25	330.88	334.75	338.25	339.75	340.56	342.44	347.44	351.25	355.56	361.12	366.12	359.44	362.94	376.25	385.12	397.12	394.31	367.69	356.12	353.88	352.31	340.50	375.62	387.44	353.06	381.31	371.44	367.94	374.19	376.19	346.00	346.81	369.00	377.81	356.81	370.75	380.12	377.69	367.31	375.50	372.38	384.75	409.50	418.69	401.50	408.56	389.50	389.38	381.62	373.31	371.06	368.56	367.50	363.12	359.69	355.81	354.75	356.62	355.69	352.69	347.06	346.62	345.50	334.81	327.06	324.19	318.06	317.81	317.00	311.00	307.19	307.00	302.25	297.00	292.00	288.31	290.62	291.38	287.12	284.44	282.19	280.69	279.44	276.62	274.19	274.06	274.62	274.81	275.06	278.06	275.69	276.94	274.25	274.31	277.50	277.12	271.38	272.19	272.69	271.12	269.94	269.44
182.75	198.19	216.12	219.94	218.00	212.00	321.56	360.06	333.00	363.75	414.06	440.50	469.75	490.75	491.38	556.25	722.62	830.44	580.75	863.19	850.75	743.00	693.69	548.25	510.00	501.00	412.75	413.00	452.75	437.31	389.38	404.25	434.50	456.69	388.88	358.12	364.12	379.31	389.75	389.75	374.50	375.56	391.50	413.56	425.62	411.62	406.69	388.31	387.94	373.31	360.62	356.69	363.00	369.00	393.06	377.81	328.62	355.56	378.12	357.12	340.00	344.62	338.12	326.81	303.00	295.38	277.31	262.00	250.69	263.50	257.06	273.88	280.25	287.88	295.62	301.12	313.88	325.88	342.44	361.56	384.12	410.06	428.62	451.25	460.38	470.56	480.81	485.19	497.69	510.31	516.00	528.06	525.69	515.19	502.31	492.12	489.25	496.19	483.81	459.00	445.38	435.00	430.19	420.62	402.56	387.38	373.19	360.31	351.00	343.31	333.19	324.12	316.44	311.88	306.69	302.19	300.56	297.94	294.56	296.19	294.12	288.69	288.31	289.69	289.19	285.12	281.88	282.19	282.62	290.12	288.06	288.25	288.25	289.31	291.25	290.12	290.00	291.19	290.75	293.44	297.31	297.50	298.75	299.12	299.56	300.62	303.19	306.06	309.88	313.75	316.50	320.12	323.19	327.00	331.06	334.31	336.88	339.31	341.38	343.06	347.25	350.06	356.44	359.69	363.19	369.94	354.00	367.69	379.12	396.19	407.44	390.94	364.62	359.50	348.44	354.69	335.25	365.38	353.75	362.19	368.00	362.44	367.25	360.75	349.44	346.88	350.62	353.38	361.94	355.06	367.00	367.50	369.38	367.50	371.25	363.12	375.50	380.31	379.06	382.62	377.81	368.81	371.94	368.81	366.12	365.00	364.38	360.62	358.50	354.12	350.38	351.06	352.31	351.56	345.00	340.38	335.94	327.00	322.06	320.31	316.00	312.31	312.75	306.81	302.75	303.25	300.81	294.94	288.06	287.00	287.31	286.81	282.88	279.38	276.94	278.12	279.19	278.25	274.25	274.00	274.00	274.00	274.62	277.69	275.62	273.00	275.06	276.50	275.50	274.88	271.62	270.81	271.25	268.50	268.25	267.69
156.12	201.12	216.94	215.38	193.44	221.56	278.19	301.31	323.50	410.00	476.75	515.25	571.19	613.50	626.75	708.00	747.44	635.00	497.06	794.56	794.50	727.25	651.62	535.62	446.31	417.19	371.31	369.31	391.19	365.00	348.69	348.19	364.69	386.94	344.00	351.75	346.62	351.94	356.88	361.25	365.50	383.62	412.94	451.88	467.31	455.25	434.25	423.81	430.19	405.88	382.56	368.25	363.56	375.75	403.56	415.31	389.81	337.50	345.81	356.88	343.38	342.56	340.31	336.25	315.75	305.31	286.81	269.50	246.75	254.75	264.31	280.12	286.81	289.62	294.06	302.56	316.12	329.38	344.62	363.38	383.50	407.75	435.62	451.69	459.75	478.25	495.38	510.31	514.06	521.25	521.25	532.81	537.56	534.25	520.81	503.81	491.38	478.00	469.25	448.25	427.31	419.44	422.19	412.25	389.12	373.12	359.56	350.75	341.75	334.75	327.00	321.00	312.19	308.69	304.12	299.88	299.38	293.25	292.75	293.62	294.81	287.06	290.56	290.12	289.25	284.62	282.19	281.00	286.50	291.12	290.56	290.25	290.62	291.25	293.44	291.38	290.75	291.31	291.12	293.31	297.25	299.31	298.44	299.88	300.25	300.38	302.38	305.38	309.69	314.94	318.56	319.25	322.50	326.75	330.56	333.62	335.75	339.62	341.12	344.81	347.56	349.81	356.50	360.25	362.75	367.50	363.06	359.50	369.75	387.00	407.75	411.12	387.69	366.38	360.31	346.25	363.75	333.19	337.44	347.88	360.62	354.44	363.12	362.31	350.00	347.00	351.69	348.94	361.19	355.19	358.50	361.75	361.69	357.88	370.75	360.25	362.50	361.31	364.56	360.88	363.75	357.19	361.62	363.38	361.69	360.88	361.19	359.75	356.25	353.06	348.12	347.62	348.19	349.00	342.31	337.00	329.31	321.44	317.44	314.19	310.88	309.50	309.06	305.75	303.56	299.44	298.62	294.62	286.94	284.88	285.38	282.62	280.75	278.44	275.88	276.12	276.25	276.19	274.31	274.12	274.12	274.50	274.12	275.12	274.25	272.12	272.31	275.88	275.19	272.25	269.88	267.50	271.38	268.44	266.44	267.75
128.88	188.88	193.69	183.56	179.44	220.56	260.38	268.88	384.19	440.69	480.62	447.88	496.38	564.69	678.50	729.88	758.44	576.69	500.38	598.94	676.44	662.81	612.25	490.38	446.81	399.94	327.88	316.88	321.88	319.81	323.69	323.69	320.94	316.81	310.75	326.31	325.88	336.38	356.00	381.62	402.06	422.50	433.81	446.38	472.19	481.31	482.56	471.44	468.38	450.62	427.38	406.75	393.50	387.56	393.75	413.69	438.75	415.81	345.94	320.38	324.38	320.06	309.00	303.50	304.81	298.06	280.00	264.44	245.44	266.06	261.81	266.12	275.19	296.00	302.31	304.38	314.81	329.44	340.44	362.00	386.81	412.19	434.81	450.19	469.94	483.44	505.31	518.88	525.12	525.56	531.00	547.44	555.06	551.75	538.44	510.56	489.31	461.06	440.88	435.62	422.12	402.81	398.12	394.69	376.00	354.94	345.31	338.06	332.38	326.25	318.56	313.62	305.81	304.12	301.69	295.44	292.00	290.62	289.19	290.94	290.44	286.38	292.56	290.88	289.19	286.06	283.25	281.00	284.94	292.38	293.38	293.81	293.12	291.62	294.81	294.06	291.94	293.06	293.38	292.62	295.25	298.00	298.62	299.50	302.00	300.81	302.81	306.19	309.81	314.31	319.25	320.06	322.38	326.25	330.06	333.56	336.81	339.81	340.88	344.75	348.50	351.31	356.38	361.38	362.81	360.94	364.25	367.44	360.75	368.94	388.81	409.19	415.06	381.62	370.12	350.25	349.38	360.38	330.06	335.00	348.88	347.56	356.75	356.31	356.06	346.31	361.12	341.44	346.06	359.00	351.69	358.56	357.31	351.69	358.69	368.56	358.50	353.12	353.19	351.19	347.00	349.00	349.38	353.00	353.25	353.12	353.25	354.12	352.88	350.06	345.44	343.44	341.06	341.19	336.12	331.19	326.75	318.81	314.81	312.38	308.88	309.00	309.25	307.88	301.25	296.69	293.38	293.94	289.38	281.56	281.81	281.44	279.38	278.06	276.62	276.25	277.88	279.00	277.50	278.75	277.56	278.38	276.44	274.75	275.06	275.25	270.62	271.69	273.12	271.19	266.12	266.81	267.06	265.94	265.00	265.25
112.50	139.25	168.00	203.25	200.00	207.94	231.12	260.62	306.44	300.56	313.94	323.62	340.62	484.94	472.31	470.88	544.06	444.44	575.50	706.12	749.75	706.31	690.00	516.38	420.94	339.94	310.31	302.50	303.88	295.44	312.06	312.44	309.31	299.88	301.19	314.19	331.50	349.50	370.75	437.31	469.69	477.88	474.25	482.06	473.38	493.00	501.62	498.19	497.94	493.12	475.88	439.12	413.19	415.81	419.06	402.12	436.25	450.25	400.44	341.12	340.62	361.88	350.12	322.81	286.31	284.38	280.69	271.38	246.38	253.81	254.31	262.38	270.31	281.38	307.62	317.44	331.12	330.12	324.00	358.75	391.88	416.75	443.25	462.38	472.06	482.50	501.00	516.12	519.06	518.56	533.31	545.62	555.25	550.00	539.81	514.69	487.38	452.56	434.31	414.75	398.12	384.69	370.44	366.56	356.25	341.00	334.94	330.19	326.81	320.38	311.56	307.12	301.75	300.62	300.69	294.31	291.06	292.31	290.38	290.38	289.50	289.88	293.31	292.75	290.56	287.31	284.88	281.69	284.19	293.06	295.31	297.19	297.19	293.75	296.56	296.94	293.69	294.19	295.62	293.38	295.31	299.12	299.88	300.00	303.94	301.81	303.00	306.19	309.12	313.75	317.75	320.00	322.69	326.19	329.50	333.06	336.25	340.69	342.50	344.25	348.50	351.81	356.06	360.44	362.12	358.44	356.31	371.44	368.75	361.19	365.69	389.31	416.38	412.81	378.00	371.00	335.94	336.06	336.56	332.25	342.00	344.88	338.69	354.00	350.56	360.25	363.75	342.44	339.38	344.62	356.00	352.75	355.50	357.12	348.44	362.06	362.50	350.31	347.25	347.31	344.19	341.75	342.50	345.94	347.25	347.19	347.00	348.75	348.69	346.31	343.44	341.62	337.44	335.50	331.31	327.56	322.94	316.62	312.50	311.50	307.88	306.06	307.31	307.00	300.88	295.19	290.69	289.62	285.50	279.25	279.38	280.31	278.62	277.75	277.88	276.12	276.62	280.75	279.75	277.94	277.69	279.62	277.25	272.19	270.81	271.50	269.06	267.31	266.94	265.06	265.00	265.00	265.00	265.00	265.00	265.00
93.38	140.50	200.25	214.00	207.88	206.00	235.88	239.88	245.62	248.25	247.62	257.38	271.00	288.88	291.50	300.00	319.88	356.00	497.38	645.88	641.25	653.38	746.88	476.62	326.38	301.88	295.38	289.75	297.12	305.50	345.25	310.88	298.50	298.50	309.62	318.38	330.00	361.75	399.00	481.50	514.12	505.12	492.25	491.88	482.62	494.00	506.75	512.88	515.88	518.50	513.25	480.25	447.50	440.25	442.50	447.62	421.38	425.50	431.62	390.38	341.50	355.38	356.25	354.88	331.00	327.75	315.38	295.75	257.00	258.38	263.12	272.00	273.00	278.38	300.00	323.25	337.88	345.00	335.12	356.12	390.25	420.50	449.12	460.75	463.75	474.12	497.88	507.12	506.38	512.00	529.00	527.62	537.25	541.12	527.62	504.75	478.62	440.00	432.38	411.38	393.25	379.12	358.12	344.62	339.62	333.50	328.12	324.50	322.38	316.38	306.75	303.25	300.25	299.00	299.38	295.88	292.62	294.12	291.38	291.00	291.12	291.62	292.88	293.25	293.25	289.38	288.75	286.38	290.50	294.00	297.62	299.62	299.88	299.00	299.75	299.62	297.00	294.88	298.25	295.25	297.12	300.12	300.75	302.00	302.88	303.00	303.00	305.88	309.00	312.12	316.00	319.38	322.50	325.50	328.38	332.50	335.75	340.75	344.38	345.62	348.38	351.62	355.75	359.88	360.75	359.62	354.50	362.12	367.88	369.50	366.38	365.00	385.88	427.38	408.62	376.88	362.62	340.50	330.25	335.88	333.75	337.00	345.88	338.38	340.38	354.00	356.62	348.12	329.00	335.62	343.00	354.88	352.25	347.25	351.00	350.38	356.88	352.25	346.88	341.00	341.25	338.00	337.62	341.38	342.00	342.12	341.62	343.25	343.88	341.88	340.12	338.00	334.50	331.75	328.62	324.88	321.25	314.00	309.50	309.38	308.75	308.38	304.25	306.75	302.50	299.25	292.12	283.75	280.38	276.75	277.88	278.00	278.50	278.62	277.50	276.88	279.12	281.12	280.38	279.12	278.25	278.88	276.12	272.88	271.25	267.25	265.75	265.12	265.00	265.00	265.00	265.00	265.00	265.00	265.00	265.00
88.44	125.19	188.69	214.12	212.69	205.75	244.81	239.06	228.94	230.12	232.06	226.00	224.81	237.56	249.31	255.88	250.69	274.00	377.81	472.50	520.44	637.81	693.75	439.19	292.31	275.81	278.94	272.00	318.62	326.19	352.31	333.12	318.25	331.62	338.25	340.00	331.06	363.75	421.06	509.19	525.81	518.06	503.69	497.62	493.00	484.44	502.38	512.69	522.00	531.25	529.62	512.81	491.38	475.38	467.00	469.06	457.62	431.81	418.00	394.56	374.81	335.75	343.88	355.94	333.00	322.00	312.31	283.50	251.56	253.06	256.31	278.88	281.56	280.62	301.31	317.00	336.75	344.38	346.62	345.31	382.31	417.06	435.06	447.62	452.69	468.38	483.19	477.69	492.81	502.75	505.31	511.56	522.56	526.00	511.50	495.88	464.94	440.31	424.56	410.19	399.75	390.69	372.75	340.69	328.50	325.94	323.25	320.62	317.69	312.62	303.00	300.38	299.62	298.50	297.25	296.25	294.81	295.88	293.25	291.62	292.06	294.25	294.19	293.00	293.00	292.31	289.62	290.06	291.50	294.44	298.12	300.00	300.25	300.19	300.19	300.19	299.25	297.81	297.94	296.38	296.94	300.00	301.50	303.50	304.81	304.81	304.56	306.19	309.50	311.44	314.25	319.31	322.19	324.12	327.81	331.69	334.81	339.88	343.62	347.31	348.62	351.19	354.75	358.75	360.06	361.00	358.62	360.38	362.38	362.25	368.00	368.12	372.50	389.12	415.06	383.81	375.31	350.94	329.00	328.06	334.94	333.88	339.06	341.38	334.50	336.38	363.81	350.19	332.88	327.06	337.75	342.81	352.56	346.56	346.69	346.06	351.38	348.69	346.81	339.88	337.31	338.94	333.88	336.88	336.06	336.06	336.88	338.88	339.44	337.88	335.25	333.44	331.50	330.12	328.50	323.44	320.88	315.88	308.50	306.00	304.88	304.38	298.88	300.19	298.56	297.62	293.56	283.31	278.31	275.62	275.00	276.38	278.94	278.50	276.94	277.31	279.75	280.88	284.31	283.75	278.00	279.25	273.00	272.25	270.50	265.50	265.00	265.00	265.00	265.00	265.00	265.00	265.00	265.00	265.00	265.00
97.00	109.44	170.12	209.88	213.31	210.56	272.50	251.25	221.12	215.19	210.94	203.38	223.25	225.31	224.00	227.94	249.31	257.19	283.50	277.19	346.25	486.25	566.69	382.19	263.06	258.12	262.38	282.06	369.19	347.81	369.31	362.50	375.38	413.50	391.00	369.00	350.94	345.88	420.62	497.81	517.06	511.75	505.44	497.50	493.94	487.38	503.38	514.62	525.81	541.50	546.25	535.25	526.56	515.25	500.75	492.00	479.56	453.06	411.38	401.25	387.19	345.00	338.25	347.12	334.69	316.44	299.06	271.38	250.25	252.50	268.56	284.19	285.88	288.38	301.88	314.12	330.88	340.88	335.38	350.06	376.69	408.81	417.25	428.38	433.06	459.50	464.25	448.12	470.00	490.25	495.38	500.38	508.62	510.38	489.50	460.62	455.50	439.69	421.25	403.44	399.50	394.88	377.81	337.25	326.56	316.88	316.00	316.00	312.31	308.75	301.19	299.25	299.12	298.38	297.38	297.12	296.88	297.06	294.38	294.19	290.38	295.81	295.00	293.44	292.69	291.50	289.50	289.88	291.94	294.81	298.31	300.19	301.44	301.44	299.38	300.12	300.06	299.69	298.50	296.88	297.06	299.69	302.00	304.25	307.00	306.50	306.94	306.38	309.75	312.25	313.19	318.38	320.69	322.56	326.19	330.44	333.56	338.25	342.88	348.19	350.31	350.88	354.25	357.31	360.19	364.88	360.94	358.00	366.12	360.69	361.25	377.19	377.94	372.50	377.38	378.00	381.06	357.81	336.06	321.38	332.50	345.81	333.56	346.31	342.81	330.50	344.88	360.31	332.56	329.62	330.50	337.19	337.38	343.50	339.06	339.50	348.19	349.44	341.69	344.56	338.94	340.44	334.31	331.94	331.94	331.75	332.44	333.44	334.12	333.06	330.19	328.69	328.19	328.31	326.94	321.94	319.69	317.31	308.56	303.38	300.88	299.31	296.62	296.50	298.25	291.81	290.06	285.38	275.94	274.44	272.19	274.12	278.44	278.88	276.50	275.38	278.62	279.25	280.75	285.75	277.88	276.81	274.69	270.50	268.06	265.12	265.00	265.00	265.00	265.00	265.00	265.00	265.00	265.00	265.00	265.00
126.81	92.94	146.81	197.94	213.75	213.94	265.06	245.12	218.12	204.00	225.44	254.88	265.06	259.06	253.56	256.62	272.94	276.25	333.62	360.88	276.19	272.12	303.31	299.94	257.50	262.06	271.06	280.25	324.50	349.19	412.75	392.19	434.50	461.38	434.81	395.25	376.56	351.50	380.19	464.00	521.69	515.56	505.25	494.88	493.12	493.00	504.81	513.69	528.31	544.75	557.00	557.19	554.50	547.19	534.19	522.94	497.69	478.25	435.06	398.12	378.69	367.25	340.88	340.38	338.81	319.94	300.62	278.25	253.69	256.94	279.50	288.75	287.00	295.38	309.31	319.19	331.88	340.75	334.94	348.69	373.44	394.88	399.81	394.88	407.31	430.31	435.31	444.38	447.88	466.25	476.38	480.19	488.00	481.00	462.69	451.88	439.31	425.06	419.06	395.50	384.94	382.44	347.75	323.19	323.75	313.31	309.62	309.94	308.25	304.31	300.38	298.62	297.75	297.19	296.81	296.69	296.69	295.69	294.69	294.25	291.50	295.62	295.00	294.88	294.19	291.44	291.81	292.50	293.00	295.00	298.56	300.50	302.12	303.00	300.94	299.19	300.56	301.81	300.44	299.12	298.88	299.62	301.88	304.81	307.81	307.81	308.50	309.81	309.38	312.00	313.81	316.19	320.19	320.62	324.62	328.44	332.00	337.50	342.25	346.19	350.75	353.25	354.88	357.38	360.00	366.06	366.44	359.06	357.81	364.69	359.62	361.06	369.50	372.38	361.19	350.19	371.69	371.56	344.31	331.00	324.75	338.31	353.00	337.50	355.12	338.69	333.81	349.38	333.38	332.19	328.44	330.19	334.31	332.19	340.94	338.62	341.75	350.00	341.56	337.19	337.06	338.62	321.88	323.44	329.44	327.56	325.75	326.88	327.44	327.06	325.38	324.31	324.88	323.88	323.56	320.94	318.56	314.69	310.56	302.38	298.44	294.56	292.50	289.75	289.00	288.81	286.38	284.88	277.25	274.06	271.62	271.12	275.81	275.56	276.44	274.12	273.06	274.44	279.81	278.19	273.06	278.00	276.38	270.06	266.62	265.00	265.00	265.00	265.00	265.00	265.00	265.00	265.00	265.00	265.00	265.00
145.38	89.44	129.25	184.38	213.38	207.44	194.00	233.88	192.62	202.81	259.44	280.62	312.12	311.38	282.94	286.06	294.00	318.88	381.12	539.88	480.31	349.69	326.94	281.25	265.06	270.19	274.31	289.56	382.06	363.81	374.38	381.12	381.31	404.06	436.19	442.19	404.44	365.81	371.25	420.00	500.00	526.81	506.44	490.12	494.81	493.31	500.44	509.75	522.50	540.94	559.75	570.00	570.12	564.75	555.75	539.19	516.25	494.12	456.81	404.62	380.88	378.38	353.75	339.00	350.06	327.00	302.62	289.88	274.56	252.38	264.81	289.44	289.06	299.88	316.25	328.50	333.12	338.75	338.31	340.00	364.38	387.69	383.25	388.12	407.56	416.00	433.44	445.56	451.31	457.25	452.69	456.56	460.00	460.00	467.19	456.62	438.94	419.25	400.31	386.25	372.75	360.62	321.75	312.75	318.75	310.56	308.38	307.50	306.25	300.00	300.06	297.25	293.44	294.00	293.44	293.31	294.75	293.75	292.38	292.19	290.00	293.88	295.00	294.88	294.31	291.81	292.69	294.06	294.62	295.44	298.62	300.62	302.25	303.75	301.75	300.25	300.88	304.00	302.69	300.62	299.56	299.94	301.06	303.06	307.38	308.19	308.62	309.62	310.44	311.69	313.62	317.25	320.81	320.38	323.19	328.12	331.69	336.94	340.62	344.38	350.31	355.62	357.00	358.31	360.31	363.50	369.56	364.38	355.50	360.06	361.75	351.19	355.88	361.31	364.94	343.19	339.50	362.31	344.31	336.12	327.19	321.75	337.06	344.38	342.19	358.38	338.19	338.31	329.31	323.00	331.25	326.75	328.31	332.81	337.06	339.38	339.31	341.88	339.94	332.81	331.50	331.81	324.50	322.69	320.25	324.69	322.50	321.75	320.81	321.75	320.56	320.38	321.62	322.06	323.62	321.25	319.75	317.88	311.19	304.31	298.69	292.44	290.62	289.75	289.56	286.62	288.75	282.75	278.81	276.56	272.00	271.00	271.94	272.56	273.06	274.06	273.12	273.50	277.56	276.25	269.50	274.69	273.38	268.44	265.00	265.00	265.00	265.00	265.00	265.00	265.00	265.00	265.00	265.00	265.00	265.00
160.62	97.38	120.38	173.75	176.38	160.50	176.75	198.25	198.00	219.00	246.38	259.50	290.00	348.25	335.75	331.38	335.62	446.75	430.88	508.12	623.75	445.25	446.38	407.12	275.62	285.25	289.25	301.62	377.88	409.50	522.38	511.12	412.62	409.62	491.62	482.88	415.50	396.00	371.62	392.88	435.50	504.12	493.88	482.00	494.12	498.00	497.75	510.38	523.75	541.38	557.12	576.12	582.50	577.25	572.75	556.62	530.38	508.88	480.00	446.62	398.75	387.50	378.25	347.12	343.25	331.12	308.50	305.12	300.12	265.62	263.50	287.75	287.38	301.88	317.50	329.12	332.38	335.12	339.25	343.75	340.00	357.38	366.62	391.38	388.38	401.25	419.00	429.00	435.50	445.50	441.12	450.00	464.75	460.62	452.38	443.12	424.88	408.75	388.12	373.50	355.38	332.50	308.88	300.62	309.25	305.00	303.12	302.38	307.25	300.12	298.25	294.12	291.38	291.88	292.12	291.62	293.38	292.25	291.88	291.38	290.50	295.25	295.25	294.88	293.62	293.62	293.50	295.00	295.75	296.75	299.25	301.88	304.25	303.88	302.62	301.38	301.62	305.50	305.25	303.12	301.75	300.25	302.25	303.62	306.38	309.25	310.00	311.75	311.50	313.88	316.88	318.00	321.25	321.00	322.12	328.12	331.88	336.12	339.75	344.00	348.75	354.00	359.12	360.12	360.88	361.88	367.50	366.50	358.62	354.00	358.12	351.38	339.12	348.50	352.75	356.88	331.25	330.62	328.00	337.25	328.88	320.75	316.12	320.62	336.50	346.50	345.25	338.12	330.50	321.38	323.62	322.62	323.50	325.25	331.00	337.25	336.88	340.00	334.50	327.38	327.00	326.88	324.12	320.25	315.00	319.00	321.00	319.00	315.50	317.00	320.00	319.38	318.00	320.25	322.38	320.50	317.00	315.88	312.38	305.75	299.00	293.38	290.38	289.38	288.12	285.12	288.50	286.00	280.12	277.75	272.25	271.00	271.00	274.25	277.62	275.25	277.00	275.12	273.62	274.75	269.62	270.75	268.88	265.38	265.00	265.00	265.00	265.00	265.00	265.00	265.00	265.00	265.00	265.00	265.00	265.00
159.50	103.56	113.25	134.44	165.19	206.25	195.44	180.50	225.38	233.12	241.88	262.19	278.06	307.44	345.56	373.06	379.56	440.12	502.00	502.88	588.19	485.69	537.19	484.25	312.75	313.19	330.94	348.56	372.56	423.00	563.50	558.31	450.44	423.56	425.06	430.81	422.38	422.06	406.50	390.94	411.12	467.38	486.19	472.62	485.88	491.00	502.75	511.38	524.94	539.69	554.31	574.38	587.88	583.69	579.62	565.38	549.19	520.94	493.69	466.06	423.38	405.44	401.12	369.25	355.00	330.25	321.88	305.44	306.75	277.00	262.50	281.12	279.00	295.94	312.19	320.88	324.19	324.62	330.56	346.62	347.75	345.62	357.75	372.44	377.75	385.19	400.06	410.62	419.56	424.94	428.19	440.69	440.88	438.44	429.69	407.31	407.69	394.69	375.44	359.00	339.88	320.88	308.75	299.19	306.31	301.62	298.69	299.62	303.56	298.38	294.19	293.38	290.19	290.44	291.38	290.56	292.50	291.62	291.88	290.62	291.00	295.56	296.81	296.38	294.75	294.31	294.88	295.12	297.19	297.50	299.06	302.00	304.44	304.69	304.00	303.12	303.00	306.56	307.06	305.50	304.81	301.69	303.75	305.50	307.50	309.88	312.12	313.75	314.50	314.69	317.06	320.06	321.94	322.12	323.06	326.88	330.88	336.50	340.44	343.75	347.62	351.50	359.69	363.06	362.31	362.81	364.81	368.38	362.06	355.25	354.38	351.38	345.44	338.81	338.12	349.56	339.38	330.69	322.50	328.38	337.12	327.19	321.19	311.44	314.19	328.69	353.00	344.69	327.12	319.38	324.69	328.88	328.00	321.31	330.75	323.88	332.25	336.25	331.00	323.31	321.75	320.38	319.94	318.56	314.12	312.38	314.25	318.06	318.19	315.44	317.19	318.94	317.88	316.88	318.38	318.88	314.56	312.12	310.62	306.56	299.31	295.69	293.12	288.69	288.50	285.38	288.31	285.56	279.75	276.69	273.38	271.19	271.00	275.31	274.88	276.81	277.06	275.31	271.12	272.62	268.81	266.50	265.75	265.00	265.00	265.00	265.00	265.00	265.00	265.00	265.00	265.00	265.00	265.00	265.00	265.00
178.94	111.38	99.94	146.56	195.75	213.44	205.19	189.12	203.81	241.38	253.44	263.25	302.19	315.62	325.19	377.50	439.00	505.62	567.50	549.12	598.94	545.81	563.00	516.75	384.19	352.31	352.50	372.88	402.81	460.44	583.56	586.06	504.81	456.94	438.44	441.56	439.56	436.56	422.62	412.12	400.62	420.88	449.50	457.69	477.31	485.12	498.81	512.38	525.38	536.56	550.38	573.00	589.62	587.31	582.12	568.44	559.38	532.12	505.19	477.50	443.38	415.81	415.44	388.31	374.44	338.12	334.25	313.44	308.12	285.38	266.44	259.81	262.62	285.44	299.06	308.88	309.62	320.06	327.94	341.00	348.75	344.38	351.94	367.81	385.62	372.12	389.94	399.75	406.62	410.62	416.50	426.94	421.50	415.00	400.88	389.56	383.69	378.19	366.94	343.44	325.38	313.25	307.81	298.12	304.62	299.94	296.25	297.06	298.38	296.25	290.88	291.00	290.19	289.31	289.81	289.44	291.62	290.94	291.06	290.19	292.19	296.12	297.94	297.19	296.75	295.94	296.12	297.44	298.94	299.31	299.81	302.12	304.06	305.56	305.50	305.19	303.94	307.19	309.19	307.44	308.69	305.56	305.31	306.25	308.31	310.81	313.31	315.88	316.50	317.69	317.56	320.19	322.06	323.38	324.69	327.50	330.44	336.00	339.44	344.06	347.00	350.25	358.88	365.12	365.25	362.81	365.00	369.88	367.19	358.94	354.06	350.25	349.81	343.50	335.31	335.44	337.88	338.06	327.75	320.44	335.50	334.50	323.81	323.94	300.75	319.94	338.88	343.81	329.75	319.75	323.12	322.50	323.81	325.75	320.44	321.25	328.12	328.75	330.69	319.81	318.12	317.00	315.81	314.62	311.94	310.12	308.19	313.12	316.88	316.62	314.69	316.31	316.12	314.31	315.25	316.12	312.25	309.00	308.62	305.75	299.50	296.62	296.44	290.50	289.25	285.06	286.44	283.06	279.44	277.19	274.31	272.38	271.25	273.69	273.75	275.75	278.88	274.44	269.69	269.62	267.00	265.00	265.00	265.00	265.00	265.00	265.00	265.00	265.00	265.00	265.00	265.00	265.00	265.00	265.00	265.00
176.56	125.69	96.81	154.50	194.56	212.12	208.81	195.25	201.38	292.19	316.75	301.94	331.38	414.69	380.81	403.50	535.31	678.88	775.00	675.81	614.62	670.81	641.75	597.44	467.38	422.75	401.50	413.38	484.50	556.69	581.38	597.94	572.50	532.19	482.94	455.44	455.12	440.44	431.31	436.69	413.25	408.88	416.12	434.75	462.94	481.38	491.69	511.12	525.75	537.44	544.56	564.06	582.19	587.06	582.19	570.25	561.69	545.06	521.44	494.12	464.12	428.12	416.56	404.00	381.00	355.50	339.88	322.19	311.25	284.00	273.12	259.50	266.88	273.75	282.25	289.75	299.94	311.69	325.50	329.12	340.19	346.06	351.75	365.38	379.69	370.38	379.75	389.19	391.62	393.69	404.38	415.50	403.88	383.75	375.81	365.94	366.31	369.50	355.12	328.38	316.06	310.44	307.06	299.38	303.31	297.25	291.81	294.69	295.38	292.94	292.75	289.62	287.69	287.38	288.25	288.75	288.75	289.88	293.75	292.44	293.69	297.94	299.31	297.38	298.81	297.50	297.81	299.56	299.50	302.38	301.81	303.31	305.31	306.44	307.00	307.19	306.19	307.06	310.00	309.81	309.94	309.50	307.25	308.06	309.75	311.00	313.50	319.06	318.88	320.44	319.88	320.12	322.50	324.50	325.94	329.38	329.94	333.94	338.50	344.12	347.38	350.06	356.94	365.62	367.81	364.81	365.94	370.44	372.81	365.81	356.75	351.69	347.81	348.75	343.25	333.31	329.94	335.75	332.75	317.62	319.62	335.62	327.25	320.06	310.06	296.56	325.44	321.88	329.69	329.75	326.50	316.25	318.75	322.94	315.75	317.12	321.38	320.38	328.00	315.69	313.81	313.88	310.94	309.38	309.44	309.19	308.44	306.25	312.12	318.31	314.19	312.25	312.81	312.62	313.94	313.81	309.94	305.56	307.19	303.75	300.00	296.88	297.00	295.00	289.19	286.56	283.69	282.12	279.31	276.69	274.50	274.00	273.69	273.50	272.44	271.81	274.31	268.12	267.19	267.12	265.25	265.00	265.00	265.00	265.00	265.00	265.00	265.00	265.00	265.00	265.00	265.00	265.00	265.00	265.00	265.00
199.62	150.62	92.75	134.44	199.31	211.81	215.25	208.81	214.88	359.12	458.12	517.00	421.06	572.88	575.38	473.12	529.75	675.75	857.12	859.38	794.69	713.00	812.44	681.06	573.62	518.44	509.31	536.88	580.69	627.56	613.75	619.25	608.31	581.12	548.25	504.00	472.62	457.69	454.94	459.00	445.38	437.69	441.94	429.50	437.81	475.69	492.19	510.25	528.31	537.38	535.19	550.56	567.62	582.06	571.12	565.06	561.56	550.75	535.00	509.69	480.56	447.62	422.94	411.12	384.19	370.62	348.50	327.94	313.00	296.44	279.19	265.25	269.06	288.81	292.81	290.69	299.88	305.81	315.31	320.88	329.06	335.75	344.56	353.38	365.56	370.88	370.00	372.81	372.62	370.75	376.94	389.12	367.62	360.19	370.62	373.88	361.38	350.56	331.75	316.00	308.25	307.69	305.75	296.75	301.25	293.56	289.00	291.56	291.69	290.56	291.62	287.00	287.00	287.00	287.00	287.00	287.44	291.25	295.75	296.00	296.94	299.00	300.00	298.75	297.75	299.75	299.56	299.81	301.25	303.12	305.44	305.50	307.62	308.44	309.56	310.00	309.38	308.12	310.44	311.06	312.12	311.12	310.19	310.12	310.81	313.00	313.69	319.12	320.44	321.50	321.56	320.75	326.44	326.69	327.62	329.88	331.31	333.62	339.00	343.50	348.50	351.12	355.88	364.19	369.75	369.75	369.38	370.94	375.56	374.69	366.19	357.44	348.62	344.81	344.12	338.38	329.56	328.56	338.88	321.44	309.00	323.56	331.69	320.50	311.81	293.06	309.19	320.31	322.88	319.62	325.50	324.69	323.44	322.75	315.81	310.56	316.94	316.06	316.12	315.19	307.31	310.31	310.12	304.50	304.38	305.69	310.25	306.56	306.12	311.56	312.44	311.00	308.56	309.62	311.06	311.75	308.56	302.50	301.75	300.69	298.38	298.56	296.31	295.06	291.25	289.25	287.81	284.06	280.25	278.44	277.00	274.69	276.75	276.94	271.31	268.38	266.56	265.00	265.00	265.00	265.00	265.00	265.00	265.00	265.00	265.00	265.00	265.00	265.00	265.00	265.00	265.00	265.00	265.00	265.00	265.00
222.56	183.06	98.06	123.50	203.69	220.19	219.00	218.00	223.12	316.44	501.62	585.06	550.31	524.25	705.75	572.25	511.94	623.00	873.56	936.75	958.62	834.69	809.69	808.31	706.44	639.94	591.00	635.81	663.69	639.31	618.12	603.56	596.56	575.00	535.44	505.94	495.62	482.62	497.62	508.81	495.88	452.25	460.06	454.44	443.50	449.25	470.25	498.69	516.00	522.38	524.50	545.50	554.75	571.75	564.81	562.62	561.62	553.00	535.31	515.19	484.25	454.19	420.25	414.00	381.00	366.19	350.31	339.00	316.25	307.31	291.81	264.19	266.31	278.69	300.75	299.50	298.56	296.56	307.62	317.50	322.62	323.31	324.62	333.31	350.94	361.56	356.81	358.12	360.31	363.56	359.50	358.62	368.88	368.25	370.12	359.31	348.75	335.25	321.12	310.19	299.12	303.50	301.56	293.69	293.62	288.12	287.81	288.69	287.94	290.38	290.00	287.88	287.19	287.00	287.00	287.12	289.25	291.44	295.94	297.62	299.62	298.00	300.69	299.69	298.88	301.31	301.19	301.19	302.94	304.38	307.88	307.81	309.38	310.25	310.94	312.44	312.31	310.88	311.06	313.31	313.56	314.00	314.12	311.94	312.69	315.31	317.62	321.06	322.12	322.50	323.25	322.81	326.19	327.31	329.56	330.44	332.81	334.88	339.88	343.56	348.56	352.00	355.62	361.75	369.25	371.88	372.00	371.06	373.38	374.81	372.69	363.19	353.19	342.19	340.50	336.19	339.62	327.31	335.31	330.62	308.19	309.62	319.31	323.94	311.44	306.25	288.31	313.75	310.62	308.56	322.06	317.50	317.12	318.88	319.88	312.50	310.19	316.62	309.50	312.88	304.62	303.31	308.38	302.62	300.25	301.50	308.06	308.81	307.62	304.88	308.44	310.81	305.44	305.69	307.12	306.50	304.44	301.25	299.81	297.81	295.12	294.94	295.25	293.62	291.44	290.25	289.62	288.38	281.44	281.00	278.94	275.38	273.75	276.25	271.75	266.50	265.00	265.00	265.00	265.00	265.00	265.00	265.00	265.00	265.00	265.00	265.00	265.00	265.00	265.00	265.00	265.00	265.00	265.00	265.00	265.00
232.88	199.38	118.88	112.12	198.50	228.12	225.25	228.88	244.25	377.50	347.75	440.12	633.62	528.50	568.62	661.12	558.62	558.00	723.88	905.50	1047.25	1110.12	1043.12	909.25	916.38	829.00	697.50	704.12	692.50	646.12	624.12	606.75	590.75	583.75	554.12	542.00	536.88	530.88	554.25	558.50	542.88	487.50	468.38	476.50	471.75	472.75	476.12	480.88	493.88	508.88	515.75	539.12	549.12	557.12	562.38	563.25	563.38	558.38	537.38	515.88	488.25	453.25	418.50	402.88	380.00	365.62	362.62	356.75	328.50	309.25	307.88	283.00	262.75	263.50	282.25	291.00	286.00	279.12	286.00	310.75	315.75	294.25	302.00	304.12	338.00	354.75	346.50	356.75	356.38	351.12	347.00	355.25	359.12	363.00	353.00	343.50	334.50	321.38	313.50	303.38	293.75	298.88	292.88	290.50	287.25	287.00	287.00	287.00	287.00	287.88	290.12	291.00	289.25	287.00	287.00	289.75	291.62	292.62	295.50	298.12	300.00	299.88	301.38	300.25	299.75	303.50	302.38	302.75	304.88	307.12	309.88	310.62	311.38	312.00	312.25	315.12	316.38	315.25	314.00	315.38	316.38	318.38	319.00	317.75	315.12	317.00	319.38	322.38	323.75	324.88	324.50	326.12	327.50	329.25	330.50	330.62	333.50	337.25	340.12	343.88	349.12	352.62	356.38	360.38	366.50	372.00	374.50	371.88	370.12	374.75	375.38	365.25	359.00	345.88	335.88	331.12	332.75	337.00	327.88	336.12	315.75	303.62	305.88	323.12	315.00	308.50	293.62	292.25	317.00	302.00	304.75	321.75	307.62	315.25	313.00	313.25	310.25	309.12	305.25	302.38	302.75	298.25	299.12	301.75	298.12	299.50	302.62	305.50	307.88	306.88	302.25	304.88	304.00	301.88	301.12	298.62	297.38	298.88	299.50	298.25	293.62	292.62	290.62	290.50	290.62	290.75	290.00	289.38	284.62	282.88	280.38	276.50	271.25	271.50	270.88	267.50	265.00	265.00	265.00	265.00	265.00	265.00	265.00	265.00	265.00	265.00	265.00	265.00	265.00	265.00	265.00	265.00	265.00	265.00	265.00	265.00
233.75	205.81	132.56	101.44	173.12	224.62	229.19	233.25	253.12	398.69	437.44	438.94	587.62	665.12	629.75	612.75	622.31	590.38	634.12	751.06	890.25	1129.38	1255.56	1209.88	1180.81	1049.00	867.50	772.12	695.88	652.69	627.62	613.69	606.31	598.50	573.00	563.44	567.88	556.12	575.06	577.69	560.19	510.94	474.81	487.12	484.94	487.50	493.75	495.31	506.06	529.19	524.00	528.19	550.12	550.81	560.94	563.25	567.56	567.50	547.56	523.81	486.00	444.19	406.31	392.38	388.38	378.12	377.25	376.12	357.06	324.50	314.75	304.12	294.00	274.31	267.38	268.81	270.56	274.50	282.25	291.00	299.62	288.06	309.50	313.44	330.69	344.75	334.75	341.38	339.69	336.81	339.94	340.56	343.00	344.81	331.50	322.31	314.38	308.38	302.25	294.88	292.75	294.56	288.62	287.56	289.38	287.94	287.00	287.00	287.00	288.31	290.06	293.12	291.31	288.56	288.19	289.06	292.69	294.00	296.19	299.06	300.50	300.50	302.31	300.94	300.56	304.75	304.62	304.25	307.94	309.69	310.88	312.75	313.38	314.00	314.44	316.25	319.69	318.94	317.38	316.88	318.56	320.56	322.12	321.62	318.50	319.50	321.25	323.69	325.38	327.56	326.94	328.62	329.75	331.00	331.94	332.94	334.88	339.56	340.50	343.81	349.19	353.88	357.94	360.94	365.50	371.94	376.81	375.12	370.06	370.44	373.56	366.62	363.19	356.25	341.62	332.12	330.38	335.69	327.62	330.12	325.31	306.56	308.00	314.50	309.94	308.56	302.69	292.56	301.06	311.31	296.69	308.38	306.00	306.38	315.06	307.94	311.31	312.06	310.94	301.94	300.69	294.50	292.38	294.94	294.62	297.31	296.25	304.00	300.38	307.06	304.62	298.00	299.50	300.44	296.94	294.38	293.50	295.38	296.62	295.19	292.75	290.88	289.25	288.88	289.25	289.88	289.00	288.06	286.06	286.19	284.62	277.75	269.12	268.69	268.69	269.25	265.94	265.00	265.00	265.00	265.00	265.00	265.00	265.00	265.00	265.00	265.00	265.00	265.00	265.00	265.00	265.00	265.00	265.00	265.00	265.00
233.38	199.31	121.56	101.44	144.81	196.88	225.25	232.75	245.88	274.00	378.38	502.69	592.69	661.25	785.56	749.56	675.44	714.75	659.38	673.50	745.06	982.50	1215.56	1351.12	1487.69	1364.31	1013.00	826.19	698.75	656.19	629.94	615.25	610.50	605.31	581.62	570.81	577.00	566.06	571.81	577.88	569.44	526.06	494.62	518.31	513.81	507.81	510.19	514.31	514.06	539.19	546.00	527.00	538.88	552.50	561.12	567.50	573.56	579.50	564.38	531.44	480.88	434.44	403.19	396.00	400.81	398.56	400.56	399.88	384.00	349.50	328.00	317.00	307.25	291.50	290.06	273.75	264.62	272.62	282.50	280.00	280.12	291.19	292.00	304.69	308.25	323.62	316.19	315.62	322.31	325.06	327.56	331.69	326.25	325.19	314.88	304.31	301.44	299.75	297.25	292.38	290.81	289.06	287.50	289.31	292.88	288.56	287.00	287.00	287.00	287.56	290.62	292.81	291.56	290.06	290.38	290.00	291.56	295.56	297.69	299.56	302.44	301.44	303.31	301.31	302.19	305.94	306.06	306.19	308.81	310.88	312.38	315.31	315.94	316.12	316.88	318.75	320.38	321.00	320.19	318.88	320.81	323.00	325.88	325.94	322.56	320.69	322.62	325.38	326.56	329.94	328.88	329.12	332.12	333.00	334.75	335.69	338.06	340.06	342.94	345.62	350.06	354.00	359.06	362.62	366.88	371.94	377.69	379.69	373.38	367.50	371.19	369.75	365.44	361.50	351.75	336.50	333.19	328.31	335.75	321.38	319.00	310.25	310.50	309.81	301.50	302.25	302.19	296.69	290.81	306.94	303.62	295.50	304.44	301.19	314.12	310.94	310.62	310.69	314.62	304.75	302.44	291.81	289.50	287.25	292.50	290.81	301.06	295.25	298.81	300.19	308.81	303.19	293.69	297.00	296.00	290.00	289.81	291.44	293.38	292.81	291.81	289.00	287.38	289.06	287.19	288.38	287.12	286.06	288.00	287.38	283.00	276.81	268.06	266.12	267.06	268.62	266.31	265.00	265.00	265.00	265.00	265.00	265.00	265.00	265.00	265.00	265.00	265.00	265.00	265.00	265.00	265.00	265.00	265.00	265.00	265.00
234.06	198.44	112.56	104.94	146.44	176.50	201.88	220.88	222.75	227.31	240.56	351.44	505.44	617.69	613.75	680.25	794.94	732.62	885.00	904.31	682.31	682.88	846.75	1121.19	1272.38	1338.31	1175.19	880.06	722.06	657.75	626.25	612.19	608.88	599.94	578.69	573.62	569.81	560.75	553.94	560.88	564.50	516.69	504.12	537.88	542.12	535.12	536.25	539.06	530.38	530.62	534.81	531.06	535.50	549.19	557.88	570.69	578.25	586.50	574.12	546.06	476.56	426.75	406.88	412.25	424.44	428.88	428.69	426.44	412.12	388.56	360.00	338.94	328.25	305.62	295.19	297.81	294.88	292.25	289.00	296.56	295.50	288.38	285.25	299.94	303.44	303.31	308.06	316.25	312.06	318.12	322.75	322.56	317.81	315.50	310.25	307.50	305.44	300.06	294.31	291.44	293.12	290.38	287.00	287.25	287.62	289.19	288.06	287.94	288.38	287.44	289.88	291.31	292.44	291.44	289.56	292.94	291.38	296.25	299.00	300.81	304.69	302.44	305.81	302.88	306.25	308.00	308.88	309.12	310.00	310.31	313.75	317.94	318.94	319.44	319.88	320.62	321.75	323.56	323.62	321.00	323.50	326.69	329.19	330.25	328.38	325.62	325.31	328.56	329.50	331.94	331.81	331.31	334.19	336.00	338.00	339.19	340.19	342.62	344.31	347.81	351.88	354.69	359.62	364.50	368.31	371.25	377.62	383.19	380.81	372.38	367.88	371.44	369.19	364.25	358.69	344.69	336.56	328.62	327.19	330.88	318.12	309.56	305.56	312.56	294.12	298.25	301.06	297.31	292.00	282.62	303.25	299.88	295.62	304.56	299.25	310.75	309.81	305.19	307.19	303.75	302.44	293.25	288.06	289.00	287.81	289.62	294.00	296.94	293.44	296.44	301.62	305.75	298.81	289.00	294.12	290.25	287.62	288.25	290.25	289.75	290.19	288.44	285.62	285.69	284.75	285.88	286.06	286.50	287.25	285.69	281.75	276.50	272.69	265.62	265.25	266.00	265.12	265.00	265.00	265.00	265.00	265.00	265.00	265.00	265.00	265.00	265.00	265.00	265.00	265.00	265.00	265.00	265.00	265.00	265.00	265.00
236.19	188.94	110.19	106.25	144.12	175.88	197.25	211.94	210.06	209.94	212.19	257.56	395.81	481.56	577.44	704.12	801.88	796.88	824.62	823.75	642.75	660.25	680.31	845.12	1017.88	1143.06	1220.56	933.19	777.25	666.31	622.75	608.62	604.00	592.81	577.38	574.75	567.88	556.25	546.12	543.81	551.94	516.31	489.19	518.88	541.62	547.81	548.00	551.75	539.12	522.69	520.69	531.50	535.69	543.75	554.00	568.00	574.56	581.62	569.31	549.38	486.00	431.94	420.00	424.06	441.31	447.44	444.44	441.62	429.00	409.19	381.94	356.44	343.94	321.88	308.56	313.31	310.50	301.25	290.25	289.88	294.31	283.75	278.44	294.19	305.19	317.12	318.62	320.00	317.00	318.19	323.00	321.00	316.94	314.50	306.69	308.25	304.19	299.06	293.81	289.88	289.75	287.62	287.00	287.00	289.50	294.38	288.31	289.50	290.75	291.44	288.44	289.19	291.44	290.81	290.12	294.06	294.44	295.44	299.00	302.94	306.50	305.00	307.38	302.12	307.06	309.38	310.31	310.94	311.12	311.00	313.62	319.12	320.25	321.56	321.81	322.75	323.88	325.44	326.25	323.69	324.69	329.19	331.50	333.69	333.31	330.00	328.88	330.56	331.25	333.69	334.50	334.56	336.62	338.31	340.12	341.38	342.81	345.69	346.88	349.38	352.88	356.00	360.38	365.50	369.50	372.19	377.25	385.12	389.12	382.25	368.75	368.69	372.75	366.06	362.31	351.69	338.88	332.31	323.88	327.19	322.00	311.25	303.12	307.00	296.25	295.56	293.00	296.94	295.69	286.81	286.31	310.19	292.75	298.31	298.75	302.50	307.19	308.88	300.38	299.31	299.19	297.56	286.94	293.00	287.44	290.50	289.38	293.56	291.50	292.69	294.69	296.50	299.88	292.44	288.69	292.75	288.12	286.75	287.69	288.69	288.94	287.44	284.44	283.44	282.25	282.69	285.38	286.81	285.94	284.19	284.12	280.88	278.12	269.19	265.06	265.12	265.00	265.00	265.00	265.00	265.00	265.00	265.00	265.00	265.00	265.00	265.00	265.00	265.00	265.00	265.00	265.00	265.00	265.00	265.06	265.00
249.12	183.88	112.94	100.88	145.06	178.19	195.12	217.00	204.50	202.75	208.00	220.12	311.00	470.75	680.50	753.56	712.50	743.19	828.50	612.56	669.25	862.19	692.94	604.75	743.44	924.69	1144.19	908.75	800.94	672.62	624.06	608.00	599.50	590.75	578.31	575.44	568.44	555.31	541.81	538.94	528.44	504.81	481.50	497.94	534.25	546.81	554.00	559.75	540.69	519.44	516.75	529.75	537.75	538.12	547.62	555.69	564.88	570.38	562.19	543.88	500.38	443.31	425.31	439.94	453.44	460.25	454.94	454.06	441.00	426.12	403.31	373.75	359.94	337.00	320.31	320.56	325.56	312.50	303.81	296.75	290.44	288.19	278.12	286.00	305.38	313.44	319.06	320.19	318.50	310.06	317.12	324.50	318.50	312.50	303.19	304.69	300.81	299.69	291.69	287.31	287.00	287.00	287.06	288.00	288.06	292.94	293.38	292.94	294.00	297.38	293.25	290.56	288.69	288.94	289.38	295.38	299.25	296.69	300.62	303.31	308.62	307.75	308.56	302.62	307.81	310.00	310.62	313.00	313.12	314.94	315.00	319.06	321.25	323.81	324.81	325.25	326.75	327.81	329.50	327.88	326.75	331.00	333.88	338.56	339.62	335.19	334.12	334.38	335.12	336.62	337.38	338.69	340.44	341.25	343.06	344.81	347.06	348.62	350.75	350.19	354.00	357.62	361.69	366.12	370.69	374.69	377.69	386.50	392.69	391.31	375.75	366.31	370.50	368.44	363.75	358.19	340.88	332.19	328.62	321.94	320.62	312.88	308.38	295.38	295.94	292.94	285.94	291.62	293.50	296.38	279.31	294.69	304.94	292.94	299.88	296.50	299.69	311.06	306.38	296.12	295.75	294.69	287.56	287.31	292.75	292.06	291.62	288.31	290.44	291.31	292.25	293.06	295.12	294.38	288.00	288.06	290.19	287.25	284.62	288.06	287.31	285.19	282.88	281.56	280.50	283.06	282.56	283.94	282.81	282.50	284.31	282.00	280.06	271.50	265.00	265.00	265.00	265.00	265.00	265.00	265.00	265.00	265.00	265.00	265.00	265.00	265.00	265.00	265.00	265.00	265.00	265.00	265.00	265.00	265.06	265.00
229.75	193.00	129.62	92.38	144.00	184.38	197.62	223.62	213.12	199.00	199.25	211.12	255.75	457.38	678.62	647.12	582.12	676.88	772.25	542.50	620.38	737.75	639.50	537.00	602.88	755.75	1064.12	866.12	741.50	665.00	627.12	607.88	596.62	590.75	581.25	580.00	571.75	561.25	539.00	540.25	523.25	498.50	487.38	490.62	511.50	528.62	540.00	542.38	531.75	511.88	515.38	524.62	535.62	532.75	538.62	536.75	550.38	546.25	535.62	524.12	497.62	458.00	425.00	450.00	453.88	457.75	458.00	464.00	453.38	440.38	419.88	388.12	365.88	336.88	329.62	332.62	339.50	329.38	324.88	310.25	292.12	291.25	279.50	280.62	300.12	305.38	313.75	321.12	319.38	319.00	310.12	307.38	313.12	308.25	302.12	302.50	298.25	290.38	287.00	287.00	287.25	289.12	289.88	289.00	287.25	289.62	298.12	295.38	297.88	299.75	295.88	291.12	290.12	295.00	293.88	292.12	296.50	298.88	300.38	300.62	306.75	309.88	309.88	305.25	308.00	311.25	313.12	313.75	315.25	318.00	320.25	320.62	321.00	325.25	328.38	328.38	329.62	330.75	332.38	332.62	331.12	332.50	335.38	338.75	341.62	339.88	339.50	340.12	340.62	340.75	341.62	342.62	346.38	347.00	348.12	349.50	350.50	352.38	353.25	353.25	355.50	359.38	363.25	368.00	372.12	376.62	379.00	384.25	391.75	395.88	387.25	368.38	365.75	370.00	361.12	361.12	346.62	330.88	328.75	326.12	315.62	310.38	308.75	305.88	288.75	288.88	294.38	283.62	287.50	282.25	281.75	276.38	293.75	289.50	298.75	294.12	297.00	295.88	307.12	295.75	294.75	294.62	288.38	285.00	293.50	303.25	297.88	290.50	288.12	290.88	290.50	290.62	291.50	289.62	291.25	286.88	287.12	286.50	285.25	288.00	285.62	285.38	281.00	280.62	281.12	283.62	281.75	281.62	281.00	279.12	278.50	279.25	279.00	271.62	265.12	265.00	265.00	265.00	265.00	265.00	265.00	265.00	265.00	265.00	265.00	265.00	265.00	265.00	265.00	265.00	265.25	267.50	265.25	265.00	265.00	265.00
181.38	174.44	138.00	93.06	135.38	186.38	210.31	236.00	200.38	193.00	197.00	206.44	225.81	379.06	549.00	543.06	663.38	676.44	734.88	512.12	535.94	562.81	547.44	691.50	660.25	703.31	988.88	878.88	804.50	672.56	632.88	610.69	594.00	586.19	578.94	575.56	563.44	550.81	533.38	531.81	528.56	501.56	499.50	501.00	511.50	516.31	518.12	525.00	518.00	496.88	506.12	519.56	527.81	524.00	518.38	516.75	526.81	521.94	509.81	500.88	475.94	441.38	426.19	439.31	442.38	447.44	450.31	459.62	457.38	446.44	426.62	393.50	370.44	345.69	335.56	342.06	346.25	336.25	333.56	324.56	296.19	299.69	288.31	281.25	283.69	295.25	306.31	315.50	318.75	314.00	314.50	316.88	304.06	300.44	298.12	298.94	291.94	289.12	292.38	290.06	289.19	289.31	289.75	293.94	290.62	288.56	296.56	296.75	299.69	299.56	295.19	289.00	293.19	295.62	295.88	295.06	297.56	300.69	301.12	302.25	305.12	309.94	312.12	313.12	309.44	312.19	315.69	317.12	316.75	319.88	322.00	322.88	323.94	326.19	329.56	330.75	331.06	332.88	334.88	337.31	336.94	337.25	339.44	340.94	344.00	342.31	343.19	345.56	345.62	345.06	346.06	348.94	351.44	352.19	352.19	353.31	354.56	356.56	356.69	357.88	357.56	360.19	366.56	369.81	374.38	378.19	383.00	387.44	392.44	399.06	394.88	379.19	365.56	368.88	364.12	359.12	356.19	336.50	326.69	325.25	318.38	310.44	305.75	308.88	292.81	287.62	294.19	290.12	283.31	283.69	277.75	280.81	281.56	284.88	292.38	292.75	290.56	291.06	295.44	294.75	298.50	291.31	287.50	288.81	289.06	293.06	297.69	296.62	289.50	288.12	289.38	290.19	294.06	292.31	287.44	286.62	284.62	282.56	282.12	283.38	282.44	282.12	281.56	280.44	280.88	282.12	280.50	279.38	279.00	276.25	275.38	276.12	273.44	266.56	265.00	265.00	265.00	265.00	265.00	265.00	265.00	265.00	265.00	265.00	265.00	265.00	265.00	265.00	265.00	265.00	265.19	269.56	266.69	265.00	265.00	265.00
190.88	157.62	128.94	95.94	143.00	206.88	302.19	307.50	197.81	186.62	193.94	204.50	221.88	337.31	428.19	564.12	652.50	532.81	553.69	472.94	461.69	506.00	621.12	819.25	911.56	744.12	888.38	861.19	761.06	671.12	639.50	615.38	594.56	583.38	573.25	560.25	544.50	528.44	518.38	520.31	517.56	511.38	521.06	521.38	521.06	520.06	511.38	498.31	489.25	481.31	493.62	508.81	515.62	515.06	503.31	495.88	496.06	497.31	482.81	444.69	432.69	419.44	433.44	434.12	434.25	440.00	444.75	453.50	459.25	451.12	434.56	399.19	377.50	356.88	340.81	348.56	350.69	343.50	338.38	327.25	303.81	305.88	293.62	290.06	281.50	284.50	286.94	298.56	312.75	314.56	307.94	310.12	313.50	307.75	297.69	292.75	291.94	289.25	293.75	294.31	296.56	294.44	292.88	296.81	298.12	290.00	293.69	296.69	299.69	296.50	291.94	295.44	295.31	298.56	299.12	300.19	300.38	305.31	306.94	308.88	306.44	309.94	314.19	315.94	315.69	313.44	318.38	320.38	318.88	319.75	323.12	325.50	327.31	328.75	329.44	332.94	333.75	334.94	336.75	340.62	340.69	341.62	342.25	344.94	347.44	346.69	348.06	349.19	350.56	350.56	350.19	353.50	358.31	358.62	357.75	357.06	359.25	360.94	363.12	362.94	362.62	362.81	368.19	373.62	376.75	381.81	387.44	391.81	393.75	399.75	399.94	393.12	372.25	363.56	369.38	355.62	361.00	346.12	326.94	323.50	319.25	313.50	307.56	305.50	299.00	287.88	283.12	287.31	283.44	278.00	275.75	281.19	284.81	278.94	275.94	283.31	284.25	293.19	288.12	288.75	295.69	290.12	290.44	285.50	297.88	290.06	288.81	293.38	292.75	287.75	288.25	292.50	298.31	297.81	288.31	283.81	285.75	282.81	283.31	287.75	284.25	284.50	281.56	279.31	279.38	280.06	279.06	277.50	276.56	273.31	271.88	273.25	270.62	265.44	265.00	265.00	265.00	265.00	265.00	265.00	265.00	265.00	265.00	265.00	265.00	265.00	265.25	265.00	265.00	265.00	265.00	266.12	267.88	265.50	265.00	265.00
181.38	175.19	145.06	105.38	119.94	289.56	383.50	236.06	200.31	187.44	190.19	202.50	222.88	297.06	327.38	400.25	446.25	406.31	420.62	426.31	518.19	617.62	570.56	695.00	829.62	824.25	857.94	825.25	814.00	701.94	639.50	615.12	594.44	581.38	574.31	556.81	540.44	513.94	505.81	523.25	524.06	527.81	539.38	542.00	536.62	530.31	521.88	502.38	474.31	465.31	479.94	496.94	497.88	491.12	485.56	458.12	444.06	427.50	412.81	408.56	418.50	416.50	424.94	430.06	429.62	431.12	440.06	452.38	459.81	452.56	434.12	406.62	389.00	369.25	356.94	355.56	356.50	349.25	338.31	316.44	312.38	308.69	302.50	295.25	288.81	310.25	292.69	278.62	295.75	315.94	305.50	304.75	306.94	306.88	293.38	291.25	290.12	292.75	290.56	290.81	294.25	293.50	293.00	297.62	296.12	294.25	291.81	298.38	299.38	299.88	298.62	302.19	298.69	298.12	300.00	302.31	304.44	306.94	311.06	311.94	311.31	311.38	315.38	317.94	320.06	315.38	317.19	319.00	321.25	321.88	325.50	329.12	330.69	332.44	332.50	334.12	338.00	339.00	340.62	343.94	345.94	346.62	348.06	349.56	352.50	355.06	355.56	355.81	354.44	355.94	358.88	359.25	363.75	366.31	365.50	363.31	366.75	369.81	370.06	370.88	370.81	370.00	372.75	378.25	382.31	386.88	392.00	398.31	401.00	400.31	401.19	402.62	387.75	366.56	362.56	358.44	349.06	349.31	330.31	322.00	316.31	312.12	306.62	304.38	297.31	288.31	280.62	278.31	280.88	278.06	272.31	273.44	276.00	281.75	274.44	277.44	281.06	288.12	289.88	283.19	287.56	287.25	288.62	286.31	288.62	292.31	289.50	289.81	289.81	287.31	289.06	291.62	305.44	295.62	283.69	282.00	281.75	281.50	283.69	285.88	284.25	282.94	280.06	278.38	275.69	277.19	276.69	275.81	273.62	272.06	269.88	269.56	268.50	265.38	265.00	265.00	265.00	265.00	265.00	265.00	265.00	265.00	265.00	265.00	265.00	265.00	265.25	265.06	266.06	265.00	265.00	265.00	265.25	265.00	265.00	265.00
181.56	176.62	149.06	118.00	100.94	331.88	341.75	218.25	203.94	194.81	185.50	199.56	219.44	266.81	362.25	418.19	452.31	559.56	546.25	495.88	492.12	505.62	525.50	581.44	744.38	785.62	753.81	848.44	907.62	716.94	628.31	605.19	585.94	567.44	568.25	563.50	542.25	516.75	499.38	526.62	535.94	539.88	545.62	546.50	541.81	536.00	529.25	514.19	474.12	448.06	470.25	477.19	470.94	451.25	446.12	420.88	398.12	399.62	407.50	411.00	425.94	423.00	426.25	430.06	425.75	425.81	436.81	452.81	457.88	451.62	432.00	412.69	395.69	380.81	368.81	359.69	362.31	353.56	341.50	319.94	311.62	314.69	308.75	302.69	283.31	299.62	299.94	278.88	294.62	304.69	296.88	289.06	299.19	299.44	294.56	295.75	291.31	291.25	297.75	294.44	293.44	293.38	294.31	297.69	293.75	290.62	296.38	300.50	305.38	306.75	302.12	305.31	304.38	298.44	300.12	302.69	307.31	309.69	313.69	316.50	316.44	313.94	316.25	318.88	321.88	321.62	319.50	316.88	321.94	324.25	326.44	331.50	332.75	335.75	336.81	337.19	340.38	341.44	343.69	346.25	349.31	350.69	352.62	353.81	356.06	360.00	361.88	362.50	360.56	359.56	363.19	365.75	368.44	373.19	372.56	369.81	372.31	376.00	375.94	378.19	378.00	377.75	378.00	383.69	388.06	390.12	396.69	402.12	406.19	406.69	403.00	401.00	392.62	378.31	363.06	359.31	341.38	347.50	336.06	321.81	313.88	309.06	304.56	297.00	292.56	287.56	282.44	276.94	276.44	274.25	274.88	271.56	272.62	276.31	275.06	277.50	280.25	282.06	287.38	282.88	283.69	285.56	283.12	287.88	288.69	286.81	286.06	287.62	288.06	288.44	287.19	291.50	291.38	284.19	281.12	279.56	277.69	279.38	282.38	283.19	282.00	281.25	278.81	275.94	273.50	274.12	275.31	275.62	272.88	271.81	268.56	265.75	265.31	265.00	265.00	265.00	265.00	265.00	265.00	265.00	265.00	265.00	265.00	265.00	265.00	265.00	265.00	265.06	265.25	265.00	265.00	265.00	265.00	265.00	265.00	265.00
184.44	169.94	155.38	134.88	92.31	234.62	263.69	213.81	205.62	200.00	180.88	187.50	206.94	238.00	364.25	463.69	514.50	571.38	677.69	739.00	677.38	658.12	640.56	613.75	634.81	703.31	728.75	873.94	875.19	684.62	599.06	565.44	556.00	548.19	544.06	558.31	540.12	510.31	488.88	521.50	539.69	543.69	546.19	545.00	540.94	536.94	525.69	517.00	483.75	434.19	428.00	426.00	411.06	407.12	391.06	371.06	387.00	396.56	410.50	408.75	424.06	425.94	423.06	423.88	422.94	422.44	434.25	449.00	453.06	450.81	442.06	421.44	403.50	392.88	385.62	375.50	368.44	361.94	350.31	316.69	312.00	321.25	316.31	309.50	299.00	291.38	295.75	280.19	283.62	284.50	289.88	288.19	284.50	290.19	290.44	292.25	291.88	292.62	296.00	299.00	299.31	300.81	298.75	296.44	297.69	302.44	302.44	308.25	313.62	316.38	304.69	307.19	309.06	303.00	300.50	302.38	307.81	312.06	316.56	320.44	322.12	318.62	317.69	321.06	324.56	325.75	327.94	322.75	319.25	324.19	330.31	332.69	334.25	338.44	341.50	342.31	341.94	344.44	347.50	349.94	352.38	355.81	357.12	360.38	360.38	364.50	369.75	370.19	367.62	365.19	368.69	373.50	376.12	380.25	381.00	378.94	380.06	384.19	385.44	386.50	387.19	386.62	386.12	388.25	395.12	397.62	403.06	408.75	412.62	411.56	406.06	398.75	393.81	385.56	367.19	351.62	341.38	336.88	343.06	324.31	312.44	304.06	302.69	296.38	291.50	287.94	280.56	279.25	274.25	271.12	271.00	273.62	275.75	273.31	272.62	275.31	277.19	278.56	282.12	280.88	281.69	286.94	281.50	287.19	288.06	285.75	284.75	280.31	282.94	283.81	286.88	285.00	281.75	282.44	280.50	277.81	275.12	276.44	279.12	279.88	280.06	279.88	278.50	278.62	274.56	273.44	274.62	275.19	275.56	274.94	271.75	267.31	266.44	268.62	266.25	265.00	265.00	265.00	265.00	265.00	265.00	265.06	265.00	265.00	265.00	265.00	265.00	265.00	265.00	265.00	265.00	265.00	265.00	265.00	265.00	265.00
