1483.38	1500.94	1619.69	1509.75	1254.38	1021.56	1016.00	1168.50	1324.75	1412.88	1481.88	1543.94	1509.88	1460.31	1455.38	1234.81	1021.44	1261.69	1321.38	1190.94	1077.44	944.69	860.81	792.19	691.75	629.25	573.00	509.50	476.75	436.31	385.44	356.00	321.00	297.50	287.12	292.88	297.94	301.75	300.00	289.62	281.06	302.31	335.31	371.38	391.94	388.19	406.25	509.19	487.31	616.69	759.12	577.44	460.94	809.94	816.56	1051.94	1055.12	1150.88	1824.06	1617.31	1816.69	1769.31	2559.62	2590.50	2468.25	2786.50	2715.12	2923.12	2703.50	2640.50	2586.62	2460.19	2880.12	2814.81	2519.06	2350.06	2294.38	2507.75	2706.00	2768.56	3148.50	3344.00	3295.12	3035.12	3401.62	3556.00	3183.31	3026.44	2884.56	2625.00	2960.62	3086.56	3253.94	3360.81	3546.62	3402.38	3472.44	3546.44	3355.75	3250.06	2947.94	3242.12	2866.25	2764.44	2885.31	2827.88	2615.25	2591.69	2588.94	2424.12	2314.94	2142.56	2053.00	2110.56	2315.69	2313.19	2371.94	2335.81	2299.50	2324.38	2259.69	2482.88	2673.25	2412.56	2155.31	1929.06	1758.88	1722.25	1441.25	1229.31	1084.94	1028.06	1172.44	1246.75	1436.62	1178.81	1062.44	948.50	725.88	586.50	438.06	315.69	249.44	254.69	204.50	213.94	189.44	131.62	120.50	95.94	39.44	28.75	21.00	7.12	0.00	-8.06	-6.62	-9.69	-12.50	-18.31	-24.31	-27.00	-27.00	-27.00	-27.00	-27.00	-27.00	-27.00	-27.00	-27.00	-27.00	-27.00	-27.00	-27.00	-27.00	-27.00	-27.00	-27.00	-27.00	-27.00	-27.00	-27.00	-27.00	-27.00	-27.00	-27.00	-27.00	-27.00	-27.00	-27.00	-27.00	-27.00	-27.00	-27.00	-27.00	-27.00	-27.00	-27.00	-27.00	-27.00	-27.00	-27.00	-27.00	-27.00	-27.00	-27.00	-27.00	-27.00	-27.00	-27.00	-27.00	-27.00	-27.00	-27.00	-27.00	-27.00	-27.00	-27.00	-27.00	-27.00	-27.00	-27.00	-27.00	-27.00	-27.00	-27.00	-27.00	-27.00	-27.00	-27.00	-27.00	-27.00	-27.00	-27.00	-27.00	-27.00	-27.00	-27.00	-27.00	-27.00	-27.00	-27.00	-27.00	-27.00	-27.00	-27.00	-27.00	-27.00	-27.00	-27.00	-27.00	-27.00	-27.00	-27.00	-27.00	-27.00
1304.69	1409.88	1437.62	1268.06	1131.62	996.25	1021.25	1257.81	1235.50	1240.44	1281.81	1500.12	1681.19	1552.44	1385.31	1191.69	1194.12	1421.25	1625.00	1420.25	1221.94	1054.19	939.38	840.56	804.25	758.69	673.56	598.69	543.38	479.50	434.19	401.44	350.44	317.06	289.25	276.25	277.12	281.75	279.88	274.31	275.00	294.94	315.81	338.62	354.81	340.50	349.25	398.31	440.25	471.31	450.94	503.25	415.81	504.25	574.06	849.19	768.62	1221.81	1235.25	1195.44	1341.88	1784.75	2164.00	2214.62	1840.25	2488.25	2588.00	2504.12	2102.56	2228.69	2539.81	2360.50	2611.38	2842.94	2833.31	2720.44	2505.88	2778.38	2788.38	3103.75	3337.19	2967.12	3013.38	2756.31	3124.19	3197.75	3307.81	3169.56	3189.56	2779.56	2533.00	2834.62	3179.94	3026.94	3279.38	3377.38	3200.88	3381.00	3493.94	3227.94	3159.06	3432.00	2973.19	3015.69	3159.56	3114.06	2797.38	2632.75	2465.62	2463.00	2359.50	2346.50	2338.00	2331.19	2390.50	2340.12	2332.12	2311.25	2343.81	2220.81	2107.62	2323.81	2596.00	2607.75	2404.44	2145.94	1847.69	1556.81	1471.25	1252.19	1157.19	1250.38	1487.19	1565.56	1515.62	1343.12	1216.19	1137.50	766.50	600.19	469.62	386.31	301.12	217.06	218.19	180.50	183.75	126.50	83.25	88.56	53.62	35.19	30.56	18.25	12.56	4.44	3.06	2.12	-1.31	-3.38	-10.19	-23.75	-27.00	-27.00	-27.00	-27.00	-27.00	-27.00	-27.00	-27.00	-27.00	-27.00	-27.00	-27.00	-27.00	-27.00	-27.00	-27.00	-27.00	-27.00	-27.00	-27.00	-27.00	-27.00	-27.00	-27.00	-27.00	-27.00	-27.00	-27.00	-27.00	-27.00	-27.00	-27.00	-27.00	-27.00	-27.00	-27.00	-27.00	-27.00	-27.00	-27.00	-27.00	-27.00	-27.00	-27.00	-27.00	-27.00	-27.00	-27.00	-27.00	-27.00	-27.00	-27.00	-27.00	-27.00	-27.00	-27.00	-27.00	-27.00	-27.00	-27.00	-27.00	-27.00	-27.00	-27.00	-27.00	-27.00	-27.00	-27.00	-27.00	-27.00	-27.00	-27.00	-27.00	-27.00	-27.00	-27.00	-27.00	-27.00	-27.00	-27.00	-27.00	-27.00	-27.00	-27.00	-27.00	-27.00	-27.00	-27.00	-27.00	-27.00	-27.00	-27.00	-27.00	-27.00
1455.88	1452.12	1398.94	1276.62	1224.25	1048.00	955.81	1027.62	1064.44	1121.81	1190.31	1382.81	1567.69	1468.69	1320.38	1215.50	1253.25	1594.88	1729.50	1437.25	1199.12	967.62	886.38	834.25	958.12	892.81	774.31	668.44	590.06	526.31	476.19	427.69	369.50	336.56	302.94	277.00	267.12	268.19	266.75	263.62	267.81	282.31	300.38	318.69	327.19	319.69	325.25	348.56	350.75	408.69	366.75	386.12	387.75	425.25	535.94	573.44	681.62	1016.88	873.19	956.62	1325.94	1706.50	1910.69	1703.62	1851.19	2301.50	2231.12	1953.94	1866.69	1946.88	2581.19	2399.12	2884.50	2875.81	3102.69	2684.00	2702.81	2978.94	2999.62	3227.81	3318.25	2834.12	2842.75	2667.38	2990.81	2844.31	3110.75	3467.62	3078.25	2742.12	2459.81	2738.69	3115.75	2880.00	3023.44	3282.19	3075.81	3066.12	3221.81	3424.50	3322.81	3419.44	3117.25	3038.75	3425.88	3303.81	3086.56	2702.44	2539.00	2395.88	2436.69	2597.75	2407.19	2349.94	2330.12	2276.75	2315.25	2237.31	2347.75	2096.38	2029.50	2207.88	2500.56	2674.12	2599.50	2305.38	1978.56	1676.12	1505.19	1372.06	1295.06	1498.25	1662.44	1654.06	1425.19	1220.75	1249.38	1257.31	865.94	652.38	484.88	371.06	295.69	234.75	188.19	203.81	168.81	125.31	117.38	126.50	88.06	49.00	39.62	29.00	23.44	17.19	15.25	10.31	5.56	7.06	2.44	-9.12	-24.88	-27.00	-27.00	-27.00	-27.00	-27.00	-27.00	-27.00	-27.00	-27.00	-27.00	-27.00	-27.00	-27.00	-27.00	-27.00	-27.00	-27.00	-27.00	-27.00	-27.00	-27.00	-27.00	-27.00	-27.00	-27.00	-27.00	-27.00	-27.00	-27.00	-27.00	-27.00	-27.00	-27.00	-27.00	-27.00	-27.00	-27.00	-27.00	-27.00	-27.00	-27.00	-27.00	-27.00	-27.00	-27.00	-27.00	-27.00	-27.00	-27.00	-27.00	-27.00	-27.00	-27.00	-27.00	-27.00	-27.00	-27.00	-27.00	-27.00	-27.00	-27.00	-27.00	-27.00	-27.00	-27.00	-27.00	-27.00	-27.00	-27.00	-27.00	-27.00	-27.00	-27.00	-27.00	-27.00	-27.00	-27.00	-27.00	-27.00	-27.00	-27.00	-27.00	-27.00	-27.00	-27.00	-27.00	-27.00	-27.00	-27.00	-27.00	-27.00	-27.00	-27.00
1484.69	1560.88	1636.44	1655.81	1477.31	1129.06	931.56	1006.31	1135.94	1193.25	1215.19	1340.31	1512.19	1496.38	1383.06	1400.75	1434.88	1626.38	1713.06	1324.56	1077.31	1159.62	1118.38	960.81	1067.56	1043.00	865.69	789.00	691.94	604.00	520.19	460.06	410.88	364.19	320.94	294.06	275.62	260.31	255.00	253.62	257.19	267.44	280.56	290.62	295.19	292.12	283.62	295.38	298.69	341.44	334.38	345.75	354.81	420.19	500.00	430.81	642.88	725.38	657.38	984.94	1242.38	1196.50	1481.06	1318.94	1900.50	1983.12	1727.62	1613.81	1486.50	1872.44	2618.25	2605.94	2893.44	3058.62	3014.50	2847.38	2827.50	2948.12	2999.12	2682.12	3059.94	2844.81	2545.00	2470.12	2519.88	2568.38	3020.06	3419.56	3257.94	3087.06	2441.31	2825.00	3069.06	2851.00	2564.69	2873.12	3096.50	2780.25	3004.38	3269.94	3172.69	3244.56	3298.75	3072.25	3538.81	3458.88	3158.06	2887.12	2620.38	2565.69	2351.69	2644.62	2549.88	2274.62	2298.50	2191.50	2252.94	2216.00	2298.00	2213.00	1952.81	2059.62	2409.88	2585.31	2644.00	2315.25	2092.25	1949.81	1748.56	1528.44	1387.00	1464.69	1587.25	1485.81	1427.38	1095.44	1170.00	1091.00	1109.50	724.06	539.00	414.69	315.62	253.44	210.81	168.06	142.88	134.69	122.31	115.94	100.50	75.25	54.31	46.56	39.12	36.44	27.44	20.56	18.88	19.44	15.38	7.06	-3.94	-23.44	-27.00	-27.00	-27.00	-27.00	-27.00	-27.00	-27.00	-27.00	-27.00	-27.00	-27.00	-27.00	-27.00	-27.00	-27.00	-27.00	-27.00	-27.00	-27.00	-27.00	-27.00	-27.00	-27.00	-27.00	-27.00	-27.00	-27.00	-27.00	-27.00	-27.00	-27.00	-27.00	-27.00	-27.00	-27.00	-27.00	-27.00	-27.00	-27.00	-27.00	-27.00	-27.00	-27.00	-27.00	-27.00	-27.00	-27.00	-27.00	-27.00	-27.00	-27.00	-27.00	-27.00	-27.00	-27.00	-27.00	-27.00	-27.00	-27.00	-27.00	-27.00	-27.00	-27.00	-27.00	-27.00	-27.00	-27.00	-27.00	-27.00	-27.00	-27.00	-27.00	-27.00	-27.00	-27.00	-27.00	-27.00	-27.00	-27.00	-27.00	-27.00	-27.00	-27.00	-27.00	-27.00	-27.00	-27.00	-27.00	-27.00	-27.00	-27.00	-27.00
1176.81	1279.75	1330.31	1399.44	1254.12	1065.88	864.81	893.06	1000.38	1132.12	1142.31	1342.38	1319.38	1507.50	1622.06	1751.25	1790.88	1693.94	1502.88	1230.62	1248.00	1378.81	1212.44	1133.56	1134.00	972.44	899.00	850.06	836.31	711.12	601.31	522.31	440.25	383.25	344.88	318.25	292.00	265.81	257.06	251.00	248.88	254.12	260.31	266.56	270.44	268.62	264.06	267.81	271.62	287.44	303.50	318.06	328.50	395.06	364.81	381.25	412.00	473.69	599.88	716.81	996.25	907.06	992.50	1347.81	1800.75	1727.88	1365.75	1260.50	1325.75	1816.88	2534.25	2825.00	2833.94	3129.88	2935.25	2808.31	2543.62	2801.00	2869.50	2365.25	2904.31	2958.38	2761.12	2598.12	2459.19	2513.12	2716.12	3055.62	2942.25	3129.12	2420.56	3085.50	3202.38	2893.00	2488.62	2388.56	2608.81	2713.69	2687.25	2729.94	2833.31	3313.56	3288.50	3126.88	3292.94	3529.12	3230.75	2957.31	2729.25	2480.12	2345.00	2347.88	2617.75	2391.44	2147.81	2174.25	2287.25	2013.50	2193.25	2316.44	2055.62	1964.44	2340.75	2495.19	2655.75	2602.50	2238.12	2110.62	1880.81	1596.69	1393.25	1293.88	1428.62	1453.44	1241.31	1056.56	922.62	981.50	1166.75	895.44	553.75	431.19	363.56	333.25	286.12	208.62	170.44	190.62	149.56	112.12	98.62	85.19	94.56	74.94	61.50	53.62	42.38	39.12	33.44	29.81	27.06	15.25	10.38	0.75	-18.62	-27.00	-27.00	-27.00	-27.00	-27.00	-27.00	-27.00	-27.00	-27.00	-27.00	-27.00	-27.00	-27.00	-27.00	-27.00	-27.00	-27.00	-27.00	-27.00	-27.00	-27.00	-27.00	-27.00	-27.00	-27.00	-27.00	-27.00	-27.00	-27.00	-27.00	-27.00	-27.00	-27.00	-27.00	-27.00	-27.00	-27.00	-27.00	-27.00	-27.00	-27.00	-27.00	-27.00	-27.00	-27.00	-27.00	-27.00	-27.00	-27.00	-27.00	-27.00	-27.00	-27.00	-27.00	-27.00	-27.00	-27.00	-27.00	-27.00	-27.00	-27.00	-27.00	-27.00	-27.00	-27.00	-27.00	-27.00	-27.00	-27.00	-27.00	-27.00	-27.00	-27.00	-27.00	-27.00	-27.00	-27.00	-27.00	-27.00	-27.00	-27.00	-27.00	-27.00	-27.00	-27.00	-27.00	-27.00	-27.00	-27.00	-27.00	-27.00
979.38	1072.75	1162.69	1206.25	1101.88	1001.50	893.56	894.31	928.25	978.62	1041.00	1135.62	1306.31	1555.88	1758.62	1812.06	1697.62	1627.50	1410.19	1256.31	1427.88	1400.69	1381.00	1350.69	1155.44	1044.25	943.81	1041.81	956.31	784.00	696.31	593.31	476.50	412.06	376.38	334.62	304.12	278.25	262.81	250.62	242.31	243.06	244.81	248.31	251.62	249.56	247.62	249.06	258.38	269.62	281.31	292.62	356.38	356.94	327.56	340.06	370.62	396.38	405.44	494.50	653.56	692.25	1264.62	1589.31	1689.44	1726.69	1380.12	1076.62	1637.94	1749.50	2188.25	2842.44	2795.00	2600.19	2328.81	2391.38	2176.62	2587.88	2166.50	2225.25	3046.94	2948.19	3018.56	3040.75	2755.38	2355.06	2385.88	2904.62	2716.75	2834.75	2284.88	2765.69	3105.81	2920.38	2689.19	2428.69	2225.94	2374.25	2527.19	2330.25	2822.62	3168.38	3384.19	3455.12	3293.12	3484.94	3309.50	3114.81	3015.88	2617.00	2390.06	2192.56	2334.06	2492.69	2205.31	2049.69	2243.25	2098.75	1928.81	2291.19	2208.94	1840.69	2064.69	2372.06	2450.94	2622.00	2478.81	2084.19	1796.31	1711.94	1406.81	1225.19	1285.31	1435.44	1249.75	1211.81	986.88	887.44	926.38	940.19	546.81	408.19	333.69	327.00	280.38	209.25	250.00	227.56	174.12	126.81	128.38	131.12	108.94	104.38	84.00	75.12	61.31	57.38	51.19	45.62	39.62	31.19	23.88	14.00	5.38	-14.19	-27.00	-27.00	-27.00	-27.00	-27.00	-27.00	-27.00	-27.00	-27.00	-27.00	-27.00	-27.00	-27.00	-27.00	-27.00	-27.00	-27.00	-27.00	-27.00	-27.00	-27.00	-27.00	-27.00	-27.00	-27.00	-27.00	-27.00	-27.00	-27.00	-27.00	-27.00	-27.00	-27.00	-27.00	-27.00	-27.00	-27.00	-27.00	-27.00	-27.00	-27.00	-27.00	-27.00	-27.00	-27.00	-27.00	-27.00	-27.00	-27.00	-27.00	-27.00	-27.00	-27.00	-27.00	-27.00	-27.00	-27.00	-27.00	-27.00	-27.00	-27.00	-27.00	-27.00	-27.00	-27.00	-27.00	-27.00	-27.00	-27.00	-27.00	-27.00	-27.00	-27.00	-27.00	-27.00	-27.00	-27.00	-27.00	-27.00	-27.00	-27.00	-27.00	-27.00	-27.00	-27.00	-27.00	-27.00	-27.00	-27.00	-27.00
880.00	935.44	1031.00	1022.75	1004.94	957.31	867.50	830.50	833.00	889.38	986.19	1100.94	1323.94	1514.88	1473.56	1614.38	1652.25	1544.69	1416.81	1414.44	1378.88	1178.00	1205.50	1221.69	1276.44	1228.25	1045.44	960.81	859.56	891.06	814.44	625.06	533.44	452.44	379.44	338.25	314.75	287.88	265.75	251.94	240.94	236.75	235.31	236.50	238.31	236.38	235.25	238.81	245.88	252.25	261.94	269.44	266.44	280.69	292.12	308.06	332.88	347.56	362.06	405.44	511.56	792.06	1036.19	1347.31	1257.38	1458.75	1123.38	1129.88	1289.25	1497.12	1899.94	2472.00	2498.50	2133.19	1750.38	1979.25	1936.75	2152.56	1785.44	2435.38	3030.81	2945.88	3205.62	2802.25	2729.56	2598.81	2383.12	2471.62	2438.94	2874.69	2504.56	2409.25	2869.56	3210.81	3025.69	2877.62	2574.31	2184.00	2589.81	2356.25	2390.44	2746.88	3249.19	3383.62	3004.75	3181.38	3445.25	3392.81	3321.94	2857.00	2620.62	2336.31	2121.25	2383.12	2417.25	2018.19	2061.38	1964.50	1869.69	2096.94	2163.50	1878.81	1837.44	2233.00	2257.75	2428.12	2424.00	2186.56	1851.06	1575.56	1412.56	1203.69	1160.06	1304.00	1210.31	1349.69	1178.56	960.50	772.12	849.56	608.31	407.62	340.62	299.62	257.62	271.06	330.81	275.06	194.38	151.56	158.62	157.06	132.81	124.50	101.75	107.69	91.94	78.94	71.56	65.44	57.38	49.25	35.44	27.00	15.50	6.81	-18.38	-27.00	-27.00	-27.00	-27.00	-27.00	-27.00	-27.00	-27.00	-27.00	-27.00	-27.00	-27.00	-27.00	-27.00	-27.00	-27.00	-27.00	-27.00	-27.00	-27.00	-27.00	-27.00	-27.00	-27.00	-27.00	-27.00	-27.00	-27.00	-27.00	-27.00	-27.00	-27.00	-27.00	-27.00	-27.00	-27.00	-27.00	-27.00	-27.00	-27.00	-27.00	-27.00	-27.00	-27.00	-27.00	-27.00	-27.00	-27.00	-27.00	-27.00	-27.00	-27.00	-27.00	-27.00	-27.00	-27.00	-27.00	-27.00	-27.00	-27.00	-27.00	-27.00	-27.00	-27.00	-27.00	-27.00	-27.00	-27.00	-27.00	-27.00	-27.00	-27.00	-27.00	-27.00	-27.00	-27.00	-27.00	-27.00	-27.00	-27.00	-27.00	-27.00	-27.00	-27.00	-27.00	-27.00	-27.00	-27.00	-27.00
797.75	844.75	934.31	913.88	934.19	909.31	858.62	790.31	838.38	912.81	1048.88	1191.06	1232.00	1223.00	1349.94	1479.62	1513.00	1519.75	1443.88	1415.31	1417.44	1113.06	1072.88	1162.06	1102.50	1199.19	1223.19	1063.94	859.81	725.38	644.12	648.75	590.88	497.06	410.62	357.88	334.38	300.94	273.88	254.56	240.50	233.94	230.88	230.81	230.62	228.12	227.44	232.00	241.75	239.19	245.19	248.88	248.31	253.25	264.75	278.44	297.00	309.62	329.25	341.69	344.00	643.94	681.69	972.50	887.88	1180.69	923.75	935.00	1319.50	1810.62	2114.12	1850.31	2093.19	1818.12	1577.81	1827.88	1765.75	1688.44	1694.75	2029.38	2455.50	3122.69	2966.94	2929.19	2814.88	2960.88	2780.31	2352.00	2224.44	2612.38	2805.62	2239.31	2667.94	3118.25	2959.56	2978.62	2684.31	2264.12	2362.50	2551.25	2238.12	2594.56	3144.12	3412.81	2836.56	2989.38	3515.06	3448.38	3437.69	3296.50	2861.31	2454.81	2198.81	2146.69	2314.50	2028.50	1909.81	1836.94	1801.44	1767.88	1796.19	1827.00	1691.25	1981.56	2144.38	2322.19	2354.69	1965.50	1861.88	1628.25	1389.25	1222.25	1071.38	1220.56	1238.31	1098.94	1238.19	925.25	776.19	713.12	683.69	501.81	456.94	353.06	289.44	294.94	293.75	283.75	233.69	204.00	174.38	184.62	166.38	142.94	125.88	130.81	119.81	101.69	93.81	84.94	73.44	62.75	50.69	40.50	28.38	14.81	-2.81	-21.69	-27.00	-27.00	-27.00	-27.00	-27.00	-27.00	-27.00	-27.00	-27.00	-27.00	-27.00	-27.00	-27.00	-27.00	-27.00	-27.00	-27.00	-27.00	-27.00	-27.00	-27.00	-27.00	-27.00	-27.00	-27.00	-27.00	-27.00	-27.00	-27.00	-27.00	-27.00	-27.00	-27.00	-27.00	-27.00	-27.00	-27.00	-27.00	-27.00	-27.00	-27.00	-27.00	-27.00	-27.00	-27.00	-27.00	-27.00	-27.00	-27.00	-27.00	-27.00	-27.00	-27.00	-27.00	-27.00	-27.00	-27.00	-27.00	-27.00	-27.00	-27.00	-27.00	-27.00	-27.00	-27.00	-27.00	-27.00	-27.00	-27.00	-27.00	-27.00	-27.00	-27.00	-27.00	-27.00	-27.00	-27.00	-27.00	-27.00	-27.00	-27.00	-27.00	-27.00	-27.00	-27.00	-27.00	-27.00	-27.00
730.50	772.50	817.56	842.44	921.31	901.38	821.75	751.56	810.69	938.69	978.56	1055.69	1148.56	1102.12	1037.38	1164.94	1162.25	1182.38	1129.69	1057.62	1122.56	1016.31	907.50	1016.56	1092.31	1033.25	1051.12	978.50	760.56	798.62	710.94	666.56	647.50	608.62	495.38	402.50	355.62	308.62	274.88	253.62	239.62	231.31	229.12	232.06	227.94	224.19	222.62	225.69	227.94	228.69	232.12	232.56	232.50	235.38	242.19	251.75	265.25	277.94	287.50	293.25	286.56	384.19	435.69	682.38	682.00	1013.12	797.19	1007.06	1215.19	1481.12	1793.69	1404.56	1497.00	1266.12	1723.81	1425.38	1442.56	1572.81	2208.44	2424.75	2757.44	2550.94	2788.69	3015.19	2984.88	2828.88	2746.62	2814.12	2379.62	2434.69	2950.94	2194.50	2692.50	3015.31	3063.50	2844.56	2884.81	2387.44	2043.88	2374.00	2174.44	2502.69	2988.94	3279.94	2725.69	2771.06	3176.12	3366.06	3172.50	3466.75	3132.38	2715.31	2351.19	2100.44	2188.56	2408.94	2172.62	2215.00	1999.56	2002.69	1847.88	1736.06	1672.00	1723.56	2047.25	2203.62	2117.62	2069.00	1719.38	1531.00	1279.38	1193.56	1077.38	1027.81	1225.75	1069.38	1080.50	886.88	703.94	668.50	636.25	456.50	395.44	356.06	342.25	375.69	273.81	223.50	218.44	214.94	197.56	206.38	201.06	157.81	165.38	156.44	144.94	122.94	115.56	104.56	92.75	80.88	64.31	52.69	41.44	26.12	6.88	-0.44	-21.00	-27.00	-27.00	-27.00	-27.00	-27.00	-27.00	-27.00	-27.00	-27.00	-27.00	-27.00	-27.00	-27.00	-27.00	-27.00	-27.00	-27.00	-27.00	-27.00	-27.00	-27.00	-27.00	-27.00	-27.00	-27.00	-27.00	-27.00	-27.00	-27.00	-27.00	-27.00	-27.00	-27.00	-27.00	-27.00	-27.00	-27.00	-27.00	-27.00	-27.00	-27.00	-27.00	-27.00	-27.00	-27.00	-27.00	-27.00	-27.00	-27.00	-27.00	-27.00	-27.00	-27.00	-27.00	-27.00	-27.00	-27.00	-27.00	-27.00	-27.00	-27.00	-27.00	-27.00	-27.00	-27.00	-27.00	-27.00	-27.00	-27.00	-27.00	-27.00	-27.00	-27.00	-27.00	-27.00	-27.00	-27.00	-27.00	-27.00	-27.00	-27.00	-27.00	-27.00	-27.00	-27.00	-27.00	-27.00
681.44	710.44	760.12	836.12	838.38	843.94	806.44	727.69	751.75	843.94	867.81	874.38	959.75	990.12	849.69	906.12	886.44	906.75	874.38	858.94	860.75	939.38	833.00	818.50	1043.31	1104.56	912.12	830.12	758.75	815.81	714.69	804.38	774.94	658.94	575.81	477.62	400.38	332.00	280.56	250.06	237.88	230.88	226.81	225.88	228.56	224.75	221.81	222.31	220.81	221.69	222.62	221.69	222.75	222.88	230.56	233.56	244.50	253.12	256.19	261.94	264.50	294.00	330.25	433.12	535.56	742.44	660.56	862.81	1048.38	1450.38	1577.50	1486.44	1154.38	1109.62	1413.56	1183.31	1601.50	2061.38	2341.81	2727.12	2380.62	2100.38	2472.56	2815.25	2908.69	2860.88	3160.81	2922.62	2688.44	2226.25	2927.81	2185.31	2774.50	3170.38	2837.50	2823.62	3014.31	2469.00	2146.44	2123.50	2110.75	2364.56	2868.06	2762.81	2469.88	2788.69	3278.94	3328.69	2939.69	3545.31	3379.25	2885.50	2486.62	2309.00	2343.44	2721.56	2467.25	2422.25	2211.44	2236.75	2245.25	2140.44	1930.69	1638.38	1686.31	1719.75	1706.69	1635.69	1702.69	1392.69	1296.00	1379.69	1172.38	1045.88	987.31	1029.62	990.56	875.50	759.31	723.81	653.75	485.31	499.62	485.06	477.50	489.50	413.19	259.88	215.88	237.81	236.19	223.44	194.75	187.38	195.31	180.94	163.50	143.69	135.25	122.94	111.31	95.06	78.44	62.94	49.50	33.38	21.06	7.81	-8.81	-25.69	-27.00	-27.00	-27.00	-27.00	-27.00	-27.00	-27.00	-27.00	-27.00	-27.00	-27.00	-27.00	-27.00	-27.00	-27.00	-27.00	-27.00	-27.00	-27.00	-27.00	-27.00	-27.00	-27.00	-27.00	-27.00	-27.00	-27.00	-27.00	-27.00	-27.00	-27.00	-27.00	-27.00	-27.00	-27.00	-27.00	-27.00	-27.00	-27.00	-27.00	-27.00	-27.00	-27.00	-27.00	-27.00	-27.00	-27.00	-27.00	-27.00	-27.00	-27.00	-27.00	-27.00	-27.00	-27.00	-27.00	-27.00	-27.00	-27.00	-27.00	-27.00	-27.00	-27.00	-27.00	-27.00	-27.00	-27.00	-27.00	-27.00	-27.00	-27.00	-27.00	-27.00	-27.00	-27.00	-27.00	-27.00	-27.00	-27.00	-27.00	-27.00	-27.00	-27.00	-27.00	-27.00	-27.00
646.12	667.06	772.44	839.06	815.75	785.88	754.75	724.06	710.06	737.12	776.38	826.94	813.69	783.62	721.56	693.50	692.94	701.00	696.25	707.56	677.44	735.31	758.81	773.06	973.38	1137.06	941.56	864.44	811.88	809.94	742.12	776.56	834.31	742.75	672.81	598.81	499.25	386.50	304.81	256.06	237.88	231.62	226.50	224.06	223.00	222.25	219.44	217.50	217.44	216.50	219.19	215.81	215.56	216.12	218.06	220.56	228.50	232.94	237.19	242.88	260.56	287.38	318.81	358.75	400.62	487.81	624.31	809.25	1072.44	1254.00	1079.44	1394.50	1139.69	932.31	1067.00	1245.19	1655.75	1925.56	2262.31	2383.88	1937.12	1993.19	2337.88	2295.06	2955.69	3181.25	3146.00	3005.75	2772.94	2273.25	2762.25	2308.25	2385.81	3053.50	2716.75	2933.19	3108.25	2607.00	2522.44	1997.31	2234.56	2536.31	2515.44	2324.44	2427.25	2885.56	3132.88	3237.38	2724.81	3056.94	3350.38	3128.38	2806.88	2453.38	2346.69	2472.94	2440.69	2404.44	2438.38	2353.94	2607.00	2504.31	2296.38	1990.81	1875.12	1817.94	1774.88	1780.81	1604.00	1529.75	1729.00	1593.06	1342.19	1213.00	1081.81	938.31	898.31	933.81	832.06	721.31	721.38	645.94	631.56	572.88	513.06	468.94	433.12	342.56	290.69	304.31	285.44	231.94	210.50	218.62	222.38	204.31	179.62	164.19	153.69	143.44	126.69	109.25	92.38	72.19	57.56	41.44	25.75	10.38	-2.88	-16.75	-26.75	-27.00	-27.00	-27.00	-27.00	-27.00	-27.00	-27.00	-27.00	-27.00	-27.00	-27.00	-27.00	-27.00	-27.00	-27.00	-27.00	-27.00	-27.00	-27.00	-27.00	-27.00	-27.00	-27.00	-27.00	-27.00	-27.00	-27.00	-27.00	-27.00	-27.00	-27.00	-27.00	-27.00	-27.00	-27.00	-27.00	-27.00	-27.00	-27.00	-27.00	-27.00	-27.00	-27.00	-27.00	-27.00	-27.00	-27.00	-27.00	-27.00	-27.00	-27.00	-27.00	-27.00	-27.00	-27.00	-27.00	-27.00	-27.00	-27.00	-27.00	-27.00	-27.00	-27.00	-27.00	-27.00	-27.00	-27.00	-27.00	-27.00	-27.00	-27.00	-27.00	-27.00	-27.00	-27.00	-27.00	-27.00	-27.00	-27.00	-27.00	-27.00	-27.00	-27.00	-27.00	-27.00
602.94	627.62	705.75	798.62	808.75	777.12	740.81	716.31	689.62	684.88	702.50	728.56	735.19	679.00	645.31	631.69	602.94	573.81	567.06	565.06	553.75	584.75	647.75	710.06	894.19	1095.06	1008.31	896.75	864.31	811.25	862.69	863.88	800.75	772.50	832.50	805.12	666.56	485.19	369.94	294.88	252.69	236.56	229.75	225.25	223.19	221.44	217.50	213.62	217.88	213.00	215.44	210.50	210.25	209.75	210.12	213.62	218.31	221.75	227.94	237.56	255.94	281.81	308.38	339.00	369.56	471.69	602.44	780.38	1074.88	995.56	825.81	904.69	672.44	963.38	1540.69	1549.94	1652.00	1850.50	2123.44	2180.94	1573.00	1991.12	1836.06	2216.56	2734.12	3030.75	2938.25	2891.44	2678.50	2273.62	2342.19	2630.56	2276.81	3054.69	2706.31	2724.69	3028.12	2960.19	2674.12	2239.56	2023.12	2246.88	2133.81	2167.69	2679.88	2652.56	2913.50	3310.12	2741.88	2631.81	2986.56	3279.44	2916.31	2499.69	2221.69	2212.94	2178.69	2274.00	2348.62	2434.25	2517.62	2664.94	2413.38	2298.94	2107.56	2113.62	2238.75	2178.75	2045.00	1903.75	1866.38	1605.88	1312.88	1159.19	1062.94	1029.50	965.88	847.62	825.12	758.50	675.06	620.44	600.12	570.56	529.19	460.19	423.81	401.25	387.81	358.69	276.75	259.00	240.94	237.38	241.62	227.69	190.75	184.38	172.94	159.31	141.56	122.69	103.50	80.94	63.44	47.00	32.88	17.06	2.38	-8.06	-22.12	-27.00	-27.00	-27.00	-27.00	-27.00	-27.00	-27.00	-27.00	-27.00	-27.00	-27.00	-27.00	-27.00	-27.00	-27.00	-27.00	-27.00	-27.00	-27.00	-27.00	-27.00	-27.00	-27.00	-27.00	-27.00	-27.00	-27.00	-27.00	-27.00	-27.00	-27.00	-27.00	-27.00	-27.00	-27.00	-27.00	-27.00	-27.00	-27.00	-27.00	-27.00	-27.00	-27.00	-27.00	-27.00	-27.00	-27.00	-27.00	-27.00	-27.00	-27.00	-27.00	-27.00	-27.00	-27.00	-27.00	-27.00	-27.00	-27.00	-27.00	-27.00	-27.00	-27.00	-27.00	-27.00	-27.00	-27.00	-27.00	-27.00	-27.00	-27.00	-27.00	-27.00	-27.00	-27.00	-27.00	-27.00	-27.00	-27.00	-27.00	-27.00	-27.00	-27.00	-27.00	-27.00
565.88	599.06	650.81	732.25	772.62	759.44	726.19	704.19	689.19	665.81	660.00	688.75	713.81	628.62	598.62	591.62	574.94	556.69	543.88	532.94	534.12	560.25	595.56	648.75	735.50	930.06	1027.00	975.00	915.69	903.06	902.94	904.81	835.75	759.38	778.75	901.62	852.69	603.88	444.19	347.56	281.81	249.81	232.69	227.31	223.69	222.56	220.19	216.06	220.62	211.31	208.69	208.75	207.56	206.38	207.00	208.81	213.06	216.56	223.69	234.44	250.38	272.25	293.19	314.62	323.50	312.94	435.56	704.38	921.88	894.94	755.88	642.31	644.44	876.25	1473.38	1600.44	1545.50	1587.31	1850.94	1873.31	1445.44	1914.50	1797.00	1939.19	2431.88	2808.31	2707.19	2911.00	2833.38	2565.25	2096.31	2491.88	2271.31	2902.75	2874.88	2424.50	2789.44	3181.44	2618.88	2241.88	1827.62	2060.69	1989.94	2344.44	2500.69	2507.44	3057.00	3332.69	2858.06	2416.69	2829.50	3256.06	3093.62	2680.56	2329.06	2116.56	2101.19	2086.00	2275.88	2235.44	2336.06	2545.56	2568.12	2394.56	2378.50	2288.00	2115.81	2095.38	1942.81	1856.19	1838.94	1633.81	1325.62	1155.38	1070.31	1051.50	976.69	873.00	837.12	850.81	735.94	624.19	534.00	510.38	509.94	484.50	445.38	406.31	340.31	304.56	296.81	327.75	277.00	256.62	255.44	235.62	206.50	200.06	187.25	172.44	151.75	130.50	110.50	89.81	69.00	51.06	35.62	17.31	6.38	-6.00	-16.19	-26.94	-27.00	-27.00	-27.00	-27.00	-27.00	-27.00	-27.00	-27.00	-27.00	-27.00	-27.00	-27.00	-27.00	-27.00	-27.00	-27.00	-27.00	-27.00	-27.00	-27.00	-27.00	-27.00	-27.00	-27.00	-27.00	-27.00	-27.00	-27.00	-27.00	-27.00	-27.00	-27.00	-27.00	-27.00	-27.00	-27.00	-27.00	-27.00	-27.00	-27.00	-27.00	-27.00	-27.00	-27.00	-27.00	-27.00	-27.00	-27.00	-27.00	-27.00	-27.00	-27.00	-27.00	-27.00	-27.00	-27.00	-27.00	-27.00	-27.00	-27.00	-27.00	-27.00	-27.00	-27.00	-27.00	-27.00	-27.00	-27.00	-27.00	-27.00	-27.00	-27.00	-27.00	-27.00	-27.00	-27.00	-27.00	-27.00	-27.00	-27.00	-27.00	-27.00	-27.00	-27.00
530.56	559.50	589.31	653.44	730.88	733.56	707.25	695.81	715.25	723.75	703.62	755.06	866.31	722.56	608.56	575.75	554.62	541.62	530.88	519.75	521.75	543.81	559.69	574.94	632.69	718.81	873.31	898.38	834.56	800.38	755.69	768.38	792.62	785.12	760.31	858.81	954.19	700.81	559.56	467.94	336.50	275.56	239.06	229.56	226.75	222.62	218.19	216.31	215.94	212.00	209.44	207.69	205.62	203.38	203.62	204.94	208.38	211.50	216.38	225.69	240.94	257.56	271.62	284.75	289.00	283.69	370.00	426.88	526.00	792.38	710.06	506.75	791.69	981.31	1251.94	1069.88	1158.56	1165.56	1376.69	1252.62	1571.38	1484.62	1558.50	1797.50	2215.94	2296.81	2114.50	2655.31	2454.94	2358.69	2184.81	2043.44	2080.75	2303.75	2538.25	2387.06	2478.94	3140.50	2944.81	2583.62	2098.44	1730.50	1998.81	2205.12	2091.75	2417.06	2749.12	2808.69	2621.44	2364.69	2645.69	3035.62	3372.88	3016.56	2642.75	2259.75	1996.94	1934.19	2171.38	2162.31	2190.69	2212.38	2469.81	2450.06	2480.88	2323.50	2092.50	1991.38	1845.19	1673.56	1667.81	1656.62	1309.06	1188.38	1083.81	947.50	882.81	816.81	704.81	742.12	672.38	605.38	524.69	477.50	452.81	435.50	413.75	360.31	333.38	352.69	403.69	404.56	346.00	301.38	275.31	238.62	227.75	220.75	201.88	184.06	161.38	138.94	119.44	95.56	76.50	58.19	39.62	22.44	11.69	-2.88	-10.25	-22.75	-27.00	-27.00	-27.00	-27.00	-27.00	-27.00	-27.00	-27.00	-27.00	-27.00	-27.00	-27.00	-27.00	-27.00	-27.00	-27.00	-27.00	-27.00	-27.00	-27.00	-27.00	-27.00	-27.00	-27.00	-27.00	-27.00	-27.00	-27.00	-27.00	-27.00	-27.00	-27.00	-27.00	-27.00	-27.00	-27.00	-27.00	-27.00	-27.00	-27.00	-27.00	-27.00	-27.00	-27.00	-27.00	-27.00	-27.00	-27.00	-27.00	-27.00	-27.00	-27.00	-27.00	-27.00	-27.00	-27.00	-27.00	-27.00	-27.00	-27.00	-27.00	-27.00	-27.00	-27.00	-27.00	-27.00	-27.00	-27.00	-27.00	-27.00	-27.00	-27.00	-27.00	-27.00	-27.00	-27.00	-27.00	-27.00	-27.00	-27.00	-27.00	-27.00	-27.00	-27.00
505.62	516.44	539.31	588.06	676.62	722.00	700.69	674.44	757.25	824.25	768.69	742.38	832.81	772.81	656.69	597.31	558.94	533.88	523.00	510.69	506.31	521.88	529.44	538.50	640.25	641.75	748.19	728.31	655.00	649.25	645.75	674.06	700.69	730.06	730.25	837.44	927.00	676.62	695.06	613.19	473.31	334.88	263.19	233.25	226.06	221.81	218.62	214.69	211.44	211.00	212.81	210.75	206.88	203.31	201.88	201.75	204.44	206.69	211.06	218.88	228.31	239.56	249.50	260.00	260.94	259.31	248.19	256.31	354.88	446.19	505.38	422.88	523.25	834.00	883.06	751.56	843.38	1116.00	1077.00	1179.88	1532.88	1268.50	1912.62	1871.56	2081.56	1772.12	1698.81	2183.19	2613.12	2710.19	2483.00	2170.94	2134.38	1942.75	1932.06	2038.75	2214.75	2475.31	2759.00	2966.19	2416.06	1996.00	1741.75	1855.75	2188.56	2205.44	2595.31	2553.00	2218.31	2314.25	2835.69	3355.69	3419.38	3202.00	2847.31	2427.81	2139.56	2018.75	1888.38	2081.19	2083.81	2117.06	2046.44	2213.31	2550.75	2431.19	2188.00	1991.81	1889.94	1781.81	1628.81	1497.12	1475.06	1285.62	1093.12	947.12	856.19	804.75	753.31	835.88	703.06	613.44	528.25	468.31	444.75	419.19	403.31	412.81	422.69	422.94	397.88	382.75	411.38	334.69	283.38	254.44	246.38	234.00	210.81	191.06	167.25	143.62	123.06	99.56	79.81	63.50	40.56	23.25	14.44	3.50	-6.38	-16.44	-25.62	-27.00	-27.00	-27.00	-27.00	-27.00	-27.00	-27.00	-27.00	-27.00	-27.00	-27.00	-27.00	-27.00	-27.00	-27.00	-27.00	-27.00	-27.00	-27.00	-27.00	-27.00	-27.00	-27.00	-27.00	-27.00	-27.00	-27.00	-27.00	-27.00	-27.00	-27.00	-27.00	-27.00	-27.00	-27.00	-27.00	-27.00	-27.00	-27.00	-27.00	-27.00	-27.00	-27.00	-27.00	-27.00	-27.00	-27.00	-27.00	-27.00	-27.00	-27.00	-27.00	-27.00	-27.00	-27.00	-27.00	-27.00	-27.00	-27.00	-27.00	-27.00	-27.00	-27.00	-27.00	-27.00	-27.00	-27.00	-27.00	-27.00	-27.00	-27.00	-27.00	-27.00	-27.00	-27.00	-27.00	-27.00	-27.00	-27.00	-27.00	-27.00	-27.00	-27.00
475.75	484.31	503.12	566.62	673.88	724.81	679.06	647.00	750.81	896.19	833.19	769.06	803.56	797.75	729.44	663.81	595.44	540.69	516.75	506.12	499.88	494.62	501.50	507.31	556.06	541.62	571.88	534.25	523.94	525.88	552.75	578.88	617.06	648.12	667.12	749.38	829.12	765.62	811.62	782.81	660.44	468.00	317.38	235.81	225.94	221.44	217.69	215.12	212.19	210.25	208.38	211.81	211.12	209.50	204.50	200.06	200.62	202.25	205.81	210.62	216.81	224.50	232.00	239.00	239.88	238.81	240.81	259.06	290.25	330.56	362.31	381.81	479.06	580.19	627.38	604.31	748.31	789.44	876.25	970.06	1090.31	1468.50	1661.00	1600.25	1719.25	1451.56	1585.19	2326.81	2678.00	2611.31	2845.19	2607.50	2592.50	2563.31	2451.00	2139.19	1807.19	1821.31	2098.06	2512.69	2610.06	2491.69	2049.75	1713.94	1879.88	2112.31	2675.06	2464.88	1987.81	2429.38	2852.81	2828.50	3144.88	3281.19	2986.38	2609.12	2201.81	2066.88	1862.19	1762.81	1923.44	2214.06	1968.38	1927.00	2288.81	2477.06	2240.00	2016.81	2060.06	2029.31	1763.62	1521.50	1364.56	1251.56	1032.50	1049.19	1080.94	928.31	807.44	680.56	612.88	643.69	629.19	555.56	534.69	520.94	558.25	544.94	526.38	479.38	428.19	416.31	379.44	314.31	290.56	274.50	265.81	244.88	215.81	193.44	169.06	145.38	124.94	102.50	81.50	63.12	44.06	30.69	16.50	5.06	-3.81	-14.38	-20.62	-26.44	-27.00	-27.00	-27.00	-27.00	-27.00	-27.00	-27.00	-27.00	-27.00	-27.00	-27.00	-27.00	-27.00	-27.00	-27.00	-27.00	-27.00	-27.00	-27.00	-27.00	-27.00	-27.00	-27.00	-27.00	-27.00	-27.00	-27.00	-27.00	-27.00	-27.00	-27.00	-27.00	-27.00	-27.00	-27.00	-27.00	-27.00	-27.00	-27.00	-27.00	-27.00	-27.00	-27.00	-27.00	-27.00	-27.00	-27.00	-27.00	-27.00	-27.00	-27.00	-27.00	-27.00	-27.00	-27.00	-27.00	-27.00	-27.00	-27.00	-27.00	-27.00	-27.00	-27.00	-27.00	-27.00	-27.00	-27.00	-27.00	-27.00	-27.00	-27.00	-27.00	-27.00	-27.00	-27.00	-27.00	-27.00	-27.00	-27.00	-27.00	-27.00	-27.00
447.00	455.81	487.88	560.19	616.31	672.38	637.00	655.31	732.25	831.31	798.69	770.56	801.69	823.38	796.75	736.12	663.94	593.88	544.06	505.00	496.56	484.88	475.88	471.75	514.75	495.81	459.62	445.50	451.25	466.25	493.62	516.19	546.88	575.75	613.69	688.31	726.62	779.38	925.56	947.88	862.12	643.94	436.75	281.69	243.62	226.38	220.94	216.50	212.94	210.75	208.25	207.19	206.38	207.12	204.81	201.62	198.50	199.44	200.44	204.25	206.75	212.44	218.94	223.94	224.69	226.00	235.69	256.00	280.69	308.00	329.38	352.44	391.00	435.88	496.31	533.12	639.12	949.94	1217.69	1252.12	1493.19	1654.94	1386.56	1292.81	1596.12	1313.25	1689.19	2012.94	2269.44	2229.69	2728.88	2912.62	2875.50	3107.19	2822.12	2152.81	2271.25	2286.38	1808.00	1784.50	1964.25	1957.12	1982.50	1803.75	1825.38	2187.44	2281.00	2324.75	1877.56	2241.12	2382.19	2784.31	3205.44	3175.38	3260.06	2804.19	2483.69	2170.31	2039.25	1808.56	1705.69	1987.62	2108.31	1820.44	1905.62	2269.81	2242.38	2272.75	2235.25	2237.06	2061.25	1802.19	1436.62	1264.06	1107.06	1199.81	1024.69	895.38	806.75	763.50	738.56	748.00	665.75	645.38	617.19	675.81	681.94	639.81	618.81	549.31	477.44	431.06	356.12	324.19	303.44	319.50	300.94	268.06	233.25	204.56	169.69	145.12	126.25	101.94	87.38	80.69	62.88	45.88	26.88	10.44	-0.81	-9.19	-16.94	-22.56	-26.94	-27.00	-27.00	-27.00	-27.00	-27.00	-27.00	-27.00	-27.00	-27.00	-27.00	-27.00	-27.00	-27.00	-27.00	-27.00	-27.00	-27.00	-27.00	-27.00	-27.00	-27.00	-27.00	-27.00	-27.00	-27.00	-27.00	-27.00	-27.00	-27.00	-27.00	-27.00	-27.00	-27.00	-27.00	-27.00	-27.00	-27.00	-27.00	-27.00	-27.00	-27.00	-27.00	-27.00	-27.00	-27.00	-27.00	-27.00	-27.00	-27.00	-27.00	-27.00	-27.00	-27.00	-27.00	-27.00	-27.00	-27.00	-27.00	-27.00	-27.00	-27.00	-27.00	-27.00	-27.00	-27.00	-27.00	-27.00	-27.00	-27.00	-27.00	-27.00	-27.00	-27.00	-27.00	-27.00	-27.00	-27.00	-27.00	-27.00	-27.00	-27.00
421.06	429.56	455.81	504.12	520.88	530.12	533.69	609.81	663.81	664.31	694.69	727.88	788.75	873.31	839.81	811.50	743.81	690.81	616.44	544.31	508.81	483.00	475.94	459.94	449.62	459.69	442.06	443.69	449.94	459.12	473.44	491.44	519.75	552.81	604.12	664.31	705.44	754.31	851.31	941.06	949.31	812.94	623.69	389.38	318.69	250.00	232.31	221.94	215.31	212.12	209.50	206.38	205.00	202.88	201.94	201.56	202.25	204.06	201.31	198.88	200.94	203.62	209.12	212.19	217.12	222.38	235.44	252.69	271.94	295.00	309.06	343.50	382.75	418.75	462.06	509.19	691.75	831.69	1278.38	1202.31	1173.44	1302.75	1004.94	1460.44	1319.44	1178.38	1276.50	1622.44	1800.31	2136.06	2515.94	2971.62	2967.75	2680.50	2332.50	2538.69	2804.31	2702.75	2301.06	1922.50	2049.06	2139.44	1910.12	1733.38	1566.50	1724.19	1853.94	1912.88	1980.69	2432.50	2648.88	2574.62	2792.19	2941.06	2990.88	3049.94	2743.19	2450.25	2097.69	1946.25	1796.25	1676.25	1748.94	1781.69	1659.44	1908.44	1888.69	1926.31	2288.06	2145.00	2080.81	1922.88	1685.12	1388.38	1219.00	1236.56	1028.06	1022.94	889.69	717.94	851.00	876.69	794.44	728.56	697.56	815.75	821.88	743.81	670.25	605.44	469.12	394.00	360.12	338.25	328.56	369.88	341.75	314.56	272.12	234.12	192.31	160.75	140.62	119.06	102.81	90.00	76.00	59.94	40.19	21.06	6.06	-3.75	-11.81	-16.62	-23.56	-26.81	-27.00	-27.00	-27.00	-27.00	-27.00	-27.00	-27.00	-27.00	-27.00	-27.00	-27.00	-27.00	-27.00	-27.00	-27.00	-27.00	-27.00	-27.00	-27.00	-27.00	-27.00	-27.00	-27.00	-27.00	-27.00	-27.00	-27.00	-27.00	-27.00	-27.00	-27.00	-27.00	-27.00	-27.00	-27.00	-27.00	-27.00	-27.00	-27.00	-27.00	-27.00	-27.00	-27.00	-27.00	-27.00	-27.00	-27.00	-27.00	-27.00	-27.00	-27.00	-27.00	-27.00	-27.00	-27.00	-27.00	-27.00	-27.00	-27.00	-27.00	-27.00	-27.00	-27.00	-27.00	-27.00	-27.00	-27.00	-27.00	-27.00	-27.00	-27.00	-27.00	-27.00	-27.00	-27.00	-27.00	-27.00	-27.00	-27.00	-27.00
381.12	406.12	419.62	451.88	475.50	470.25	477.19	513.44	560.88	572.94	664.94	807.25	837.19	806.81	788.62	795.69	795.44	775.94	710.69	624.44	565.62	524.88	516.56	491.25	450.81	438.62	436.12	444.06	458.38	477.62	499.50	507.62	521.94	553.81	602.44	663.44	686.50	710.38	759.06	832.19	908.62	828.69	705.50	529.44	393.62	294.56	268.12	238.19	221.62	214.06	209.56	207.94	206.19	203.44	201.38	199.56	199.44	197.62	197.81	200.62	196.69	200.50	201.81	204.81	212.50	220.62	233.06	245.25	260.38	280.94	300.44	332.19	365.81	392.00	423.69	442.69	538.06	872.62	993.44	978.81	847.06	936.50	1208.00	1185.75	1046.19	1431.94	1674.94	1763.12	2269.06	2594.88	2775.38	2843.75	2696.25	2451.38	2609.94	3108.25	3182.94	2667.00	2223.75	2123.81	2859.19	2846.38	2459.75	2308.50	1996.00	1673.81	1582.94	1683.81	2035.12	2476.12	2300.88	2235.38	2647.94	2558.69	2575.19	3005.38	2918.56	2826.56	2528.19	2213.56	1984.56	1794.44	1661.56	1561.88	1519.19	1550.56	1563.69	1630.94	2115.50	2212.25	2011.50	1848.25	1732.12	1485.44	1341.12	1262.75	1141.69	1009.00	883.94	752.50	812.00	935.88	857.31	878.94	819.25	953.62	905.88	821.12	730.44	602.50	428.75	391.38	367.88	351.69	399.81	398.19	371.75	328.06	305.06	265.75	211.69	181.81	162.00	137.69	119.88	104.62	88.31	72.56	53.50	34.12	14.12	0.88	-6.31	-9.25	-16.38	-24.81	-27.00	-27.00	-27.00	-27.00	-27.00	-27.00	-27.00	-27.00	-27.00	-27.00	-27.00	-27.00	-27.00	-27.00	-27.00	-27.00	-27.00	-27.00	-27.00	-27.00	-27.00	-27.00	-27.00	-27.00	-27.00	-27.00	-27.00	-27.00	-27.00	-27.00	-27.00	-27.00	-27.00	-27.00	-27.00	-27.00	-27.00	-27.00	-27.00	-27.00	-27.00	-27.00	-27.00	-27.00	-27.00	-27.00	-27.00	-27.00	-27.00	-27.00	-27.00	-27.00	-27.00	-27.00	-27.00	-27.00	-27.00	-27.00	-27.00	-27.00	-27.00	-27.00	-27.00	-27.00	-27.00	-27.00	-27.00	-27.00	-27.00	-27.00	-27.00	-27.00	-27.00	-27.00	-27.00	-27.00	-27.00	-27.00	-27.00	-27.00
384.00	420.19	447.88	430.69	421.50	417.38	449.06	463.38	487.31	513.19	630.31	747.44	846.81	822.69	814.75	785.75	826.25	790.75	749.56	746.19	646.94	586.00	557.88	558.12	502.94	458.12	445.25	435.06	503.81	547.31	600.94	621.25	607.69	607.12	628.62	647.25	633.69	645.88	720.94	803.25	848.94	861.50	732.56	637.44	558.88	381.94	308.25	262.44	236.62	219.56	212.75	209.62	207.50	204.75	202.25	200.69	199.19	198.31	195.06	197.25	194.62	195.19	198.81	202.25	209.06	217.06	226.75	237.06	251.06	275.38	291.06	313.94	338.25	359.62	383.25	385.12	413.31	600.44	569.75	615.25	644.19	711.50	860.88	873.12	1423.88	1693.44	1664.94	1925.75	2240.62	2153.50	2450.25	2621.62	2615.31	2581.38	2795.94	2769.81	3007.56	2923.56	2230.62	2258.88	3182.81	3213.62	2915.69	2803.00	2255.62	1980.50	1670.88	1575.12	1926.94	1945.56	2044.00	2198.75	2306.50	2298.06	2295.75	2499.56	2632.56	2866.25	2750.62	2646.88	2363.44	2043.00	1900.56	1796.44	1646.88	1666.94	1407.75	1401.56	1572.12	2002.62	2014.06	1623.12	1656.56	1695.88	1604.25	1430.19	1273.75	993.94	951.75	943.31	933.25	1074.12	1058.69	1074.19	940.25	1021.00	918.00	765.06	612.75	492.94	424.31	395.31	376.50	393.50	434.12	407.56	395.25	376.56	318.25	272.06	236.56	207.75	183.56	159.06	140.62	122.81	103.94	88.38	70.25	47.44	26.38	9.19	-0.50	-6.25	-13.12	-18.12	-25.88	-27.00	-27.00	-27.00	-27.00	-27.00	-27.00	-27.00	-27.00	-27.00	-27.00	-27.00	-27.00	-27.00	-27.00	-27.00	-27.00	-27.00	-27.00	-27.00	-27.00	-27.00	-27.00	-27.00	-27.00	-27.00	-27.00	-27.00	-27.00	-27.00	-27.00	-27.00	-27.00	-27.00	-27.00	-27.00	-27.00	-27.00	-27.00	-27.00	-27.00	-27.00	-27.00	-27.00	-27.00	-27.00	-27.00	-27.00	-27.00	-27.00	-27.00	-27.00	-27.00	-27.00	-27.00	-27.00	-27.00	-27.00	-27.00	-27.00	-27.00	-27.00	-27.00	-27.00	-27.00	-27.00	-27.00	-27.00	-27.00	-27.00	-27.00	-27.00	-27.00	-27.00	-27.00	-27.00	-27.00	-27.00	-27.00	-27.00
346.50	360.06	372.88	375.94	377.00	383.56	405.44	413.75	439.12	478.31	565.44	647.12	717.31	726.00	816.88	853.50	799.44	770.00	707.62	696.19	684.12	649.44	601.88	585.19	557.31	523.00	504.75	448.25	423.00	483.56	537.94	584.12	672.69	644.38	628.19	616.81	602.69	600.94	648.94	755.19	800.19	802.62	746.12	688.00	613.69	513.25	396.19	321.50	282.50	243.06	223.50	212.69	208.50	205.25	203.81	202.06	200.06	197.69	195.94	195.19	191.62	191.88	197.69	202.25	208.69	215.50	222.38	231.31	242.19	255.69	272.38	294.50	314.50	333.12	348.62	371.88	414.31	456.88	497.81	548.38	720.19	966.69	1062.81	1033.31	1134.56	1289.56	1547.62	1787.88	1667.50	1718.75	2032.50	2487.81	2753.81	2708.44	2594.69	2247.38	2693.56	2584.50	2540.56	2106.25	2729.75	3259.69	3392.00	2932.75	2457.44	2171.31	1927.19	1579.69	1443.81	1528.19	1762.19	2131.75	1939.88	2251.19	2013.19	2237.81	2390.44	2616.50	2381.44	2431.69	2586.06	2470.88	2280.81	2136.62	2042.00	1971.56	1763.25	1433.62	1315.56	1448.00	1594.44	1527.50	1280.44	1408.44	1484.62	1375.25	1099.69	1008.06	934.44	1065.38	1182.56	1266.94	1210.69	1102.25	1037.38	836.88	733.44	605.75	491.38	452.75	419.94	405.31	401.31	479.25	489.50	452.44	416.19	382.62	324.44	286.81	257.75	231.38	211.62	187.50	166.75	145.31	122.38	105.19	84.12	56.38	38.00	22.00	9.25	-1.19	-7.69	-13.75	-22.12	-26.81	-27.00	-27.00	-27.00	-27.00	-27.00	-27.00	-27.00	-27.00	-27.00	-27.00	-27.00	-27.00	-27.00	-27.00	-27.00	-27.00	-27.00	-27.00	-27.00	-27.00	-27.00	-27.00	-27.00	-27.00	-27.00	-27.00	-27.00	-27.00	-27.00	-27.00	-27.00	-27.00	-27.00	-27.00	-27.00	-27.00	-27.00	-27.00	-27.00	-27.00	-27.00	-27.00	-27.00	-27.00	-27.00	-27.00	-27.00	-27.00	-27.00	-27.00	-27.00	-27.00	-27.00	-27.00	-27.00	-27.00	-27.00	-27.00	-27.00	-27.00	-27.00	-27.00	-27.00	-27.00	-27.00	-27.00	-27.00	-27.00	-27.00	-27.00	-27.00	-27.00	-27.00	-27.00	-27.00	-27.00	-27.00	-27.00
333.62	336.31	334.50	337.44	349.00	354.44	366.81	388.00	413.38	448.50	504.19	569.25	626.50	698.38	772.19	820.81	921.19	819.19	789.94	754.06	717.81	676.56	684.00	632.75	577.12	530.88	493.06	459.50	413.94	456.00	496.38	527.44	631.19	709.00	651.62	634.06	587.94	565.56	593.00	649.50	712.75	767.50	724.25	621.44	548.44	632.88	550.44	429.88	328.62	288.81	262.75	229.31	213.44	207.44	205.00	203.31	200.94	198.75	196.69	193.56	189.00	190.94	195.00	200.81	207.62	210.94	216.69	225.62	237.19	253.38	267.69	274.69	289.94	310.94	336.12	365.88	401.88	437.62	470.38	496.56	603.44	893.75	1124.00	1223.31	1248.06	1297.88	1255.50	1374.62	1745.12	2029.69	2226.50	2618.06	2326.81	2325.12	2301.06	2122.50	2633.75	2887.88	2643.19	2518.56	2296.50	2809.06	3356.88	3160.50	2569.94	2435.75	2514.00	2089.50	2091.50	1469.25	1534.75	1667.25	1628.69	1884.12	1914.44	2021.56	2242.12	2173.56	2104.94	2109.19	2415.00	2421.00	2584.50	2328.62	2151.62	2017.62	1928.38	1784.69	1525.50	1276.88	1207.44	1206.00	1193.38	1138.94	1107.69	1079.50	1000.12	1052.31	1090.75	1208.38	1416.06	1351.31	1247.69	1036.12	784.00	603.50	531.44	488.75	464.06	452.94	440.94	469.38	544.50	560.75	526.31	473.31	446.69	404.94	345.62	310.56	288.31	265.00	245.56	218.88	194.75	167.69	141.50	118.69	98.31	70.62	52.75	32.75	18.38	4.06	-3.75	-11.25	-18.25	-24.50	-26.94	-27.00	-27.00	-27.00	-27.00	-27.00	-27.00	-27.00	-27.00	-27.00	-27.00	-27.00	-27.00	-27.00	-27.00	-27.00	-27.00	-27.00	-27.00	-27.00	-27.00	-27.00	-27.00	-27.00	-27.00	-27.00	-27.00	-27.00	-27.00	-27.00	-27.00	-27.00	-27.00	-27.00	-27.00	-27.00	-27.00	-27.00	-27.00	-27.00	-27.00	-27.00	-27.00	-27.00	-27.00	-27.00	-27.00	-27.00	-27.00	-27.00	-27.00	-27.00	-27.00	-27.00	-27.00	-27.00	-27.00	-27.00	-27.00	-27.00	-27.00	-27.00	-27.00	-27.00	-27.00	-27.00	-27.00	-27.00	-27.00	-27.00	-27.00	-27.00	-27.00	-27.00	-27.00	-27.00	-27.00	-27.00
327.38	329.56	326.38	327.44	334.06	341.31	358.31	378.88	406.50	440.81	479.19	569.00	663.69	684.19	715.62	783.88	902.44	939.62	857.44	797.25	757.31	690.00	672.94	644.12	612.19	549.12	508.81	456.38	410.38	439.88	508.62	547.31	603.94	687.75	689.75	565.31	546.88	550.06	565.25	637.06	720.56	771.50	720.06	642.94	596.12	723.06	671.50	534.44	433.06	372.00	309.81	258.56	225.12	212.38	209.06	206.38	203.50	200.88	198.44	194.75	190.00	189.06	193.69	197.75	202.81	207.31	216.81	231.25	239.94	244.69	252.81	265.19	279.69	298.81	329.75	353.12	384.12	413.69	446.56	519.81	573.12	884.31	918.50	879.12	1344.50	1701.62	1779.69	1771.06	1914.88	2247.69	2429.94	2447.50	2377.25	1937.81	1932.25	1946.00	2173.38	2576.00	2913.06	2715.69	2425.75	2591.75	3168.88	3198.06	2767.31	2653.06	2625.31	2709.50	2385.12	1731.19	1420.31	1369.38	1367.12	1524.81	1731.25	1794.19	1934.06	2021.00	1801.75	2173.75	2077.44	2159.06	2262.50	2366.50	2347.56	2139.88	1915.12	1796.12	1704.19	1519.56	1466.31	1411.06	1334.75	1265.19	1177.25	1087.69	1154.31	1255.38	1252.75	1292.19	1284.31	1168.81	1074.94	822.75	629.88	544.88	517.81	492.19	488.81	493.94	564.56	628.00	619.88	578.50	544.94	494.19	451.81	406.88	356.88	340.44	311.56	294.81	273.50	242.88	215.62	185.38	156.06	132.31	108.94	82.25	64.56	41.44	23.31	7.50	-4.00	-11.06	-17.88	-21.62	-26.00	-27.00	-27.00	-27.00	-27.00	-27.00	-27.00	-27.00	-27.00	-27.00	-27.00	-27.00	-27.00	-27.00	-27.00	-27.00	-27.00	-27.00	-27.00	-27.00	-27.00	-27.00	-27.00	-27.00	-27.00	-27.00	-27.00	-27.00	-27.00	-27.00	-27.00	-27.00	-27.00	-27.00	-27.00	-27.00	-27.00	-27.00	-27.00	-27.00	-27.00	-27.00	-27.00	-27.00	-27.00	-27.00	-27.00	-27.00	-27.00	-27.00	-27.00	-27.00	-27.00	-27.00	-27.00	-27.00	-27.00	-27.00	-27.00	-27.00	-27.00	-27.00	-27.00	-27.00	-27.00	-27.00	-27.00	-27.00	-27.00	-27.00	-27.00	-27.00	-27.00	-27.00	-27.00	-27.00	-27.00	-27.00
335.62	320.69	319.12	320.00	324.75	331.94	349.50	370.44	402.94	456.50	482.75	534.56	628.56	727.38	759.31	728.88	790.94	834.19	828.69	750.12	736.94	711.62	659.06	632.75	600.38	601.25	527.31	473.25	416.94	397.31	447.50	495.12	558.38	609.69	672.56	599.25	539.00	536.06	544.94	584.75	651.62	713.31	745.62	692.75	657.56	735.38	714.62	680.25	558.56	537.19	426.75	296.88	247.81	237.25	224.81	221.56	212.50	205.69	201.38	198.06	190.69	186.81	191.12	195.50	199.12	207.06	217.94	222.06	223.12	230.56	239.62	252.81	265.44	280.50	307.06	330.25	354.62	379.38	396.75	431.62	752.06	606.94	567.38	808.25	1054.00	1119.31	1480.56	2055.31	2014.94	2184.81	1841.31	2009.62	2318.62	2037.75	1644.50	1994.25	2087.00	2309.62	2937.94	3068.62	2777.25	3100.44	3196.62	3426.31	3223.38	3006.56	3315.69	3008.25	2268.44	1716.12	2119.62	1753.88	1636.56	1366.69	1457.00	1597.19	1574.31	1724.81	1574.06	1914.06	1732.00	1981.12	1780.56	1938.62	2130.56	2133.06	2110.75	2022.81	1839.44	1704.19	1564.88	1632.88	1674.31	1462.25	1227.50	1258.75	1379.94	1188.38	1167.00	1013.25	878.56	862.44	747.06	660.00	580.06	542.12	522.56	554.50	600.19	707.88	765.81	729.62	671.62	597.12	544.75	500.12	449.75	425.50	409.31	378.12	355.69	332.19	304.56	269.62	237.69	206.69	175.62	150.25	123.88	100.75	80.94	56.38	34.75	14.50	1.31	-6.88	-11.44	-15.12	-21.50	-26.75	-27.00	-27.00	-27.00	-27.00	-27.00	-27.00	-27.00	-27.00	-27.00	-27.00	-27.00	-27.00	-27.00	-27.00	-27.00	-27.00	-27.00	-27.00	-27.00	-27.00	-27.00	-27.00	-27.00	-27.00	-27.00	-27.00	-27.00	-27.00	-27.00	-27.00	-27.00	-27.00	-27.00	-27.00	-27.00	-27.00	-27.00	-27.00	-27.00	-27.00	-27.00	-27.00	-27.00	-27.00	-27.00	-27.00	-27.00	-27.00	-27.00	-27.00	-27.00	-27.00	-27.00	-27.00	-27.00	-27.00	-27.00	-27.00	-27.00	-27.00	-27.00	-27.00	-27.00	-27.00	-27.00	-27.00	-27.00	-27.00	-27.00	-27.00	-27.00	-27.00	-27.00	-27.00	-27.00	-27.00
374.81	311.12	310.75	312.56	316.00	322.56	336.25	352.44	402.44	488.62	540.50	555.12	582.56	674.19	801.50	791.12	778.00	753.94	755.25	755.25	690.69	659.75	668.50	644.00	653.50	672.50	563.00	494.69	420.75	386.44	468.62	524.44	517.81	544.31	575.50	577.19	546.12	526.06	552.31	566.06	596.25	628.25	675.62	730.25	696.50	760.19	862.31	785.25	684.88	620.75	617.44	459.81	345.94	324.50	301.31	258.06	229.62	215.44	206.38	202.12	195.06	189.50	184.88	192.50	194.00	202.38	213.38	219.50	218.50	223.19	230.12	240.94	249.94	268.69	286.19	302.19	325.94	342.94	352.88	340.62	358.50	401.88	365.88	585.94	756.81	1062.31	1514.12	1618.12	1517.56	1700.62	1906.81	1604.56	2012.56	1734.25	1694.81	2459.12	2665.25	2859.06	3195.12	3141.56	3249.56	2944.50	2779.81	3229.25	3455.81	3509.69	3462.31	2782.62	1995.12	2154.38	2527.88	2031.31	2386.69	1763.00	1325.94	1262.31	1297.62	1310.50	1443.06	1473.19	1569.25	1491.06	1452.12	1657.62	1649.25	1860.62	2113.94	2140.06	2114.69	1882.00	1914.00	1891.38	1684.00	1511.38	1443.44	1377.44	1138.75	886.62	775.56	699.19	672.88	640.69	643.81	636.69	612.06	617.12	651.25	697.81	849.19	854.44	779.56	731.88	680.25	615.12	579.38	519.06	497.75	483.38	443.81	421.38	392.50	364.00	331.44	292.12	259.81	227.19	195.12	167.75	141.44	116.38	89.81	62.75	41.75	22.12	3.38	-4.69	-9.88	-14.75	-19.19	-23.62	-26.88	-27.00	-27.00	-27.00	-27.00	-27.00	-27.00	-27.00	-27.00	-27.00	-27.00	-27.00	-27.00	-27.00	-27.00	-27.00	-27.00	-27.00	-27.00	-27.00	-27.00	-27.00	-27.00	-27.00	-27.00	-27.00	-27.00	-27.00	-27.00	-27.00	-27.00	-27.00	-27.00	-27.00	-27.00	-27.00	-27.00	-27.00	-27.00	-27.00	-27.00	-27.00	-27.00	-27.00	-27.00	-27.00	-27.00	-27.00	-27.00	-27.00	-27.00	-27.00	-27.00	-27.00	-27.00	-27.00	-27.00	-27.00	-27.00	-27.00	-27.00	-27.00	-27.00	-27.00	-27.00	-27.00	-27.00	-27.00	-27.00	-27.00	-27.00	-27.00	-27.00	-27.00	-27.00	-27.00
337.00	305.50	302.81	306.12	307.94	311.62	318.44	328.56	371.19	491.88	576.62	620.44	636.06	690.94	751.12	787.00	817.06	739.44	728.06	723.88	709.44	611.75	619.38	663.00	668.75	596.19	540.38	457.50	416.81	380.44	402.69	468.44	557.12	542.94	532.25	540.00	525.25	497.44	522.62	553.94	556.62	590.12	621.25	682.38	745.62	752.81	788.75	814.75	812.12	785.69	864.94	728.62	543.75	484.31	451.94	329.69	269.00	250.62	241.62	229.38	214.75	201.44	192.94	187.25	190.31	195.38	202.50	208.56	212.50	218.81	222.38	228.31	239.25	251.88	266.56	277.44	293.31	307.62	312.62	303.88	285.44	260.12	291.31	421.00	627.19	1045.06	1258.81	1335.38	1161.81	1605.00	1800.50	1450.00	1887.19	1479.00	1805.44	2027.88	2111.00	2347.88	2915.62	3216.12	3207.25	3063.94	2605.69	2713.56	2966.81	3246.50	3301.06	2718.56	2234.69	2976.44	2744.88	2237.81	2687.12	2209.62	1643.00	1723.31	1435.94	1336.81	1200.56	1193.94	1205.31	1161.69	1170.00	1228.44	1419.12	1407.31	1612.12	1859.88	2178.56	2175.12	2251.19	2156.19	1795.69	1493.19	1194.94	1034.38	807.38	737.56	770.44	777.50	766.19	788.69	879.44	908.12	878.00	783.81	791.81	832.19	952.44	894.50	823.75	782.44	724.19	668.69	614.94	558.69	553.31	521.00	486.19	457.94	423.62	389.69	354.06	313.00	279.31	246.06	213.19	186.62	157.31	127.62	101.25	71.94	47.50	23.56	6.12	-2.50	-6.69	-11.31	-14.44	-18.75	-24.62	-27.00	-27.00	-27.00	-27.00	-27.00	-27.00	-27.00	-27.00	-27.00	-27.00	-27.00	-27.00	-27.00	-27.00	-27.00	-27.00	-27.00	-27.00	-27.00	-27.00	-27.00	-27.00	-27.00	-27.00	-27.00	-27.00	-27.00	-27.00	-27.00	-27.00	-27.00	-27.00	-27.00	-27.00	-27.00	-27.00	-27.00	-27.00	-27.00	-27.00	-27.00	-27.00	-27.00	-27.00	-27.00	-27.00	-27.00	-27.00	-27.00	-27.00	-27.00	-27.00	-27.00	-27.00	-27.00	-27.00	-27.00	-27.00	-27.00	-27.00	-27.00	-27.00	-27.00	-27.00	-27.00	-27.00	-27.00	-27.00	-27.00	-27.00	-27.00	-27.00	-27.00	-27.00	-27.00
316.56	299.44	298.31	300.25	301.50	300.38	303.62	307.00	319.44	414.69	564.00	652.69	691.06	702.56	707.25	707.69	714.31	749.44	755.88	729.00	653.75	594.00	570.44	594.25	613.44	585.81	541.44	477.62	436.69	389.19	382.12	445.88	505.94	568.12	555.88	535.12	522.94	478.62	512.38	522.50	520.56	553.88	603.25	683.62	702.25	760.69	814.44	829.19	803.94	792.62	826.00	834.25	710.38	612.31	558.88	476.31	460.31	436.44	455.50	405.50	358.81	286.19	254.75	216.69	191.62	187.94	195.94	198.62	204.31	208.44	215.06	219.44	225.38	233.69	245.88	254.12	265.75	275.00	281.75	274.00	258.50	242.44	252.50	312.56	561.00	891.94	916.50	911.81	1395.94	1727.44	1361.00	1337.75	1332.81	1333.38	1473.69	1682.62	1978.69	2303.81	2603.00	3060.94	3024.50	2844.12	2665.75	2541.38	2439.12	2684.81	3118.81	3086.75	2936.69	3007.81	3176.06	2691.31	2972.06	2322.50	2051.69	2351.00	1847.38	2023.62	1582.25	1452.19	1272.31	1287.75	1291.94	1129.75	1034.38	1023.00	1115.81	1531.50	1682.62	1819.81	1994.62	2140.69	1621.44	1254.31	975.25	778.75	874.44	1097.00	1117.81	1154.69	897.94	1046.31	1091.94	993.25	923.75	921.88	823.56	1005.81	1010.00	942.31	865.81	809.88	768.06	719.06	677.69	615.06	598.69	568.00	523.19	489.12	450.06	411.62	374.25	331.38	295.38	260.81	231.50	203.75	173.38	141.44	112.88	78.38	55.19	32.12	8.12	2.06	-1.56	-5.19	-11.06	-16.19	-20.12	-25.81	-27.00	-27.00	-27.00	-27.00	-27.00	-27.00	-27.00	-27.00	-27.00	-27.00	-27.00	-27.00	-27.00	-27.00	-27.00	-27.00	-27.00	-27.00	-27.00	-27.00	-27.00	-27.00	-27.00	-27.00	-27.00	-27.00	-27.00	-27.00	-27.00	-27.00	-27.00	-27.00	-27.00	-27.00	-27.00	-27.00	-27.00	-27.00	-27.00	-27.00	-27.00	-27.00	-27.00	-27.00	-27.00	-27.00	-27.00	-27.00	-27.00	-27.00	-27.00	-27.00	-27.00	-27.00	-27.00	-27.00	-27.00	-27.00	-27.00	-27.00	-27.00	-27.00	-27.00	-27.00	-27.00	-27.00	-27.00	-27.00	-27.00	-27.00	-27.00	-27.00	-27.00	-27.00
310.50	295.50	292.75	292.94	295.25	293.12	292.44	299.19	296.75	307.19	369.81	457.94	551.38	663.75	654.25	593.12	668.50	639.75	670.06	646.06	614.56	613.81	547.25	529.50	539.31	541.06	515.38	460.06	407.75	388.94	366.31	406.56	457.06	471.69	524.81	567.12	534.31	479.94	448.56	462.94	469.31	512.56	565.12	626.81	671.88	767.56	845.81	881.31	821.69	813.19	853.62	805.81	771.56	725.25	729.69	712.38	674.62	623.62	614.69	619.44	582.62	506.06	482.88	396.50	268.94	195.81	184.00	194.81	198.62	203.44	204.19	211.88	211.88	218.69	227.75	232.88	241.00	245.12	250.81	247.50	235.31	233.44	261.88	301.44	424.38	604.81	632.00	1064.69	1314.00	1260.00	999.81	1043.88	1412.44	1848.38	2026.19	2090.06	2371.56	2530.25	2583.88	2308.94	2710.00	2814.56	2979.88	2741.56	2505.06	2448.19	2346.12	2514.81	2995.06	3390.12	3454.75	3376.69	3034.25	2445.06	2374.31	2724.38	2429.88	2127.69	1979.12	2062.94	1951.12	1719.69	1506.62	1217.69	1226.75	1278.06	1011.75	1042.56	1122.62	1297.25	1472.81	1591.12	1506.69	1078.56	831.88	985.38	1253.94	1485.25	1443.19	1141.19	947.88	1203.44	1194.94	1083.25	1100.38	942.06	991.25	1094.31	1084.88	1030.81	928.44	883.06	836.44	767.00	712.88	674.12	648.19	605.44	546.88	511.62	467.31	425.50	385.19	341.44	311.25	283.62	251.75	220.06	185.94	154.69	127.12	90.88	65.12	41.00	20.88	12.06	2.81	-1.25	-7.06	-12.81	-17.88	-22.75	-26.94	-27.00	-27.00	-27.00	-27.00	-27.00	-27.00	-27.00	-27.00	-27.00	-27.00	-27.00	-27.00	-27.00	-27.00	-27.00	-27.00	-27.00	-27.00	-27.00	-27.00	-27.00	-27.00	-27.00	-27.00	-27.00	-27.00	-27.00	-27.00	-27.00	-27.00	-27.00	-27.00	-27.00	-27.00	-27.00	-27.00	-27.00	-27.00	-27.00	-27.00	-27.00	-27.00	-27.00	-27.00	-27.00	-27.00	-27.00	-27.00	-27.00	-27.00	-27.00	-27.00	-27.00	-27.00	-27.00	-27.00	-27.00	-27.00	-27.00	-27.00	-27.00	-27.00	-27.00	-27.00	-27.00	-27.00	-27.00	-27.00	-27.00	-27.00	-27.00	-27.00	-27.00
309.81	294.88	288.62	286.38	286.81	286.50	285.19	286.81	293.75	292.19	297.88	345.69	403.25	533.75	608.88	570.81	551.62	645.06	573.75	621.94	597.81	600.31	643.38	608.50	558.75	506.62	464.31	426.81	421.00	418.50	361.69	365.25	402.62	426.94	477.88	504.12	483.19	455.81	432.44	415.69	433.75	487.19	523.62	566.44	629.56	706.50	772.50	822.88	792.75	757.50	782.94	829.62	812.44	764.69	723.50	678.50	630.06	602.81	587.50	595.38	626.50	659.44	661.62	622.12	539.25	359.88	224.25	188.19	189.38	197.06	194.50	201.19	202.88	205.81	211.44	214.94	218.06	221.50	222.69	221.56	222.06	242.00	276.69	321.19	384.50	455.69	570.00	784.06	756.25	826.12	977.31	1418.25	1577.19	1819.88	2115.62	2209.38	2428.62	2595.94	2119.62	2010.12	2284.56	2795.69	2738.44	2581.38	2811.00	2924.62	2636.88	2332.50	2502.00	3090.69	3088.44	3293.50	2994.94	2714.12	2834.81	2850.62	2789.81	2605.00	2482.88	2310.88	1871.19	1422.50	1249.81	1540.19	1744.44	1592.00	1392.38	1131.25	1036.12	971.19	992.94	1071.62	1047.81	922.00	1005.50	1272.69	1737.88	1955.81	1525.25	1077.50	1155.94	1397.81	1372.94	1293.12	1136.00	1140.38	1194.75	1212.06	1164.38	1091.75	1021.81	963.31	894.62	823.94	772.50	720.00	654.44	617.12	569.75	521.56	472.69	431.31	393.94	364.31	339.00	307.88	271.69	237.81	202.25	167.94	141.19	107.00	79.56	58.50	35.88	19.00	6.44	0.94	-3.56	-9.75	-15.19	-18.00	-24.81	-27.00	-27.00	-27.00	-27.00	-27.00	-27.00	-27.00	-27.00	-27.00	-27.00	-27.00	-27.00	-27.00	-27.00	-27.00	-27.00	-27.00	-27.00	-27.00	-27.00	-27.00	-27.00	-27.00	-27.00	-27.00	-27.00	-27.00	-27.00	-27.00	-27.00	-27.00	-27.00	-27.00	-27.00	-27.00	-27.00	-27.00	-27.00	-27.00	-27.00	-27.00	-27.00	-27.00	-27.00	-27.00	-27.00	-27.00	-27.00	-27.00	-27.00	-27.00	-27.00	-27.00	-27.00	-27.00	-27.00	-27.00	-27.00	-27.00	-27.00	-27.00	-27.00	-27.00	-27.00	-27.00	-27.00	-27.00	-27.00	-27.00	-27.00	-27.00	-27.00	-27.00
310.31	293.81	286.94	281.75	280.69	281.06	279.25	278.69	289.06	296.69	297.44	316.88	372.19	482.88	563.56	530.69	497.50	577.44	589.44	584.00	634.06	562.62	593.88	661.31	665.81	611.69	524.50	463.31	474.56	498.31	401.06	356.69	363.06	402.19	456.94	484.94	490.00	449.94	404.81	397.44	450.69	504.75	510.81	557.25	592.69	632.00	674.44	719.38	718.12	713.25	716.06	836.25	835.94	724.00	676.50	634.44	598.25	580.56	570.75	571.56	586.19	614.94	646.25	677.19	700.06	600.56	404.00	262.62	203.12	187.50	184.81	187.56	196.25	196.44	199.88	201.25	204.81	204.88	205.75	209.31	222.44	247.06	279.62	319.38	380.00	450.06	520.69	601.88	678.12	898.00	1257.44	1579.25	1829.75	1754.88	1757.31	1986.12	2227.25	2105.88	1799.19	2011.56	2406.19	2755.75	2761.69	2774.94	3162.00	3031.19	2593.62	2375.12	2169.88	2535.38	2758.81	3062.25	3107.00	3043.69	3111.75	2943.50	2747.19	2326.81	2138.62	2027.94	1713.81	1448.75	1657.75	1600.19	2046.19	1864.69	1798.19	1382.06	1377.00	1219.31	1137.69	1155.69	1023.38	1194.38	1249.50	1403.00	2041.50	1937.06	1437.38	1314.88	1350.25	1593.94	1514.56	1291.75	1171.12	1350.00	1309.62	1295.12	1232.88	1147.44	1088.12	1022.12	949.06	870.81	789.62	718.31	695.56	647.75	583.81	546.56	507.62	459.00	423.12	392.69	364.19	330.38	290.69	255.06	217.19	180.06	155.88	121.06	96.31	72.12	47.50	29.19	11.12	2.19	-2.19	-7.88	-12.75	-16.38	-19.88	-26.44	-27.00	-27.00	-27.00	-27.00	-27.00	-27.00	-27.00	-27.00	-27.00	-27.00	-27.00	-27.00	-27.00	-27.00	-27.00	-27.00	-27.00	-27.00	-27.00	-27.00	-27.00	-27.00	-27.00	-27.00	-27.00	-27.00	-27.00	-27.00	-27.00	-27.00	-27.00	-27.00	-27.00	-27.00	-27.00	-27.00	-27.00	-27.00	-27.00	-27.00	-27.00	-27.00	-27.00	-27.00	-27.00	-27.00	-27.00	-27.00	-27.00	-27.00	-27.00	-27.00	-27.00	-27.00	-27.00	-27.00	-27.00	-27.00	-27.00	-27.00	-27.00	-27.00	-27.00	-27.00	-27.00	-27.00	-27.00	-27.00	-27.00	-27.00	-27.00	-27.00
307.44	293.31	284.69	278.88	276.19	276.12	275.19	273.88	271.75	295.31	312.31	337.69	356.44	435.94	536.25	527.12	484.44	500.88	617.69	513.19	536.62	531.19	532.69	586.38	562.06	656.31	630.62	571.50	504.25	455.69	408.31	382.88	342.12	371.81	420.12	442.88	432.88	412.88	376.69	399.06	484.62	527.44	554.25	620.19	665.50	644.00	654.56	653.12	661.62	659.56	676.06	754.50	812.81	714.50	660.19	624.25	592.31	575.81	565.81	562.25	569.00	588.31	613.50	640.19	668.56	693.50	597.44	439.44	325.88	236.25	195.75	182.12	189.06	188.69	193.19	193.62	195.19	195.06	199.62	208.56	227.31	254.56	279.69	318.75	374.69	437.38	501.56	611.00	742.50	916.62	1297.06	1469.75	1395.88	1398.31	1747.44	2084.50	2250.56	1823.94	1639.44	2124.12	2445.00	2725.12	2911.94	2901.25	3200.12	3160.06	2882.06	2561.50	2463.62	2108.44	2410.06	2658.00	2725.62	3001.06	2827.31	2485.19	2767.12	2518.75	2034.88	1702.75	1482.56	1742.88	2009.75	1582.25	1950.38	2097.62	1860.69	1582.88	1644.06	1502.88	1551.56	1441.94	1110.50	1513.31	1546.44	1586.94	2120.06	1939.12	1401.19	1599.75	1584.31	1679.75	1452.19	1256.81	1339.19	1458.44	1415.81	1356.25	1271.19	1207.31	1126.69	1052.69	978.25	842.12	773.94	778.56	713.50	656.44	623.75	587.94	541.12	484.38	445.75	415.62	382.50	346.81	305.56	267.31	228.44	191.19	164.25	133.62	108.44	84.06	58.06	40.38	20.31	7.25	-0.25	-5.25	-10.75	-16.00	-18.38	-24.00	-26.88	-27.00	-27.00	-27.00	-27.00	-27.00	-27.00	-27.00	-27.00	-27.00	-27.00	-27.00	-27.00	-27.00	-27.00	-27.00	-27.00	-27.00	-27.00	-27.00	-27.00	-27.00	-27.00	-27.00	-27.00	-27.00	-27.00	-27.00	-27.00	-27.00	-27.00	-27.00	-27.00	-27.00	-27.00	-27.00	-27.00	-27.00	-27.00	-27.00	-27.00	-27.00	-27.00	-27.00	-27.00	-27.00	-27.00	-27.00	-27.00	-27.00	-27.00	-27.00	-27.00	-27.00	-27.00	-27.00	-27.00	-27.00	-27.00	-27.00	-27.00	-27.00	-27.00	-27.00	-27.00	-27.00	-27.00	-27.00	-27.00	-27.00	-27.00	-27.00
309.56	297.25	285.12	279.56	273.31	271.19	270.25	269.19	266.75	262.25	277.75	347.56	386.75	417.19	473.44	514.25	515.00	455.81	452.62	454.25	446.06	461.06	496.19	556.81	551.94	605.19	637.81	598.00	609.44	520.44	408.62	372.88	335.50	337.00	359.31	374.38	373.25	367.75	366.06	388.06	432.44	459.44	514.81	602.94	721.94	730.19	640.00	609.75	598.12	623.25	661.50	719.12	801.00	736.88	671.00	626.81	592.12	574.94	562.56	557.94	559.19	569.50	586.56	607.50	630.31	655.44	676.81	655.56	569.88	409.56	297.94	208.25	179.69	179.88	180.69	187.38	189.62	195.69	197.44	205.88	227.44	249.12	275.75	310.25	359.94	413.75	462.00	479.19	611.19	950.00	1052.62	974.88	1043.56	1447.69	1732.50	1859.81	1988.50	1546.94	1646.69	1812.50	2055.69	2342.94	2715.50	3168.25	3404.94	3538.12	3356.19	2934.81	2867.62	2336.94	2032.69	2233.12	2452.94	2508.44	2584.50	2256.94	2272.44	2281.81	2122.81	1597.88	1689.19	1950.94	2153.31	1789.50	1920.25	2196.81	2017.31	1881.38	1991.75	1659.50	1684.62	1320.44	1256.56	1746.50	2161.69	2245.62	2194.75	1816.00	1583.50	1852.06	1779.56	1642.00	1419.69	1473.50	1617.19	1572.69	1522.19	1429.44	1330.44	1259.94	1135.06	1035.12	894.06	908.94	881.00	784.12	756.38	715.69	661.94	618.75	562.25	502.69	477.19	438.62	401.12	360.31	317.50	279.62	242.12	206.06	178.38	145.00	120.94	94.94	72.06	51.62	28.75	13.00	3.69	-2.56	-9.75	-15.25	-18.19	-20.25	-25.81	-27.00	-27.00	-27.00	-27.00	-27.00	-27.00	-27.00	-27.00	-27.00	-27.00	-27.00	-27.00	-27.00	-27.00	-27.00	-27.00	-27.00	-27.00	-27.00	-27.00	-27.00	-27.00	-27.00	-27.00	-27.00	-27.00	-27.00	-27.00	-27.00	-27.00	-27.00	-27.00	-27.00	-27.00	-27.00	-27.00	-27.00	-27.00	-27.00	-27.00	-27.00	-27.00	-27.00	-27.00	-27.00	-27.00	-27.00	-27.00	-27.00	-27.00	-27.00	-27.00	-27.00	-27.00	-27.00	-27.00	-27.00	-27.00	-27.00	-27.00	-27.00	-27.00	-27.00	-27.00	-27.00	-27.00	-27.00	-27.00	-27.00	-27.00	-27.00
306.94	311.44	297.06	280.00	274.25	266.69	266.44	264.88	263.44	260.25	259.12	283.44	357.62	428.06	421.44	425.50	466.94	462.75	433.12	410.31	425.06	428.00	446.31	569.25	580.25	540.56	522.38	525.62	563.94	570.06	521.06	489.94	398.06	340.81	339.06	335.81	330.44	360.25	359.56	357.94	390.81	421.44	480.25	546.44	600.88	621.00	578.19	546.12	555.50	602.31	619.50	652.94	779.38	764.00	699.62	647.25	601.06	578.19	563.81	558.38	559.12	567.12	574.31	585.75	603.94	615.50	637.19	669.00	697.31	598.56	456.12	291.75	224.25	185.69	174.62	178.12	190.00	189.75	196.19	207.12	220.56	237.06	263.56	291.50	330.19	371.19	401.31	402.00	423.12	735.19	699.19	782.31	1059.25	1162.06	1145.19	1475.44	1324.25	1365.69	1652.00	2018.25	2304.94	2398.44	3012.12	3390.44	3233.06	3133.50	3057.19	2878.31	2422.12	2173.75	2434.62	1972.69	1945.44	2136.00	2032.00	2004.56	1888.62	1816.75	1681.25	1695.81	1978.12	2356.31	2459.56	1964.44	2094.81	2486.44	2258.56	2334.06	2387.62	1926.31	1660.50	1335.25	1447.62	1808.50	2498.81	2408.19	2172.62	1904.44	1787.31	1894.69	1755.94	1619.50	1566.31	1687.50	1768.69	1677.31	1567.44	1420.50	1255.31	1080.50	951.56	953.75	1035.38	962.75	878.19	851.88	796.00	749.62	675.19	624.25	559.12	532.31	492.75	445.69	409.00	369.06	327.06	290.75	254.38	216.50	187.25	157.69	133.81	110.56	80.50	57.06	31.44	14.81	3.81	-2.50	-8.69	-13.44	-16.56	-19.69	-23.50	-26.75	-27.00	-27.00	-27.00	-27.00	-27.00	-27.00	-27.00	-27.00	-27.00	-27.00	-27.00	-27.00	-27.00	-27.00	-27.00	-27.00	-27.00	-27.00	-27.00	-27.00	-27.00	-27.00	-27.00	-27.00	-27.00	-27.00	-27.00	-27.00	-27.00	-27.00	-27.00	-27.00	-27.00	-27.00	-27.00	-27.00	-27.00	-27.00	-27.00	-27.00	-27.00	-27.00	-27.00	-27.00	-27.00	-27.00	-27.00	-27.00	-27.00	-27.00	-27.00	-27.00	-27.00	-27.00	-27.00	-27.00	-27.00	-27.00	-27.00	-27.00	-27.00	-27.00	-27.00	-27.00	-27.00	-27.00	-27.00	-27.00	-27.00	-27.00
294.25	286.88	309.19	290.06	272.31	265.12	262.00	261.06	260.06	257.75	260.06	263.94	342.31	386.31	416.94	419.06	431.62	408.25	378.25	384.00	398.44	409.75	436.56	522.38	586.12	469.62	460.00	458.31	518.19	538.88	519.69	529.50	492.38	418.88	377.94	333.62	310.94	303.56	317.25	335.62	367.88	406.56	437.50	473.25	513.38	530.62	523.69	495.62	487.38	517.31	573.56	728.62	768.06	749.38	718.38	684.44	625.56	587.62	570.06	565.12	568.56	579.44	584.50	580.19	581.25	588.25	606.69	633.38	681.38	702.19	604.31	424.94	288.00	240.38	195.50	175.25	176.62	187.31	192.81	199.19	215.44	227.56	244.06	269.56	290.00	318.62	333.94	340.38	388.19	483.75	583.00	629.31	685.31	800.38	928.00	950.19	1092.75	1575.94	1708.50	2123.25	2777.31	3151.06	3297.75	3395.25	3185.56	3007.75	2778.94	2439.88	2296.12	2468.62	2477.06	2349.62	2331.44	2044.75	1880.25	2185.06	1687.81	2016.00	1941.88	1740.06	2420.81	2477.81	2417.50	2235.00	2223.88	2589.75	2770.56	3023.94	2830.38	2216.62	1795.12	1512.44	1537.62	1942.75	2642.56	2636.25	2337.31	1978.25	2061.50	1927.44	1867.94	1800.31	1626.12	1457.12	1515.50	1391.31	1223.62	1098.44	1055.88	1124.19	1187.38	1192.62	1054.69	1003.69	962.62	841.19	768.00	700.81	669.50	641.00	599.44	544.88	499.69	462.00	428.12	386.69	343.06	305.06	264.94	228.81	209.56	183.06	160.06	128.19	94.50	69.50	39.44	18.19	4.19	-3.69	-7.50	-11.00	-15.12	-18.44	-20.38	-25.75	-27.00	-27.00	-27.00	-27.00	-27.00	-27.00	-27.00	-27.00	-27.00	-27.00	-27.00	-27.00	-27.00	-27.00	-27.00	-27.00	-27.00	-27.00	-27.00	-27.00	-27.00	-27.00	-27.00	-27.00	-27.00	-27.00	-27.00	-27.00	-27.00	-27.00	-27.00	-27.00	-27.00	-27.00	-27.00	-27.00	-27.00	-27.00	-27.00	-27.00	-27.00	-27.00	-27.00	-27.00	-27.00	-27.00	-27.00	-27.00	-27.00	-27.00	-27.00	-27.00	-27.00	-27.00	-27.00	-27.00	-27.00	-27.00	-27.00	-27.00	-27.00	-27.00	-27.00	-27.00	-27.00	-27.00	-27.00	-27.00	-27.00	-27.00
337.69	311.06	296.44	295.75	271.69	266.06	259.31	256.19	255.88	254.38	250.75	252.19	282.06	356.88	384.00	392.56	357.50	346.88	355.12	376.81	392.69	410.06	423.69	483.12	590.31	481.44	439.00	435.44	453.56	458.62	422.88	397.94	390.19	373.12	377.81	394.12	419.00	341.25	304.19	324.94	364.62	388.25	413.25	462.69	524.94	496.50	464.94	455.81	450.31	474.88	520.50	600.88	631.62	678.50	681.62	707.94	649.69	596.38	587.81	589.19	592.69	600.50	605.88	602.69	586.88	575.06	582.75	608.88	644.81	673.44	713.44	516.44	400.44	330.25	257.75	211.81	176.75	182.56	190.56	203.56	207.94	215.06	231.31	245.25	256.50	271.00	281.69	297.62	340.31	398.44	418.62	443.62	574.75	674.12	760.81	854.06	1025.31	1184.00	1477.31	1972.81	2722.69	3116.94	3029.44	3260.19	3266.69	3332.44	2989.94	2673.56	2781.25	2719.12	2484.56	2972.75	2667.81	2079.75	2450.19	2738.69	1827.62	2264.69	2225.81	1707.50	1876.25	2122.88	2325.00	2581.31	2646.75	2727.06	3275.06	3713.00	3163.81	2374.81	1872.31	1760.62	1891.31	2056.94	2630.69	2568.19	2271.44	2232.44	2369.69	2279.62	1941.38	1617.19	1413.44	1325.19	1257.56	1198.56	1163.56	1244.56	1407.12	1411.19	1300.75	1163.94	1129.44	997.69	823.50	941.75	915.94	830.69	742.31	665.06	594.38	560.94	535.00	490.38	448.25	404.81	357.69	314.69	278.12	269.31	249.88	213.94	181.69	143.94	105.56	76.00	44.75	21.00	4.25	-1.44	-6.12	-11.12	-16.44	-20.38	-22.62	-24.31	-26.88	-27.00	-27.00	-27.00	-27.00	-27.00	-27.00	-27.00	-27.00	-27.00	-27.00	-27.00	-27.00	-27.00	-27.00	-27.00	-27.00	-27.00	-27.00	-27.00	-27.00	-27.00	-27.00	-27.00	-27.00	-27.00	-27.00	-27.00	-27.00	-27.00	-27.00	-27.00	-27.00	-27.00	-27.00	-27.00	-27.00	-27.00	-27.00	-27.00	-27.00	-27.00	-27.00	-27.00	-27.00	-27.00	-27.00	-27.00	-27.00	-27.00	-27.00	-27.00	-27.00	-27.00	-27.00	-27.00	-27.00	-27.00	-27.00	-27.00	-27.00	-27.00	-27.00	-27.00	-27.00	-27.00	-27.00	-27.00	-27.00	-27.00
454.94	429.00	385.94	312.69	272.75	259.62	260.69	255.25	250.31	248.06	246.88	244.62	257.44	284.38	321.50	317.25	323.94	344.94	371.75	384.69	442.88	464.31	437.44	438.50	463.12	444.00	423.81	433.38	449.56	496.12	587.19	511.75	391.12	372.12	367.50	373.00	425.06	461.25	338.38	295.19	373.81	447.75	465.12	497.50	474.94	428.69	414.19	422.06	433.81	445.38	462.06	490.69	517.19	596.69	567.31	582.69	615.56	619.25	657.12	693.44	675.31	678.31	686.50	646.25	609.06	580.19	565.44	585.31	598.19	612.38	690.69	632.25	541.31	490.19	385.75	296.38	195.56	180.94	193.31	193.94	200.81	211.19	218.19	226.50	235.19	244.75	255.75	272.94	302.25	333.88	389.81	461.25	548.25	633.50	701.44	770.19	939.50	1272.62	1460.94	1792.81	2322.94	2738.94	2354.00	2967.38	3380.12	3239.56	3033.12	3239.94	3117.88	2938.38	2946.56	2659.12	2160.75	2580.62	3177.81	2873.44	2068.12	2231.25	2655.56	1973.25	1957.94	2217.31	2452.19	2639.75	2882.75	2866.12	3243.06	3543.94	3141.31	2503.94	2010.62	2184.75	2660.81	2822.06	2943.00	2771.25	2557.06	2569.38	2539.06	2313.25	2223.69	1761.19	1617.88	1510.19	1463.12	1506.25	1323.50	1434.88	1430.00	1342.94	1234.69	1212.06	1111.19	869.06	999.19	1003.00	984.75	931.19	852.75	723.50	677.06	621.88	576.25	505.44	460.62	420.25	368.44	345.06	372.69	311.94	291.81	236.50	191.12	150.25	108.19	76.00	43.75	22.81	11.12	2.44	-4.75	-12.69	-17.31	-21.69	-23.88	-23.62	-25.75	-27.00	-27.00	-27.00	-27.00	-27.00	-27.00	-27.00	-27.00	-27.00	-27.00	-27.00	-27.00	-27.00	-27.00	-27.00	-27.00	-27.00	-27.00	-27.00	-27.00	-27.00	-27.00	-27.00	-27.00	-27.00	-27.00	-27.00	-27.00	-27.00	-27.00	-27.00	-27.00	-27.00	-27.00	-27.00	-27.00	-27.00	-27.00	-27.00	-27.00	-27.00	-27.00	-27.00	-27.00	-27.00	-27.00	-27.00	-27.00	-27.00	-27.00	-27.00	-27.00	-27.00	-27.00	-27.00	-27.00	-27.00	-27.00	-27.00	-27.00	-27.00	-27.00	-27.00	-27.00	-27.00	-27.00	-27.00	-27.00	-27.00
585.25	506.31	408.25	345.00	309.62	282.88	258.56	253.50	248.50	246.06	241.56	238.81	237.44	247.25	262.38	267.38	293.25	342.12	356.94	391.06	419.19	455.00	447.06	417.38	423.31	413.25	415.50	436.12	457.88	486.00	594.31	704.00	535.94	404.19	375.25	369.62	409.00	429.25	356.69	292.62	340.62	465.19	480.75	444.12	403.38	390.06	379.69	393.94	412.88	435.12	442.12	429.31	438.88	496.06	451.88	484.94	534.62	587.75	637.06	633.88	627.81	631.31	682.69	690.88	675.94	610.69	557.31	576.62	569.31	535.81	570.56	589.75	638.00	645.00	564.69	408.00	239.75	172.50	184.25	194.69	201.81	204.94	209.81	220.44	221.31	230.62	240.75	263.00	287.56	320.25	368.75	424.88	499.38	570.62	628.38	783.19	850.38	1102.44	1440.50	1788.06	2010.75	2286.25	1960.69	2545.50	3092.44	3334.75	3260.19	3321.50	3176.44	3295.75	2757.56	2340.38	2260.06	2844.81	3157.69	2844.12	2256.12	2275.69	3034.06	2459.31	2100.31	2016.00	2259.81	2486.44	2528.06	2810.50	3111.75	3183.38	2858.88	2380.31	2263.00	3038.38	3691.81	3587.31	3244.19	2957.62	3214.56	3177.19	2870.25	2362.88	2025.12	1703.44	1987.44	1921.75	1679.88	1664.62	1637.19	1622.25	1426.62	1351.75	1393.69	1266.19	1003.81	1067.19	1174.94	1040.75	983.50	907.62	795.31	757.75	750.19	741.44	637.75	595.56	511.50	459.00	469.19	479.06	431.75	417.06	452.19	351.06	248.94	154.25	103.81	75.38	49.81	33.06	15.62	2.50	-3.56	-10.06	-16.62	-21.38	-23.56	-24.31	-24.50	-26.88	-27.00	-27.00	-27.00	-27.00	-27.00	-27.00	-27.00	-27.00	-27.00	-27.00	-27.00	-27.00	-27.00	-27.00	-27.00	-27.00	-27.00	-27.00	-27.00	-27.00	-27.00	-27.00	-27.00	-27.00	-27.00	-27.00	-27.00	-27.00	-27.00	-27.00	-27.00	-27.00	-27.00	-27.00	-27.00	-27.00	-27.00	-27.00	-27.00	-27.00	-27.00	-27.00	-27.00	-27.00	-27.00	-27.00	-27.00	-27.00	-27.00	-27.00	-27.00	-27.00	-27.00	-27.00	-27.00	-27.00	-27.00	-27.00	-27.00	-27.00	-27.00	-27.00	-27.00	-27.00	-27.00	-27.00	-27.00	-27.00
582.56	497.56	434.19	377.12	357.56	335.81	300.31	283.38	260.19	245.00	244.69	239.12	235.06	236.06	246.44	248.94	258.62	274.25	307.44	357.44	382.00	390.75	380.75	343.00	385.56	409.62	418.88	442.19	486.31	524.81	540.44	584.00	750.69	605.56	422.38	387.31	373.38	354.44	322.19	308.00	291.88	350.06	394.62	370.31	355.56	371.00	378.81	387.75	394.88	410.75	460.62	434.69	376.62	410.19	374.56	373.06	424.50	501.44	614.81	639.06	662.00	626.56	607.38	584.00	588.88	588.12	550.44	526.25	496.25	487.75	501.56	502.31	516.31	619.06	638.56	473.44	302.88	207.56	167.25	188.75	191.38	203.12	206.88	206.94	211.12	219.75	229.88	247.75	270.06	300.62	338.62	382.62	440.44	491.38	517.38	766.56	988.44	1393.75	1620.00	1793.50	1535.75	1811.25	1737.81	2152.00	2588.88	2853.00	3210.62	3271.19	2913.62	2848.38	2669.88	2619.19	2639.88	3039.62	2662.81	2379.44	2078.19	2345.25	3110.12	2983.00	2709.50	2368.25	2399.56	2662.56	2826.75	2841.00	2787.38	2824.25	2645.81	2382.56	2655.56	3459.19	3867.25	3864.75	3680.06	3613.00	3547.25	3517.69	3312.50	2719.62	2102.62	1909.38	2303.81	2416.94	2191.12	2045.31	2052.69	1760.06	1580.25	1588.06	1393.50	1103.06	1017.06	1298.44	1193.81	1028.50	904.31	828.44	877.88	831.56	832.56	846.81	759.50	587.81	508.19	477.25	604.44	555.62	466.25	662.81	592.69	387.88	305.00	219.62	157.75	106.94	70.00	45.62	22.25	5.56	-3.06	-10.75	-16.44	-20.69	-23.75	-24.75	-23.25	-26.50	-27.00	-27.00	-27.00	-27.00	-27.00	-27.00	-27.00	-27.00	-27.00	-27.00	-27.00	-27.00	-27.00	-27.00	-27.00	-27.00	-27.00	-27.00	-27.00	-27.00	-27.00	-27.00	-27.00	-27.00	-27.00	-27.00	-27.00	-27.00	-27.00	-27.00	-27.00	-27.00	-27.00	-27.00	-27.00	-27.00	-27.00	-27.00	-27.00	-27.00	-27.00	-27.00	-27.00	-27.00	-27.00	-27.00	-27.00	-27.00	-27.00	-27.00	-27.00	-27.00	-27.00	-27.00	-27.00	-27.00	-27.00	-27.00	-27.00	-27.00	-27.00	-27.00	-27.00	-27.00	-27.00	-27.00	-27.00	-27.00
604.50	594.38	557.19	446.25	395.62	367.88	339.94	337.88	309.00	265.88	244.50	239.12	234.81	232.88	228.44	227.31	233.12	238.81	246.56	267.44	284.62	303.44	314.69	321.56	420.00	419.31	419.50	447.00	499.94	589.25	633.06	589.12	687.81	809.00	549.44	430.44	403.75	399.62	355.56	304.69	269.88	283.88	302.44	315.44	379.94	480.44	481.88	459.00	427.88	401.06	409.50	349.50	309.44	302.38	305.88	311.12	349.81	401.75	505.25	597.44	640.19	638.62	578.19	567.12	557.75	531.38	544.50	591.50	536.06	455.75	460.88	470.62	504.50	649.38	693.75	489.12	312.56	192.75	184.38	189.62	181.06	188.88	192.50	190.75	199.19	211.19	218.06	231.69	252.19	277.69	312.56	344.31	382.88	414.12	424.94	518.25	814.00	1221.00	1475.19	1329.19	1337.44	1381.94	1547.50	1688.12	1899.88	2304.31	2508.31	2724.25	2854.38	2922.50	2761.19	2754.81	2958.06	3048.75	3051.19	2609.31	2248.44	2595.56	2761.62	3186.88	3009.88	2515.94	3135.75	3468.75	3205.06	2729.00	2557.62	2495.44	2430.56	2445.50	2774.56	3265.62	3394.94	3370.69	3381.00	3634.25	4041.38	3796.62	3079.81	2661.50	2122.50	2362.06	2963.88	3028.69	2786.19	2543.56	2183.25	1933.50	1864.31	1640.06	1309.62	1054.69	1253.44	1327.56	1200.44	986.31	889.62	905.31	926.75	859.69	901.44	766.56	728.88	637.62	515.31	607.56	600.75	481.94	552.38	604.94	420.56	382.25	374.56	367.75	211.38	165.25	102.56	54.00	21.38	4.19	-2.88	-9.38	-15.00	-20.25	-23.19	-24.06	-23.56	-25.19	-27.00	-27.00	-27.00	-27.00	-27.00	-27.00	-27.00	-27.00	-27.00	-27.00	-27.00	-27.00	-27.00	-27.00	-27.00	-27.00	-27.00	-27.00	-27.00	-27.00	-27.00	-27.00	-27.00	-27.00	-27.00	-27.00	-27.00	-27.00	-27.00	-27.00	-27.00	-27.00	-27.00	-27.00	-27.00	-27.00	-27.00	-27.00	-27.00	-27.00	-27.00	-27.00	-27.00	-27.00	-27.00	-27.00	-27.00	-27.00	-27.00	-27.00	-27.00	-27.00	-27.00	-27.00	-27.00	-27.00	-27.00	-27.00	-27.00	-27.00	-27.00	-27.00	-27.00	-27.00	-27.00	-27.00	-27.00	-27.00
691.81	648.25	546.75	493.88	454.44	428.12	410.44	378.50	340.75	307.69	301.69	251.19	231.50	229.31	226.44	222.25	218.69	216.00	216.56	220.69	224.94	239.62	249.50	302.62	390.06	436.69	426.25	435.88	484.50	572.12	652.62	664.00	644.06	716.31	744.50	532.44	445.31	440.38	489.44	360.06	279.19	266.25	289.06	290.06	330.25	385.50	457.00	451.12	412.12	372.50	367.50	306.25	270.31	261.75	265.75	265.69	296.12	361.81	464.94	515.38	501.81	517.06	521.50	571.69	600.50	581.56	563.62	530.62	481.69	488.81	472.69	486.00	554.62	638.31	558.25	401.19	269.25	216.88	238.19	220.06	213.69	223.75	273.56	244.88	217.69	201.81	204.25	219.88	237.31	257.12	284.00	308.69	331.75	348.88	353.81	411.62	673.81	929.12	1167.12	983.69	1172.06	1558.81	1641.94	1819.31	2055.50	2000.44	1976.81	2149.19	2624.31	2641.88	2265.88	2271.12	2561.81	2876.75	3135.12	2827.50	2491.88	3009.00	3031.12	3407.75	2695.44	2636.44	3238.62	3350.31	3056.44	3069.75	2868.94	2807.62	2846.12	2732.62	2874.31	3156.75	3207.19	2954.31	3036.56	3087.88	3356.81	2966.69	2657.94	2559.62	2581.31	3157.69	3305.06	3051.25	2818.31	2845.69	2517.38	2445.75	2348.12	1802.19	1382.38	1336.75	1569.00	1460.19	1268.81	1074.19	1162.44	1046.69	896.69	946.62	822.44	679.75	585.94	559.38	581.25	721.94	545.06	554.38	598.81	496.44	429.50	342.88	317.44	268.19	392.06	259.62	157.31	86.62	36.19	5.44	-2.62	-5.75	-11.69	-17.00	-21.44	-23.75	-24.06	-24.44	-26.81	-27.00	-27.00	-27.00	-27.00	-27.00	-27.00	-27.00	-27.00	-27.00	-27.00	-27.00	-27.00	-27.00	-27.00	-27.00	-27.00	-27.00	-27.00	-27.00	-27.00	-27.00	-27.00	-27.00	-27.00	-27.00	-27.00	-27.00	-27.00	-27.00	-27.00	-27.00	-27.00	-27.00	-27.00	-27.00	-27.00	-27.00	-27.00	-27.00	-27.00	-27.00	-27.00	-27.00	-27.00	-27.00	-27.00	-27.00	-27.00	-27.00	-27.00	-27.00	-27.00	-27.00	-27.00	-27.00	-27.00	-27.00	-27.00	-27.00	-27.00	-27.00	-27.00	-27.00	-27.00	-27.00	-27.00	-27.00
715.94	637.44	569.12	560.00	510.88	477.00	415.31	379.50	346.38	339.56	316.44	280.06	243.94	229.25	223.81	222.94	217.81	214.12	211.75	208.50	208.75	208.62	218.62	283.88	354.06	407.56	426.94	428.12	459.69	523.56	575.75	617.31	665.00	651.25	684.19	669.62	547.44	478.25	544.31	481.56	325.62	269.50	262.56	262.69	295.31	329.81	363.50	361.56	380.75	324.56	307.25	276.88	275.62	237.50	240.12	242.81	293.06	351.81	401.62	405.00	407.56	442.94	442.75	537.38	570.81	557.75	560.25	580.31	539.50	468.88	536.25	543.69	607.31	650.25	470.00	362.88	212.44	251.50	281.25	240.06	237.81	270.94	385.69	346.94	299.38	232.25	211.69	211.19	226.12	243.50	264.94	284.31	300.69	312.38	317.19	361.94	582.56	852.25	854.00	953.06	1413.31	1825.81	1791.62	1862.62	1891.94	1752.00	1758.06	1951.38	2120.38	2496.69	2238.56	1934.88	2230.25	2990.81	3083.50	2903.19	2774.62	2993.38	3370.81	3386.94	2972.19	2917.12	3356.44	3379.06	3464.06	3098.50	3118.00	3152.06	3200.81	3131.69	3240.44	3467.69	3488.88	3042.62	2820.25	2772.44	2871.19	2723.75	2634.94	2835.44	3037.25	3533.38	3464.75	3167.19	2837.69	2673.69	2539.88	2547.31	2354.62	1846.06	1276.88	1505.38	1759.62	1575.06	1396.56	1183.62	1150.25	1019.50	1026.56	999.06	827.88	677.00	656.31	681.31	665.00	613.62	569.69	660.00	610.56	507.88	387.88	346.44	340.62	331.56	492.50	341.06	200.50	131.88	68.75	19.12	1.62	-0.31	-7.31	-14.12	-19.44	-22.12	-23.81	-23.88	-26.62	-27.00	-27.00	-27.00	-27.00	-27.00	-27.00	-27.00	-27.00	-27.00	-27.00	-27.00	-27.00	-27.00	-27.00	-27.00	-27.00	-27.00	-27.00	-27.00	-27.00	-27.00	-27.00	-27.00	-27.00	-27.00	-27.00	-27.00	-27.00	-27.00	-27.00	-27.00	-27.00	-27.00	-27.00	-27.00	-27.00	-27.00	-27.00	-27.00	-27.00	-27.00	-27.00	-27.00	-27.00	-27.00	-27.00	-27.00	-27.00	-27.00	-27.00	-27.00	-27.00	-27.00	-27.00	-27.00	-27.00	-27.00	-27.00	-27.00	-27.00	-27.00	-27.00	-27.00	-27.00	-27.00	-27.00	-27.00
715.44	648.94	631.00	591.88	525.25	469.12	439.44	424.12	430.00	394.25	345.19	324.75	290.69	271.19	266.12	266.25	273.25	257.62	245.19	224.75	222.06	211.81	203.25	236.00	321.12	355.62	394.94	418.38	433.19	471.12	513.94	533.44	613.12	620.25	592.75	626.62	703.12	606.38	569.25	622.38	507.94	358.06	282.69	256.44	248.94	272.88	274.94	264.06	278.69	267.25	249.38	228.50	238.00	215.38	216.69	213.19	236.88	257.19	294.62	280.62	285.56	305.62	448.88	535.94	551.88	532.56	511.44	485.50	528.75	439.38	452.19	566.12	561.50	557.25	361.69	211.94	278.56	415.62	325.25	275.06	275.25	321.69	458.88	505.38	447.62	358.19	299.44	241.25	216.12	226.94	242.88	255.56	267.88	280.62	307.38	365.69	472.44	740.38	714.44	892.25	1231.06	1589.75	1397.12	1572.00	1959.62	1637.56	1477.06	1511.31	1658.62	2270.81	2095.12	1814.19	2190.25	2688.69	3089.38	3129.62	3030.25	3140.00	3095.81	2742.12	2811.25	3073.19	3336.06	3488.19	3470.12	3316.50	3264.50	3512.88	3434.44	3848.88	3966.50	3738.50	3213.00	2860.62	3005.06	2965.31	2831.44	2820.06	2840.44	2826.00	2866.81	2933.56	3260.94	3189.81	2931.62	2451.06	2169.44	2103.75	1997.00	1755.88	1813.06	1982.56	2046.00	1848.56	1636.31	1486.06	1192.25	1054.88	1067.94	944.38	820.69	775.12	839.88	836.31	720.12	644.69	655.06	568.06	510.56	452.69	463.62	420.25	452.00	515.25	530.62	479.88	292.00	198.69	138.69	80.69	32.44	17.12	3.75	-6.69	-15.50	-19.62	-21.94	-23.94	-26.25	-27.00	-27.00	-27.00	-27.00	-27.00	-27.00	-27.00	-27.00	-27.00	-27.00	-27.00	-27.00	-27.00	-27.00	-27.00	-27.00	-27.00	-27.00	-27.00	-27.00	-27.00	-27.00	-27.00	-27.00	-27.00	-27.00	-27.00	-27.00	-27.00	-27.00	-27.00	-27.00	-27.00	-27.00	-27.00	-27.00	-27.00	-27.00	-27.00	-27.00	-27.00	-27.00	-27.00	-27.00	-27.00	-27.00	-27.00	-27.00	-27.00	-27.00	-27.00	-27.00	-27.00	-27.00	-27.00	-27.00	-27.00	-27.00	-27.00	-27.00	-27.00	-27.00	-27.00	-27.00	-27.00	-27.00	-27.00
712.56	685.50	604.25	591.94	573.88	553.69	510.56	492.19	494.75	482.44	399.50	344.38	314.69	304.19	302.75	290.25	299.31	302.81	295.69	242.94	255.25	236.81	207.69	202.56	231.31	312.88	331.06	354.88	400.88	423.06	465.25	462.12	515.06	560.75	551.88	586.56	602.50	562.00	533.44	566.75	652.69	533.75	394.56	327.81	283.88	249.19	234.00	238.81	234.06	226.81	216.12	197.56	192.31	187.56	186.81	176.75	184.31	216.25	244.00	228.75	229.56	241.25	307.06	441.38	483.38	450.25	453.38	478.25	447.81	425.38	382.12	483.50	541.75	487.38	328.62	201.56	401.75	449.25	391.69	329.19	315.06	356.62	464.19	537.44	571.69	495.25	459.50	393.06	253.00	225.06	230.06	238.81	252.06	278.06	315.00	379.75	451.69	542.19	608.69	714.00	957.06	1197.19	1111.12	1371.38	1710.81	1582.00	1255.62	1342.75	1653.88	1974.19	1733.81	1825.00	1990.62	2257.62	2654.38	3069.69	3054.62	2595.50	2557.06	2376.81	2246.25	2419.06	2821.62	3558.06	3508.88	3635.12	3268.88	3328.06	2976.94	3650.00	3683.94	3491.75	3253.31	3085.38	3270.94	3312.06	2996.06	3212.69	3211.50	2717.69	2477.75	2511.31	2687.06	2715.19	2598.44	2121.31	1942.00	1776.38	1740.69	1881.38	2065.75	2246.88	2220.06	2098.50	1979.19	1825.50	1339.88	1368.06	1390.31	1190.19	921.94	1020.94	1030.62	993.88	728.81	837.50	781.69	674.06	624.12	537.38	513.12	543.31	534.56	489.94	451.25	453.69	391.19	302.25	236.44	166.94	111.19	43.19	11.38	0.00	-9.25	-14.25	-18.06	-23.12	-25.75	-27.00	-27.00	-27.00	-27.00	-27.00	-27.00	-27.00	-27.00	-27.00	-27.00	-27.00	-27.00	-27.00	-27.00	-27.00	-27.00	-27.00	-27.00	-27.00	-27.00	-27.00	-27.00	-27.00	-27.00	-27.00	-27.00	-27.00	-27.00	-27.00	-27.00	-27.00	-27.00	-27.00	-27.00	-27.00	-27.00	-27.00	-27.00	-27.00	-27.00	-27.00	-27.00	-27.00	-27.00	-27.00	-27.00	-27.00	-27.00	-27.00	-27.00	-27.00	-27.00	-27.00	-27.00	-27.00	-27.00	-27.00	-27.00	-27.00	-27.00	-27.00	-27.00	-27.00	-27.00	-27.00	-27.00	-27.00
819.75	748.31	719.31	736.88	737.81	674.56	662.56	579.44	589.31	615.19	497.56	376.38	332.44	330.12	317.56	303.62	303.19	311.38	307.69	257.81	284.38	278.62	259.81	221.38	196.44	229.12	254.88	286.62	329.81	356.88	413.75	414.62	472.75	526.50	550.00	583.62	562.31	534.06	506.00	502.25	570.62	632.25	541.38	442.31	449.56	339.94	304.06	322.38	301.62	292.25	265.19	259.44	289.00	219.81	219.94	182.19	158.44	203.94	212.25	190.31	194.56	203.94	208.44	260.38	384.75	433.00	354.12	387.19	413.69	392.56	347.56	405.44	438.00	393.38	262.62	164.38	297.56	465.69	524.50	440.75	383.31	387.56	454.44	505.31	541.12	573.88	602.19	463.25	335.38	259.56	226.38	234.44	249.81	276.19	312.19	366.25	421.69	481.62	519.69	684.81	1026.06	881.12	980.88	1387.62	1385.50	1284.00	1167.31	1521.69	1642.44	1533.25	1556.50	1640.19	1755.25	2027.88	2423.81	2296.81	2689.00	2601.75	2156.00	2088.88	2051.62	2129.50	2574.12	3259.19	3484.19	3496.56	3263.31	2800.31	2673.06	3244.81	3399.88	3561.75	3666.75	3440.31	3316.88	3764.12	3253.50	3425.00	3087.88	2915.94	2573.00	2286.00	2310.00	2345.94	2189.31	1945.06	2054.75	1735.12	1907.69	2084.06	2144.75	2084.44	2002.62	1831.38	1876.38	1719.25	1569.44	1669.00	1595.12	1252.62	1080.12	1351.12	1339.38	1139.94	800.94	998.75	983.19	890.00	768.56	673.50	641.81	623.50	552.81	453.06	380.88	368.06	347.56	287.25	296.62	236.44	158.88	124.00	39.50	13.44	-1.12	-4.81	-8.81	-17.56	-23.75	-27.00	-27.00	-27.00	-27.00	-27.00	-27.00	-27.00	-27.00	-27.00	-27.00	-27.00	-27.00	-27.00	-27.00	-27.00	-27.00	-27.00	-27.00	-27.00	-27.00	-27.00	-27.00	-27.00	-27.00	-27.00	-27.00	-27.00	-27.00	-27.00	-27.00	-27.00	-27.00	-27.00	-27.00	-27.00	-27.00	-27.00	-27.00	-27.00	-27.00	-27.00	-27.00	-27.00	-27.00	-27.00	-27.00	-27.00	-27.00	-27.00	-27.00	-27.00	-27.00	-27.00	-27.00	-27.00	-27.00	-27.00	-27.00	-27.00	-27.00	-27.00	-27.00	-27.00	-27.00	-27.00	-27.00	-27.00
891.62	920.94	875.56	911.06	888.81	863.19	856.69	720.25	686.00	740.75	629.06	430.94	370.44	345.75	327.94	311.81	315.50	319.50	316.12	275.44	293.50	293.31	296.25	280.81	216.12	203.19	205.81	227.44	264.44	289.81	330.56	378.88	441.88	463.44	518.25	597.19	587.94	546.88	514.31	488.50	480.56	513.62	554.25	528.75	439.00	352.75	311.56	294.62	295.19	329.75	373.00	295.38	239.62	175.38	187.31	168.12	144.06	138.75	153.25	162.12	167.62	172.06	169.69	183.69	245.56	387.88	357.50	292.94	295.62	382.31	349.62	304.31	372.69	321.06	250.19	143.38	224.19	310.94	419.94	461.19	378.00	395.44	401.00	400.00	440.88	540.69	568.06	452.38	452.56	378.12	250.25	233.31	244.69	268.12	298.31	342.06	378.56	413.56	439.25	523.62	708.88	664.31	801.38	1152.81	1104.12	1038.12	1079.75	1435.62	1533.75	1249.81	1290.81	1867.62	2165.38	2252.75	1931.44	1832.88	2079.12	2387.25	2262.38	1824.00	1771.31	2061.69	2659.00	3078.25	2882.69	2821.62	2772.62	2451.88	2865.69	2875.44	3212.38	3469.06	3250.25	3438.75	3358.75	3702.69	3767.50	3194.12	2850.00	2670.94	2426.38	2248.44	2101.12	2033.12	2044.19	2127.75	2026.56	1867.06	2208.38	2377.06	2178.19	1869.38	1707.50	1580.69	1635.62	1777.56	1834.50	1602.06	1414.31	1232.31	1309.69	1505.56	1412.44	1098.56	884.12	1249.75	1409.94	1238.88	1054.44	842.12	912.06	723.75	671.81	498.06	404.25	355.44	294.25	245.25	233.25	204.12	226.31	168.69	112.56	59.75	21.81	13.94	5.00	-9.12	-21.00	-27.00	-27.00	-27.00	-27.00	-27.00	-27.00	-27.00	-27.00	-27.00	-27.00	-27.00	-27.00	-27.00	-27.00	-27.00	-27.00	-27.00	-27.00	-27.00	-27.00	-27.00	-27.00	-27.00	-27.00	-27.00	-27.00	-27.00	-27.00	-27.00	-27.00	-27.00	-27.00	-27.00	-27.00	-27.00	-27.00	-27.00	-27.00	-27.00	-27.00	-27.00	-27.00	-27.00	-27.00	-27.00	-27.00	-27.00	-27.00	-27.00	-27.00	-27.00	-27.00	-27.00	-27.00	-27.00	-27.00	-27.00	-27.00	-27.00	-27.00	-27.00	-27.00	-27.00	-27.00	-27.00	-27.00	-27.00
1143.50	1197.75	1064.81	1115.56	1068.69	1000.75	830.44	717.19	666.06	737.31	741.75	463.25	394.56	366.38	350.38	334.38	331.25	329.81	306.81	302.31	308.00	309.25	310.06	294.81	254.50	256.69	201.12	187.06	194.94	210.00	241.50	289.75	390.12	428.31	469.56	539.69	565.31	523.19	506.69	495.19	493.00	481.12	442.44	422.44	385.25	363.00	348.88	320.19	294.25	282.06	287.00	291.38	291.94	212.12	173.31	155.38	139.38	129.12	130.12	137.88	142.38	143.38	142.56	150.88	165.06	207.81	358.62	300.25	240.69	289.69	296.31	259.69	285.81	285.50	184.31	140.69	243.50	244.00	277.50	297.50	281.62	296.69	328.81	308.19	368.06	487.38	476.12	468.56	558.19	573.62	353.81	265.75	238.38	255.50	279.44	313.88	337.00	357.50	370.44	379.25	465.38	514.38	743.50	1015.62	886.69	806.56	906.12	1110.31	1425.06	1186.88	1249.56	1850.62	2135.69	2277.69	2025.94	1500.75	1661.31	1738.38	1956.75	1584.38	1994.06	2217.75	2586.38	2733.88	2425.81	2234.56	2123.25	2509.12	2722.25	2753.62	2946.94	3080.38	2690.62	2690.00	2754.81	3404.69	3455.38	3290.06	3063.25	2437.38	2535.94	2705.25	2508.56	2403.38	2515.06	2291.38	2043.00	1948.88	2321.50	2602.38	2316.19	1979.00	1678.81	1699.44	1751.06	1958.19	2037.38	1930.88	1608.12	1579.31	1635.44	1567.81	1330.94	973.50	983.25	1454.81	1716.12	1607.31	1308.06	1051.50	1177.31	867.12	846.44	632.81	455.38	479.69	359.25	273.44	223.81	234.69	194.56	198.75	189.94	167.56	82.19	40.62	12.25	-6.25	-18.06	-26.38	-27.00	-27.00	-27.00	-27.00	-27.00	-27.00	-27.00	-27.00	-27.00	-27.00	-27.00	-27.00	-27.00	-27.00	-27.00	-27.00	-27.00	-27.00	-27.00	-27.00	-27.00	-27.00	-27.00	-27.00	-27.00	-27.00	-27.00	-27.00	-27.00	-27.00	-27.00	-27.00	-27.00	-27.00	-27.00	-27.00	-27.00	-27.00	-27.00	-27.00	-27.00	-27.00	-27.00	-27.00	-27.00	-27.00	-27.00	-27.00	-27.00	-27.00	-27.00	-27.00	-27.00	-27.00	-27.00	-27.00	-27.00	-27.00	-27.00	-27.00	-27.00	-27.00	-27.00	-27.00	-27.00	-27.00
1166.69	1170.12	1120.56	1106.50	944.31	871.25	749.69	674.25	638.75	595.75	586.12	458.25	409.69	398.06	375.94	350.31	342.75	326.19	316.50	322.50	316.88	322.50	315.25	291.19	293.62	271.69	252.94	247.44	200.44	187.88	194.56	205.19	297.06	400.38	398.00	448.44	512.94	530.69	497.19	487.94	515.75	526.12	506.69	471.94	436.25	405.69	397.38	363.75	324.56	298.31	255.06	235.19	228.69	237.75	260.25	218.31	167.69	138.06	120.69	118.12	122.06	123.12	123.56	126.06	134.62	145.62	238.50	261.12	204.69	232.50	245.31	219.38	256.50	225.75	223.56	144.50	245.19	317.81	283.56	247.25	241.25	242.88	252.38	264.62	296.56	397.19	431.88	470.81	555.00	616.50	494.25	370.88	270.44	250.06	265.50	288.12	304.00	320.00	332.69	343.12	384.06	406.81	469.88	729.88	774.00	748.56	747.62	958.19	1059.88	1038.75	1394.25	1639.31	1599.00	1824.31	1979.00	1475.00	1468.62	1435.94	1570.44	1447.31	1838.56	2172.00	2583.88	2416.44	2260.56	1837.50	1943.44	2430.25	2227.12	2514.31	2684.00	3048.94	2706.75	2365.94	2344.00	2821.94	2954.19	2759.19	2658.19	2685.94	3121.50	3149.62	2862.31	2994.06	2626.75	2146.12	1982.38	2237.31	2431.38	2308.56	2194.44	1944.44	1722.38	2003.44	1877.88	1928.25	1810.94	1861.38	1769.00	1850.94	1838.94	1727.31	1468.44	1004.25	1128.31	1516.69	1665.19	1519.38	1410.19	1378.75	1272.31	1099.12	1059.00	740.88	646.00	633.56	548.56	449.44	321.88	243.06	180.88	191.25	278.06	199.12	144.19	78.75	23.12	-8.94	-15.50	-25.12	-27.00	-27.00	-27.00	-27.00	-27.00	-27.00	-27.00	-27.00	-27.00	-27.00	-27.00	-27.00	-27.00	-27.00	-27.00	-27.00	-27.00	-27.00	-27.00	-27.00	-27.00	-27.00	-27.00	-27.00	-27.00	-27.00	-27.00	-27.00	-27.00	-27.00	-27.00	-27.00	-27.00	-27.00	-27.00	-27.00	-27.00	-27.00	-27.00	-27.00	-27.00	-27.00	-27.00	-27.00	-27.00	-27.00	-27.00	-27.00	-27.00	-27.00	-27.00	-27.00	-27.00	-27.00	-27.00	-27.00	-27.00	-27.00	-27.00	-27.00	-27.00	-27.00	-27.00	-27.00	-27.00	-27.00
1105.56	995.38	946.19	1014.31	1043.56	972.06	779.12	687.12	685.94	575.69	521.25	464.25	447.19	424.19	392.62	371.44	349.75	333.31	342.06	335.81	333.25	336.12	329.50	328.06	320.44	295.44	270.44	288.62	264.25	240.88	181.44	177.25	201.50	295.94	348.00	400.81	445.31	511.06	532.56	480.44	445.62	446.31	456.12	432.94	423.56	399.25	357.56	330.12	298.75	271.62	248.12	222.75	211.06	201.69	203.06	214.81	195.25	168.19	134.69	116.12	109.38	108.94	108.56	108.88	111.81	113.50	143.31	227.56	181.88	235.31	287.69	215.81	255.62	255.75	124.50	162.56	274.38	346.81	376.88	297.88	244.69	243.44	260.81	269.12	280.75	318.19	355.31	436.44	524.00	599.69	584.31	482.06	431.75	305.56	258.44	266.62	280.38	292.56	307.38	322.00	350.19	378.81	418.44	469.56	613.81	662.88	693.81	760.94	850.19	1181.56	1471.25	1400.50	1198.62	1553.25	1703.88	1461.06	1156.75	1282.12	1246.50	1561.19	1517.50	1955.12	2298.06	2192.94	1920.88	1728.25	2111.44	1843.19	2155.62	2322.94	2551.62	2586.62	2690.50	2321.75	2267.31	2659.75	3007.44	3082.94	2878.94	2616.88	3014.00	3333.88	3092.19	2950.31	2813.75	2124.00	2294.06	2494.12	2314.19	2111.56	1909.12	1792.88	1952.50	2048.94	2113.50	1972.94	1861.62	1578.56	1558.56	1618.00	1627.44	1536.00	1299.69	982.38	1241.31	1618.88	1511.50	1319.62	1302.69	1361.50	1433.38	1368.69	1154.06	908.69	1118.56	994.94	779.56	657.88	490.44	343.31	244.69	232.50	194.12	234.81	210.44	94.19	28.06	-6.50	-15.62	-23.12	-27.00	-27.00	-27.00	-27.00	-27.00	-27.00	-27.00	-27.00	-27.00	-27.00	-27.00	-27.00	-27.00	-27.00	-27.00	-27.00	-27.00	-27.00	-27.00	-27.00	-27.00	-27.00	-27.00	-27.00	-27.00	-27.00	-27.00	-27.00	-27.00	-27.00	-27.00	-27.00	-27.00	-27.00	-27.00	-27.00	-27.00	-27.00	-27.00	-27.00	-27.00	-27.00	-27.00	-27.00	-27.00	-27.00	-27.00	-27.00	-27.00	-27.00	-27.00	-27.00	-27.00	-27.00	-27.00	-27.00	-27.00	-27.00	-27.00	-27.00	-27.00	-27.00	-27.00	-27.00	-27.00	-27.00
1239.69	1114.31	919.31	900.31	982.19	1008.06	814.56	688.50	698.81	607.25	533.62	482.19	451.88	430.31	399.81	380.12	350.00	359.25	361.19	354.75	346.56	346.44	345.56	343.69	332.88	296.06	284.56	313.50	300.06	273.12	219.81	187.25	180.88	206.38	241.62	336.44	393.94	437.12	478.88	484.56	447.81	416.69	402.06	382.25	382.69	386.38	369.44	355.62	307.12	258.00	237.00	219.56	207.75	198.12	192.69	189.19	202.38	198.81	174.06	136.81	114.44	106.50	101.44	99.25	98.38	98.44	104.50	148.69	196.94	243.19	266.69	232.62	170.50	168.19	121.81	121.75	271.62	358.19	383.38	346.19	269.75	247.06	259.94	271.19	306.44	317.12	335.44	389.69	484.00	597.50	646.81	525.31	467.62	401.06	306.00	274.12	284.00	289.88	305.62	326.06	357.38	389.44	432.25	489.69	566.88	612.94	667.00	724.44	822.94	1126.38	1191.25	1286.31	1090.19	1411.88	1420.62	1239.06	1009.19	1170.25	1150.19	1354.75	1437.00	1734.25	1792.38	1891.19	1682.88	1678.81	2206.38	1658.88	1917.50	2377.62	2226.25	2438.38	2544.50	2047.50	2565.06	2796.25	3024.31	2996.44	2679.88	2862.31	2840.44	3079.31	2643.56	2446.31	2408.00	2106.56	2565.12	2735.69	2495.88	2394.25	1938.31	1926.12	2134.69	2129.12	2053.25	1682.75	1779.50	1560.38	1393.06	1454.56	1412.44	1294.44	1122.25	1011.75	1331.62	1620.06	1403.38	1116.56	1023.38	1099.38	1309.75	1316.69	1173.56	1049.19	1305.62	1306.62	1031.44	786.44	633.88	464.12	354.06	319.56	173.00	202.19	221.81	131.38	36.50	-1.56	-14.88	-21.31	-27.00	-27.00	-27.00	-27.00	-27.00	-27.00	-27.00	-27.00	-27.00	-27.00	-27.00	-27.00	-27.00	-27.00	-27.00	-27.00	-27.00	-27.00	-27.00	-27.00	-27.00	-27.00	-27.00	-27.00	-27.00	-27.00	-27.00	-27.00	-27.00	-27.00	-27.00	-27.00	-27.00	-27.00	-27.00	-27.00	-27.00	-27.00	-27.00	-27.00	-27.00	-27.00	-27.00	-27.00	-27.00	-27.00	-27.00	-27.00	-27.00	-27.00	-27.00	-27.00	-27.00	-27.00	-27.00	-27.00	-27.00	-27.00	-27.00	-27.00	-27.00	-27.00	-27.00	-27.00	-27.00	-27.00
1156.25	1033.00	905.31	802.75	845.56	892.06	780.06	649.94	602.19	550.12	515.19	496.12	459.31	428.56	394.12	375.88	392.19	408.25	421.88	404.50	385.62	370.56	367.44	365.88	344.69	315.38	302.56	308.94	325.31	310.62	283.19	250.44	181.06	170.75	182.25	204.12	263.25	372.88	393.00	405.94	442.19	452.56	433.44	376.06	350.81	325.44	313.19	308.44	278.88	255.75	236.19	219.50	204.94	194.12	189.56	186.38	200.38	243.75	233.12	200.56	150.06	126.06	109.62	99.56	93.38	90.31	95.12	107.81	118.06	116.38	127.25	139.25	139.56	150.44	106.31	137.31	189.88	217.38	293.81	343.25	250.38	198.25	196.00	207.88	259.94	301.25	344.88	389.12	434.81	536.75	706.25	691.69	548.69	442.88	414.25	312.69	292.00	302.62	314.38	334.50	362.81	395.75	435.75	481.56	526.38	565.19	616.12	673.75	839.75	942.50	870.38	1007.62	844.12	1121.38	1232.06	1013.75	898.25	1010.50	989.94	1014.75	1181.69	1322.25	1339.38	1590.25	1321.75	1746.81	1876.00	1472.81	2075.06	2241.81	2062.88	2441.94	2436.38	1886.38	2232.69	2618.12	2578.81	2743.69	2924.50	3066.25	3105.38	3257.62	2747.19	2453.00	2608.62	2390.19	2801.25	3028.44	2802.25	2341.25	2025.38	2279.50	2384.75	2207.38	1905.38	1675.38	1529.19	1495.81	1420.19	1283.19	1212.81	1154.81	1108.75	1073.38	1261.44	1484.81	1370.62	1133.50	950.44	984.88	1180.06	1401.44	1343.38	1208.50	1045.12	1087.81	1115.44	1060.06	949.94	650.50	495.94	386.88	210.00	259.88	147.19	153.69	88.69	16.06	-7.44	-17.38	-26.75	-27.00	-27.00	-27.00	-27.00	-27.00	-27.00	-27.00	-27.00	-27.00	-27.00	-27.00	-27.00	-27.00	-27.00	-27.00	-27.00	-27.00	-27.00	-27.00	-27.00	-27.00	-27.00	-27.00	-27.00	-27.00	-27.00	-27.00	-27.00	-27.00	-27.00	-27.00	-27.00	-27.00	-27.00	-27.00	-27.00	-27.00	-27.00	-27.00	-27.00	-27.00	-27.00	-27.00	-27.00	-27.00	-27.00	-27.00	-27.00	-27.00	-27.00	-27.00	-27.00	-27.00	-27.00	-27.00	-27.00	-27.00	-27.00	-27.00	-27.00	-27.00	-27.00	-27.00	-27.00	-27.00
955.69	853.56	801.50	742.00	720.81	696.44	663.38	605.12	598.88	618.25	549.56	487.62	448.12	417.44	418.81	432.62	446.19	459.75	514.75	502.06	447.25	403.38	388.50	406.88	373.56	344.12	323.94	318.62	334.12	333.62	320.00	302.25	254.44	221.31	184.69	165.44	182.38	279.00	356.31	362.75	362.31	370.31	371.94	375.31	340.56	321.12	300.25	290.00	288.94	286.19	273.44	250.56	222.38	196.00	188.44	184.38	195.12	227.00	282.56	238.56	199.88	184.12	156.94	123.25	102.44	89.00	91.44	99.75	100.31	92.75	87.94	90.12	90.75	87.62	83.31	95.81	124.81	162.75	227.94	323.88	271.38	183.69	159.44	158.69	184.56	224.50	248.75	266.88	320.00	398.50	486.75	558.56	515.81	456.88	554.00	506.56	368.19	314.38	322.50	339.19	364.94	394.44	429.75	465.94	495.06	521.44	552.44	561.81	591.75	718.88	607.38	693.38	656.75	884.19	918.19	747.62	776.25	907.56	884.25	900.00	830.56	920.81	1114.56	1403.25	1193.75	1489.00	1470.31	1388.75	1958.56	1901.56	2107.50	2406.38	2031.19	1669.81	2191.31	2430.19	2216.06	2290.81	2522.94	2922.94	3090.12	3020.62	2834.62	3000.62	2881.12	2677.62	3160.06	2842.44	2498.31	2232.56	2322.81	2739.19	2748.50	2427.50	2132.38	1649.06	1878.25	1901.75	1730.94	1562.75	1524.62	1486.12	1398.06	1219.44	1180.50	1304.38	1099.31	972.25	895.38	823.81	937.56	1250.25	1236.19	1205.25	893.81	733.25	822.00	837.56	791.62	607.81	697.50	391.19	334.50	372.25	186.44	93.88	76.75	36.12	13.06	-12.50	-25.44	-27.00	-27.00	-27.00	-27.00	-27.00	-27.00	-27.00	-27.00	-27.00	-27.00	-27.00	-27.00	-27.00	-27.00	-27.00	-27.00	-27.00	-27.00	-27.00	-27.00	-27.00	-27.00	-27.00	-27.00	-27.00	-27.00	-27.00	-27.00	-27.00	-27.00	-27.00	-27.00	-27.00	-27.00	-27.00	-27.00	-27.00	-27.00	-27.00	-27.00	-27.00	-27.00	-27.00	-27.00	-27.00	-27.00	-27.00	-27.00	-27.00	-27.00	-27.00	-27.00	-27.00	-27.00	-27.00	-27.00	-27.00	-27.00	-27.00	-27.00	-27.00	-27.00	-27.00	-27.00	-27.00
