1694.56	1503.31	1416.94	1540.88	1550.50	1634.19	1678.75	1542.44	1561.38	1590.81	1678.81	1775.44	1579.19	1429.12	1371.75	1340.12	1405.12	1455.94	1484.06	1422.19	1335.25	1372.94	1374.00	1330.19	1274.56	1256.56	1272.12	1259.50	1282.69	1300.12	1315.62	1292.56	1263.69	1240.81	1236.38	1192.62	1166.81	1172.19	1178.50	1160.75	1177.88	1190.62	1227.00	1202.25	1171.00	1107.00	1102.56	1095.69	1091.56	1078.81	1076.00	1073.75	1065.50	1055.44	1047.88	1044.56	1033.62	1029.50	1025.75	1030.69	1018.94	1005.31	994.19	997.75	1000.56	1000.38	1001.06	1000.88	1001.88	999.62	1013.69	1036.00	1031.56	1050.69	1088.00	1077.38	1120.31	1174.31	1229.94	1227.81	1227.81	1248.19	1272.88	1422.75	1315.31	1290.00	1326.00	1310.62	1205.12	1200.50	1136.44	1106.94	1089.44	1134.12	1164.94	1098.75	1108.56	1139.75	1178.50	1124.69	1059.31	1018.56	1005.25	1014.25	936.19	959.25	1082.62	1203.56	1160.44	1012.69	1184.44	1177.25	1072.75	1030.06	1043.69	1176.00	1018.50	927.06	882.88	854.94	853.25	853.94	856.12	868.81	979.00	954.44	919.25	945.56	982.81	930.94	996.38	1023.88	1008.38	966.25	957.00	945.06	963.81	1000.44	1035.69	1108.56	1225.94	1227.62	1168.50	1032.81	971.44	1088.06	1066.62	1096.50	1100.50	1021.06	997.50	940.50	932.81	981.44	1076.62	957.19	903.88	900.81	899.38	916.25	956.50	998.38	987.44	922.69	883.56	879.00	888.88	900.50	931.56	939.31	955.69	942.81	932.12	910.31	913.88	897.75	881.75	886.38	926.31	998.00	1039.12	1088.12	1204.50	1282.12	1309.19	1349.38	1412.62	1457.00	1550.81	1458.00	1322.94	1371.62	1405.12	1444.69	1165.38	1110.06	1055.81	1007.44	1018.06	1059.25	1136.94	1262.38	1052.12	1016.06	1046.94	1163.50	1292.75	1324.62	1215.38	1103.69	1109.19	1132.00	1192.06	1366.44	1386.75	1405.19	1527.06	1511.44	1395.88	1373.88	1310.00	1213.06	1133.25	1141.00	1464.25	1483.44	1320.44	1139.75	1114.12	1079.50	969.56	1038.69	1063.50	974.25	912.19	960.19	1006.50	979.56	950.56	783.56	767.62	859.00	817.06	779.94	735.94	729.50	727.50	719.38	714.31	871.38	998.44	906.19	776.50	982.88	949.69	836.31
1506.81	1398.00	1476.00	1620.00	1551.88	1711.00	1695.00	1544.44	1637.69	1555.00	1612.75	1778.31	1582.56	1403.88	1376.69	1353.25	1519.81	1513.25	1426.69	1412.00	1333.19	1420.00	1345.38	1374.50	1333.69	1276.81	1289.81	1313.62	1325.94	1410.56	1384.06	1395.94	1283.00	1329.00	1301.44	1186.94	1232.12	1240.50	1263.38	1246.00	1201.62	1249.31	1307.00	1229.69	1135.06	1119.50	1115.62	1110.25	1095.88	1085.62	1086.62	1080.62	1072.50	1061.12	1055.19	1046.75	1038.12	1037.88	1028.94	1030.12	1015.12	1000.38	997.00	1007.44	1006.12	1007.56	1006.12	1005.69	1004.25	1004.06	1024.56	1064.25	1057.62	1077.81	1104.81	1114.81	1087.31	1125.56	1222.88	1235.81	1219.00	1353.94	1367.56	1371.38	1403.94	1376.25	1391.38	1325.38	1213.50	1242.50	1157.31	1116.56	1082.62	1084.81	1115.75	1081.31	1100.88	1180.88	1165.06	1076.94	1023.44	1014.56	961.94	944.12	943.44	982.94	1046.81	1184.62	1079.19	1117.88	1166.56	1174.75	1108.88	1169.12	1127.31	1117.50	1001.75	959.19	873.31	855.75	856.50	856.69	861.56	861.81	946.00	960.81	944.00	976.62	976.19	999.44	974.69	1071.06	1036.50	998.56	991.81	1001.50	975.25	991.06	1057.25	1141.31	1192.25	1135.88	1097.56	1049.44	969.44	1049.19	1029.62	1071.38	1060.75	1008.81	969.75	956.69	979.25	1010.38	1035.62	952.94	913.69	934.00	926.44	938.38	934.62	947.06	956.12	934.38	906.12	912.00	888.62	897.31	918.44	921.69	929.81	922.44	931.88	930.25	929.19	907.88	892.56	887.81	907.38	958.50	1015.62	1085.75	1240.25	1291.94	1179.56	1262.56	1419.00	1480.81	1482.06	1413.94	1316.56	1456.00	1428.94	1363.88	1232.06	1191.50	1091.94	1028.44	1014.19	1080.94	1145.50	1300.06	1129.25	1036.06	1040.38	1066.69	1155.25	1165.81	1082.88	1106.69	1171.31	1219.19	1172.44	1343.25	1498.50	1580.38	1638.25	1628.25	1585.81	1504.12	1349.44	1248.50	1171.06	1130.06	1377.00	1545.44	1381.00	1206.50	1123.31	1032.38	958.38	1066.00	1090.75	938.25	921.12	877.69	919.00	899.31	834.12	778.44	829.50	890.88	846.50	797.75	728.44	727.19	724.31	720.88	759.50	887.00	979.31	931.75	787.31	970.19	1012.31	835.25
1436.19	1615.06	1641.31	1735.38	1676.44	1752.94	1693.25	1553.75	1634.12	1648.19	1655.75	1635.38	1454.12	1409.25	1383.44	1376.00	1611.44	1589.38	1474.81	1411.50	1409.75	1440.50	1374.88	1407.12	1336.31	1334.62	1428.00	1429.12	1489.62	1493.62	1488.31	1350.88	1377.38	1351.31	1253.56	1186.81	1303.00	1269.06	1369.50	1311.94	1279.06	1316.12	1288.06	1248.50	1137.06	1134.06	1130.94	1124.50	1114.88	1105.00	1101.12	1093.50	1082.19	1068.75	1063.56	1052.75	1056.06	1060.94	1037.00	1032.69	1011.81	1009.56	1023.38	1009.75	1015.12	1017.25	1012.69	1011.50	1009.75	1010.69	1054.31	1186.12	1100.50	1061.31	1139.06	1205.94	1229.75	1205.06	1168.62	1226.69	1289.31	1445.62	1488.31	1420.88	1518.62	1476.44	1385.88	1282.31	1293.12	1286.50	1232.19	1137.12	1080.19	1086.12	1092.06	1127.19	1171.00	1159.31	1094.12	1054.44	1032.62	996.88	997.88	1005.12	995.25	1037.31	1057.69	1189.75	1178.50	1208.31	1269.44	1227.50	1259.25	1220.88	1141.81	1130.50	1084.06	955.56	870.06	862.69	856.38	856.94	859.25	861.62	879.25	931.50	985.31	1040.19	997.88	1058.81	1054.31	1071.81	1089.62	1075.38	1060.44	1037.44	1056.69	1021.31	1082.06	1244.06	1198.94	1136.88	1149.06	1057.12	951.81	993.62	1010.94	1053.00	1100.81	1071.44	997.56	1023.75	1083.94	1120.94	1072.75	956.00	927.94	937.06	946.19	940.06	949.00	929.69	953.62	968.00	933.50	917.19	891.12	926.81	959.94	937.62	942.69	958.50	955.81	964.06	986.12	936.69	934.69	894.69	906.75	939.19	956.12	1105.69	1193.00	1164.06	1101.94	1206.00	1304.88	1384.62	1369.44	1438.88	1477.06	1453.31	1324.50	1244.50	1256.62	1169.00	1151.50	1068.31	1012.31	1065.50	1213.38	1303.12	1187.56	1141.38	1059.00	1033.31	1046.88	1065.38	1090.50	1185.06	1284.31	1268.69	1291.19	1219.31	1322.75	1523.00	1686.75	1862.12	1766.50	1527.62	1556.19	1277.44	1152.25	1133.12	1393.12	1567.38	1561.06	1352.56	1046.19	951.88	982.00	1041.06	980.25	954.25	948.38	978.75	871.69	844.06	803.12	785.44	912.25	928.44	883.88	738.06	717.50	730.81	787.69	833.75	804.69	854.25	962.81	902.19	802.50	979.50	1032.50	881.38
1536.19	1810.00	1792.81	1737.94	1713.81	1712.56	1680.81	1543.38	1736.50	1710.69	1612.06	1503.06	1442.88	1434.62	1403.06	1394.44	1620.88	1657.56	1513.56	1469.50	1462.25	1456.81	1397.88	1461.94	1489.69	1423.81	1516.81	1580.38	1560.12	1460.62	1402.31	1422.56	1422.94	1328.00	1220.88	1212.44	1371.25	1375.06	1490.38	1246.25	1306.50	1265.81	1204.12	1164.50	1145.81	1147.00	1142.88	1133.69	1122.69	1113.75	1108.38	1102.31	1094.31	1077.88	1097.69	1060.44	1115.19	1103.56	1038.06	1033.19	1015.12	1020.19	1026.31	1011.44	1025.31	1031.56	1026.19	1016.00	1014.38	1015.38	1025.75	1129.81	1112.12	1085.44	1129.56	1223.12	1287.62	1361.31	1321.06	1209.50	1232.69	1388.50	1435.25	1431.44	1505.44	1538.88	1452.25	1317.94	1362.38	1302.06	1228.12	1144.69	1088.12	1093.31	1105.25	1181.06	1267.69	1205.31	1148.25	1132.81	1036.12	1063.62	1031.56	1080.06	1060.69	1026.94	1145.12	1154.56	1153.38	1090.62	1178.88	1100.50	1154.88	1134.50	1069.25	1020.19	961.94	900.62	872.50	869.88	861.88	859.75	867.00	879.31	882.19	897.62	974.38	1080.62	1057.38	1120.81	1135.06	1150.31	1142.38	1160.19	1157.06	1093.19	1103.50	1096.56	1144.88	1239.06	1159.38	1068.06	1041.50	1005.75	947.25	1037.50	1077.62	1099.50	1092.50	1056.75	1025.75	1066.50	1164.81	1248.12	1108.06	953.12	946.81	980.31	970.25	958.31	960.25	944.38	950.50	936.88	909.69	895.31	897.56	944.94	949.44	950.81	978.19	975.31	944.19	1006.94	1037.25	997.44	938.56	890.94	900.81	925.69	943.69	1037.06	1142.19	1117.50	1063.56	1111.75	1250.56	1339.81	1346.06	1451.44	1449.06	1385.88	1328.50	1244.44	1159.81	1157.50	1121.00	1096.38	1021.06	1031.50	1177.62	1316.12	1160.00	1118.38	1142.62	1067.94	1044.38	1106.56	1119.69	1121.44	1250.56	1348.19	1366.19	1346.94	1300.88	1518.69	1627.44	1756.81	1723.94	1680.75	1506.44	1357.38	1147.31	1143.50	1303.56	1351.81	1468.69	1248.31	975.44	959.25	1015.50	1040.44	972.31	1014.88	1030.19	987.69	907.06	859.69	803.38	814.31	953.81	961.06	830.19	736.12	726.88	828.31	976.50	943.75	834.94	927.62	1031.00	919.44	808.81	978.69	1035.69	962.44
1436.06	1548.25	1778.69	1805.81	1903.38	1801.62	1571.69	1542.12	1557.38	1537.44	1492.56	1475.88	1478.31	1443.38	1432.19	1417.88	1516.69	1647.50	1537.38	1509.88	1497.12	1547.25	1468.31	1438.06	1486.25	1484.25	1442.44	1576.50	1454.75	1401.25	1359.81	1418.56	1341.19	1266.06	1210.88	1224.62	1440.69	1446.50	1313.81	1241.88	1226.12	1188.31	1176.56	1166.75	1163.88	1159.94	1155.56	1145.19	1135.69	1126.38	1119.12	1113.88	1091.62	1102.25	1097.88	1076.19	1083.81	1080.44	1053.38	1035.94	1022.94	1035.56	1034.94	1018.12	1032.06	1041.69	1030.50	1019.12	1022.56	1027.06	1026.50	1025.62	1045.75	1150.50	1133.44	1222.38	1264.06	1403.25	1305.25	1388.62	1321.38	1302.25	1298.00	1328.62	1374.94	1436.69	1393.06	1404.69	1375.75	1350.44	1193.12	1156.25	1108.81	1076.00	1094.06	1182.38	1256.19	1273.81	1207.44	1135.00	1103.19	1114.31	1065.88	1124.31	1055.56	1041.50	1109.19	1087.19	1067.69	1036.88	1024.25	1023.25	1025.50	1025.50	976.31	951.38	913.00	894.69	878.19	873.44	870.25	868.56	878.38	891.75	932.81	909.75	925.88	1026.06	1097.69	1128.75	1122.88	1112.25	1086.00	1150.19	1181.62	1152.00	1156.94	1119.44	1161.19	1199.00	1176.19	1142.50	1071.94	960.50	951.94	994.00	1065.38	1188.56	1187.88	1159.06	1110.44	1092.81	1193.44	1193.62	1059.94	977.62	997.38	1066.75	1048.56	1000.81	1039.25	1047.62	1007.31	939.56	916.94	904.44	926.06	955.69	964.25	964.00	966.31	942.56	939.94	976.56	1017.69	1025.00	931.69	893.62	904.25	912.00	930.06	975.19	1006.38	1047.69	1044.25	1176.19	1242.44	1314.50	1259.31	1268.31	1283.25	1258.44	1186.31	1253.88	1168.56	1091.56	1122.06	1107.81	1025.06	1034.81	1149.06	1302.00	1198.75	1286.31	1192.69	1130.75	1057.75	1079.69	1166.38	1163.38	1185.75	1298.19	1471.25	1499.69	1429.81	1477.19	1530.88	1667.69	1532.88	1422.06	1482.44	1320.75	1119.00	1159.69	1251.12	1149.62	1081.75	993.25	991.50	1006.31	1044.31	1041.19	1057.50	1080.06	1015.00	906.88	868.25	818.31	817.25	908.19	896.88	866.44	791.62	742.19	736.44	882.88	1051.50	984.44	883.38	925.81	1037.06	946.69	827.69	913.69	1043.19	968.44
1606.31	1506.62	1517.06	1765.75	1858.81	1650.88	1556.12	1559.31	1573.38	1576.56	1513.44	1520.38	1497.19	1449.38	1458.12	1440.62	1449.81	1580.19	1600.62	1529.94	1540.12	1559.81	1480.31	1436.31	1389.25	1368.31	1355.56	1373.75	1348.62	1327.56	1329.56	1359.00	1270.88	1236.69	1225.94	1233.75	1309.56	1271.25	1218.25	1224.25	1201.81	1192.25	1196.25	1179.56	1183.75	1177.25	1168.69	1161.25	1149.31	1136.56	1134.81	1121.69	1094.62	1114.94	1108.19	1086.25	1088.75	1092.75	1055.62	1039.88	1033.31	1047.62	1034.94	1025.81	1031.25	1037.19	1029.44	1027.00	1030.06	1034.50	1031.31	1032.69	1032.12	1098.56	1199.25	1260.19	1260.06	1354.69	1331.31	1295.44	1258.50	1361.25	1213.00	1268.25	1355.25	1388.12	1317.50	1374.38	1269.38	1318.50	1187.38	1141.50	1079.75	1067.56	1108.44	1152.75	1193.88	1236.62	1172.81	1143.81	1179.56	1108.94	1097.75	1111.81	1095.50	1090.81	1134.75	1094.56	1068.69	1039.25	996.62	996.00	970.00	953.62	933.12	920.62	908.62	896.88	888.56	885.50	878.44	873.25	871.00	877.19	921.88	936.31	905.56	936.19	993.88	1014.19	1039.25	1038.06	1045.38	1049.88	1058.44	1088.06	1099.00	1079.38	1112.50	1094.75	1089.44	1108.56	1107.12	1007.88	1001.25	1057.62	1066.44	1171.56	1232.56	1214.75	1165.44	1159.62	1242.06	1076.06	1007.88	1065.31	1025.75	1112.25	1083.56	1064.19	1139.12	1120.69	1023.25	956.25	930.88	917.12	935.38	965.69	989.00	961.38	927.31	915.69	915.50	927.50	987.75	1021.19	952.75	898.44	900.88	906.50	919.19	939.44	953.12	974.31	1079.44	1187.25	1291.00	1328.88	1338.19	1249.25	1159.25	1163.81	1133.31	1162.44	1081.31	1062.88	1066.25	1052.88	1024.81	1048.69	1153.50	1225.00	1285.50	1283.81	1188.44	1174.81	1079.56	1090.81	1207.19	1219.44	1158.88	1232.81	1471.62	1658.75	1565.50	1581.81	1678.19	1830.75	1687.38	1511.25	1327.94	1172.25	1106.06	1214.38	1195.06	1050.25	1011.75	1110.50	1119.56	1128.75	1082.50	1097.31	1122.00	1121.75	977.94	881.94	834.44	847.69	839.44	935.31	888.75	945.25	799.44	740.88	736.94	841.06	947.06	981.50	883.75	988.56	989.56	917.12	833.94	937.75	1077.31	999.50
1781.50	1717.88	1576.56	1546.88	1650.12	1606.25	1598.75	1619.62	1620.56	1581.88	1546.69	1562.88	1516.94	1464.25	1476.12	1452.00	1478.00	1500.62	1647.94	1577.19	1528.00	1495.25	1527.12	1465.44	1431.94	1407.00	1367.81	1322.19	1302.56	1284.94	1286.94	1265.94	1243.25	1241.69	1242.06	1243.50	1257.12	1234.88	1222.19	1226.81	1216.81	1213.62	1204.31	1199.69	1202.25	1195.81	1186.06	1177.19	1163.38	1148.62	1139.31	1113.81	1125.25	1165.06	1166.38	1099.31	1108.81	1092.50	1055.19	1046.94	1043.44	1053.06	1041.00	1033.00	1037.88	1043.94	1034.75	1028.44	1031.50	1038.94	1039.06	1043.31	1036.25	1060.94	1158.88	1178.62	1150.62	1258.56	1311.06	1247.81	1213.00	1327.06	1185.38	1329.50	1318.56	1333.06	1281.31	1226.38	1257.88	1309.06	1180.69	1136.19	1085.62	1069.62	1112.25	1196.25	1223.38	1253.25	1181.31	1118.81	1158.62	1085.94	1079.31	1155.94	1149.06	1152.38	1113.38	1094.50	1080.12	1059.00	1078.88	1086.75	1050.44	1022.81	986.06	974.12	975.19	902.00	892.88	894.56	890.12	887.06	882.69	879.00	888.75	916.81	898.38	917.62	946.50	976.75	1015.81	1046.62	1058.62	1078.88	1077.44	1099.75	1073.75	1050.38	1100.62	1064.88	1016.50	1031.62	1078.00	1046.56	991.06	1119.12	1100.44	1196.25	1164.06	1220.06	1244.12	1240.88	1190.00	1065.62	1032.94	1095.88	1072.81	1167.94	1136.94	1131.44	1200.50	1124.88	1045.75	955.00	929.44	927.81	956.12	989.25	983.38	943.06	917.44	915.00	915.00	919.00	986.62	987.38	955.38	897.75	893.75	900.75	913.75	933.62	949.88	982.44	999.38	1087.00	1161.56	1236.69	1269.25	1248.50	1181.06	1127.12	1090.12	1098.25	1110.88	1126.94	1130.00	1104.75	1036.88	1065.25	1261.38	1295.81	1394.00	1283.06	1273.50	1198.69	1088.12	1085.69	1211.19	1299.75	1205.81	1210.62	1345.25	1590.12	1736.75	1787.12	1781.00	1647.31	1585.81	1629.12	1274.44	1116.25	1159.19	1288.12	1122.81	1069.38	1183.38	1216.88	1143.12	1149.94	1076.56	1010.94	1047.38	1035.31	923.06	860.69	831.69	876.31	834.31	942.56	986.50	902.69	776.25	738.88	737.94	842.25	957.25	1007.50	896.25	1043.81	1042.88	900.38	847.62	922.25	1007.88	1030.44
1947.44	1959.94	1729.38	1582.06	1614.62	1682.12	1676.25	1676.81	1634.94	1638.81	1623.25	1596.19	1518.12	1500.69	1497.12	1487.69	1470.88	1590.88	1567.19	1611.56	1594.06	1575.06	1513.12	1496.19	1593.88	1555.62	1487.50	1330.50	1315.81	1291.81	1280.38	1266.06	1262.00	1259.06	1266.00	1271.50	1269.00	1254.56	1245.44	1245.00	1240.12	1238.50	1238.00	1234.38	1223.31	1223.19	1214.00	1194.88	1178.38	1162.00	1126.12	1145.25	1256.81	1237.44	1150.25	1110.38	1153.19	1120.00	1079.94	1096.94	1066.06	1053.56	1055.12	1058.44	1066.81	1061.75	1050.75	1041.44	1041.38	1052.06	1053.31	1061.62	1064.12	1060.12	1045.75	1078.88	1085.94	1183.25	1328.75	1419.94	1312.75	1200.69	1145.44	1217.44	1219.94	1277.00	1240.75	1161.50	1327.50	1264.75	1139.12	1086.25	1062.38	1066.19	1107.75	1180.62	1243.56	1238.56	1138.31	1077.44	1126.12	1051.44	1082.75	1164.69	1115.69	1078.56	1087.44	1053.81	1047.50	1114.06	1150.31	1104.62	1127.25	1072.19	1076.94	1020.19	941.00	904.88	900.69	904.38	901.56	891.94	889.50	886.38	881.12	905.75	915.94	930.94	977.50	1034.38	1095.56	1124.19	1108.62	1162.88	1265.88	1194.44	1120.12	1030.75	1038.19	1095.12	1113.62	1075.62	1050.62	988.94	948.94	1012.25	1046.44	1085.94	1108.19	1168.44	1227.06	1278.62	1181.31	1164.12	1205.44	1040.62	1103.75	1176.38	1218.50	1185.06	1136.12	1037.56	989.56	955.44	951.06	977.25	1016.12	997.56	948.31	916.62	915.00	915.00	917.44	945.75	981.00	954.56	916.94	908.75	903.81	895.81	902.44	961.00	980.19	1034.81	1091.75	1059.12	1048.06	1142.62	1190.69	1170.00	1094.62	1083.38	1071.25	1155.19	1251.50	1309.69	1300.62	1128.12	1042.00	1056.81	1216.75	1383.94	1417.38	1421.94	1272.75	1188.81	1103.06	1092.50	1154.31	1277.44	1361.06	1246.62	1335.31	1431.12	1638.38	1902.88	1729.81	1557.88	1389.94	1302.81	1159.75	1240.56	1398.94	1295.81	1142.12	1176.19	1310.62	1368.06	1183.75	1166.06	1171.50	1093.69	964.31	943.19	886.25	845.19	852.62	878.94	873.25	986.06	987.56	906.06	797.00	744.62	775.25	953.94	955.25	1026.19	1030.00	1090.69	1001.44	982.31	965.44	924.69	1070.75	1046.06
2026.69	1887.44	1775.25	1817.69	1597.12	1724.94	1746.00	1691.00	1723.00	1682.25	1653.06	1574.81	1518.62	1543.38	1516.94	1509.75	1471.75	1660.62	1574.44	1715.19	1699.44	1563.25	1563.81	1613.25	1594.69	1506.94	1376.56	1368.81	1365.50	1311.06	1318.38	1276.75	1272.88	1275.88	1302.56	1301.75	1286.00	1269.19	1266.19	1264.50	1258.12	1257.75	1272.75	1267.31	1244.94	1228.56	1222.38	1189.38	1165.44	1140.62	1135.38	1200.12	1295.12	1268.38	1192.38	1119.88	1225.44	1160.19	1139.31	1110.31	1064.81	1065.75	1087.31	1082.38	1073.94	1062.81	1053.12	1046.88	1047.88	1053.81	1060.69	1068.69	1075.69	1070.31	1047.88	1045.19	1067.31	1166.62	1320.25	1581.44	1463.88	1319.19	1177.69	1128.50	1131.50	1133.12	1115.44	1185.38	1395.69	1249.00	1123.94	1055.69	1048.88	1054.25	1084.69	1169.62	1203.44	1185.25	1123.94	1079.44	1091.75	1036.00	1056.75	1120.31	1141.00	1073.12	1037.06	1029.12	1029.44	1075.62	1157.44	1099.56	1101.56	1084.44	1093.31	998.81	927.69	910.69	907.69	910.88	908.75	892.94	889.94	885.00	886.75	958.62	964.25	940.81	979.25	1033.19	1087.75	1168.00	1230.94	1259.38	1270.62	1165.06	1117.12	1069.75	1007.50	1094.38	1133.25	1121.62	1058.25	975.88	930.31	980.75	1007.06	1024.12	1055.44	1130.00	1241.81	1362.50	1245.69	1237.50	1268.75	1069.12	1064.38	1175.12	1230.75	1175.56	1083.44	1009.81	996.12	987.06	983.69	1039.50	1016.81	986.62	939.44	916.94	916.88	920.50	916.81	961.38	1001.88	956.94	918.06	909.06	946.88	918.81	902.31	964.31	1071.38	1042.44	1083.06	1152.06	1120.56	1121.88	1077.56	1077.94	1057.31	1106.56	1093.38	1306.75	1337.75	1368.44	1229.94	1121.44	1051.19	1059.25	1139.62	1258.31	1324.00	1300.44	1263.12	1219.50	1114.06	1096.38	1152.94	1375.81	1451.12	1333.88	1374.06	1427.94	1539.69	1793.44	1828.19	1522.69	1229.38	1236.69	1356.25	1380.44	1489.62	1180.62	1276.75	1335.06	1228.88	1425.94	1300.38	1259.38	1206.50	1079.25	1009.62	943.88	891.56	861.38	920.19	857.19	922.75	913.94	924.88	949.75	781.38	739.62	834.31	934.75	860.88	993.00	1054.44	1016.75	1111.31	1019.62	1006.69	918.94	1082.12	1146.75
1886.81	1901.75	2028.94	1789.00	1791.50	1860.00	1750.69	1690.44	1830.06	1736.88	1598.56	1544.56	1568.44	1586.00	1545.19	1543.88	1500.19	1610.56	1650.12	1648.31	1632.94	1637.62	1620.62	1601.12	1484.62	1405.94	1394.00	1393.38	1339.25	1410.06	1355.62	1295.19	1297.06	1352.44	1370.75	1349.19	1359.25	1292.62	1290.62	1287.00	1290.44	1291.69	1325.25	1291.19	1259.44	1215.69	1199.94	1170.44	1144.69	1150.38	1203.69	1262.38	1243.06	1215.00	1171.62	1140.25	1187.62	1189.50	1125.38	1077.88	1085.75	1115.31	1104.69	1085.81	1067.50	1061.25	1058.56	1051.44	1056.81	1062.25	1075.19	1092.94	1091.69	1071.31	1071.25	1064.12	1061.50	1107.62	1230.56	1349.31	1416.94	1468.44	1409.31	1223.44	1104.56	1090.25	1142.69	1237.44	1243.31	1135.94	1080.75	1049.44	1049.31	1070.44	1108.50	1102.38	1120.62	1181.00	1134.56	1107.06	1032.25	1026.38	1026.94	1035.75	1083.88	1075.81	1043.75	1062.00	1052.25	1013.25	1031.38	1042.50	988.12	964.88	958.31	941.38	927.50	917.81	910.00	905.81	904.75	898.31	890.56	889.75	893.56	954.00	1017.25	936.44	970.69	1094.31	1169.00	1184.31	1189.25	1259.62	1186.50	1200.62	1129.56	1079.62	1020.44	1016.12	1017.38	1024.31	965.06	911.31	960.19	1015.31	1018.38	1018.69	1079.69	1150.62	1230.25	1362.12	1350.62	1297.38	1226.50	1115.81	1172.88	1147.62	1194.56	1234.69	1091.38	1028.06	1057.06	1030.00	1042.00	1029.00	996.12	985.81	939.50	927.75	933.75	948.62	937.81	916.94	940.31	945.31	916.44	920.31	1031.75	1058.31	957.75	908.31	968.94	1116.31	1109.19	1095.25	1169.81	1203.94	1188.19	1147.25	1153.69	1196.44	1104.81	1232.12	1341.75	1237.00	1210.88	1119.94	1064.88	1062.69	1134.75	1157.88	1297.25	1388.06	1291.31	1193.44	1126.94	1126.56	1173.94	1349.12	1507.25	1499.00	1606.19	1568.81	1749.44	1743.19	1587.88	1365.44	1402.69	1595.12	1637.19	1606.62	1366.31	1359.50	1494.44	1439.50	1243.94	1410.88	1485.00	1360.19	1176.12	1089.56	1051.50	986.62	906.12	878.75	938.44	851.88	936.94	853.44	858.44	810.50	738.62	727.69	806.56	822.56	924.25	995.94	947.94	1017.94	1038.12	1067.75	1045.81	945.44	1049.62	1149.94
2009.19	2129.06	1942.12	1937.00	1867.19	2025.31	1756.69	1868.31	1885.75	1792.56	1579.12	1590.19	1622.75	1591.50	1573.75	1571.12	1522.69	1609.00	1710.12	1646.31	1683.44	1646.31	1524.81	1480.94	1444.19	1421.75	1508.44	1381.19	1413.38	1414.94	1325.50	1307.56	1332.75	1431.56	1424.44	1364.06	1446.25	1307.12	1325.44	1313.19	1322.25	1320.31	1341.75	1288.25	1247.50	1228.06	1209.19	1160.06	1166.88	1184.75	1237.88	1264.38	1238.31	1206.50	1163.81	1168.62	1201.81	1168.62	1103.69	1127.31	1159.50	1163.00	1138.25	1099.69	1070.62	1068.25	1063.12	1059.06	1060.75	1070.19	1118.19	1096.19	1111.38	1073.75	1079.62	1067.69	1061.50	1060.06	1075.69	1164.00	1231.69	1300.75	1338.12	1269.81	1107.94	1075.94	1121.69	1126.50	1116.81	1091.88	1058.56	1054.75	1065.19	1093.25	1111.75	1147.56	1133.56	1144.38	1092.00	1061.62	1100.88	1040.94	1035.31	1026.94	1022.56	1021.44	1001.56	999.50	1017.69	981.00	976.12	968.25	958.69	947.69	942.75	936.56	930.81	922.88	913.00	909.50	904.19	896.12	895.06	890.44	887.06	892.44	956.44	952.62	966.88	1041.25	1097.25	1136.00	1228.38	1262.25	1138.12	1086.31	1057.88	1043.38	1033.81	1007.12	970.75	966.44	941.94	922.56	981.38	1059.44	1075.31	1020.94	1051.94	1094.88	1159.06	1265.75	1346.75	1286.94	1197.19	1201.31	1204.69	1220.12	1213.25	1324.94	1155.62	1052.12	1085.06	1090.38	1088.69	1043.12	980.06	967.00	944.94	945.56	969.00	970.06	961.62	925.94	926.88	921.50	921.38	936.12	1041.12	1123.44	1025.81	921.75	917.12	994.75	1144.38	1132.12	1141.81	1188.31	1257.88	1236.62	1261.75	1282.69	1132.06	1197.06	1278.06	1203.12	1135.88	1089.62	1086.81	1078.69	1092.12	1116.94	1207.62	1359.25	1325.31	1220.25	1133.50	1137.31	1205.06	1354.00	1558.44	1714.62	1771.44	1818.31	1734.69	1851.00	1522.88	1328.62	1636.00	1880.69	1707.62	1598.94	1311.62	1475.88	1625.12	1463.56	1376.06	1370.94	1515.81	1547.12	1290.31	1096.38	1006.69	962.50	925.06	906.25	936.00	880.12	896.50	868.50	922.06	877.81	748.56	730.88	824.44	946.50	1053.38	901.69	961.62	1042.38	1060.62	1107.44	1064.19	946.06	1053.06	1147.19
2017.94	1955.50	2089.56	2112.19	2140.38	1995.00	1809.31	2055.69	1913.56	1795.94	1626.44	1737.75	1681.69	1613.19	1602.06	1579.25	1563.56	1550.00	1728.75	1701.38	1722.88	1612.88	1563.31	1577.19	1487.94	1493.50	1451.69	1470.81	1568.88	1422.19	1337.25	1321.75	1395.12	1502.94	1455.31	1412.38	1425.56	1330.44	1366.31	1348.81	1368.38	1370.56	1338.25	1289.88	1260.94	1207.25	1175.31	1194.00	1194.81	1211.00	1280.50	1275.69	1225.00	1196.25	1173.19	1200.94	1274.75	1243.06	1163.94	1193.31	1205.75	1136.44	1128.88	1089.19	1071.81	1075.44	1068.12	1068.62	1059.44	1061.06	1096.19	1105.38	1140.94	1089.12	1097.19	1076.94	1084.00	1074.62	1069.94	1062.38	1084.56	1107.50	1120.50	1135.06	1090.38	1067.44	1070.25	1069.69	1065.75	1066.00	1067.94	1084.75	1092.81	1160.19	1166.06	1179.25	1215.31	1268.69	1249.81	1170.31	1127.38	1109.56	1075.06	1016.06	1000.50	990.75	992.81	990.19	994.06	989.75	985.50	977.38	985.00	996.75	1031.31	1013.12	1015.19	950.38	930.69	921.06	911.81	903.19	900.19	894.12	892.06	893.56	954.12	977.19	983.38	1000.81	1106.25	1158.88	1186.50	1208.94	1171.62	1129.25	1092.94	1050.75	1013.00	1028.81	1005.75	965.31	925.56	935.12	1022.94	1050.19	1108.06	1062.31	1104.94	1098.38	1133.81	1195.00	1345.12	1401.38	1266.06	1238.19	1228.50	1240.56	1269.00	1257.81	1189.69	1088.19	1065.56	1076.19	1044.50	1019.06	972.56	994.00	975.94	973.12	1001.50	976.19	941.75	929.06	940.06	937.12	934.44	957.00	1047.25	1131.38	1128.00	1011.06	938.62	924.81	1061.31	1179.94	1168.94	1189.75	1165.56	1239.00	1311.62	1271.12	1200.12	1177.31	1286.19	1236.19	1159.75	1093.19	1153.19	1151.12	1096.56	1183.50	1167.38	1304.56	1314.69	1223.31	1148.19	1155.50	1192.12	1373.88	1542.69	1776.44	1942.56	2030.81	1918.50	1940.44	1723.38	1417.19	1632.50	1935.75	1896.31	1647.69	1373.31	1513.12	1643.12	1582.56	1502.25	1390.56	1574.56	1501.50	1460.88	1218.50	1050.88	983.06	963.75	965.94	934.62	895.50	873.25	949.69	957.50	903.50	756.62	744.69	809.50	948.75	882.62	959.25	1008.75	1052.38	1117.56	1144.06	1044.94	1056.06	981.44	1072.19
2120.69	2204.62	2221.31	2379.56	2188.88	1884.94	2008.56	2152.44	1942.62	1699.69	1703.12	1919.62	1791.44	1639.81	1618.44	1610.44	1583.94	1555.06	1710.25	1729.19	1766.12	1625.94	1598.12	1543.75	1561.31	1486.94	1576.31	1521.50	1544.31	1395.62	1345.06	1340.38	1463.00	1629.31	1486.12	1535.88	1474.88	1348.19	1380.94	1382.25	1406.94	1410.25	1327.31	1287.56	1225.69	1177.94	1199.00	1225.44	1214.12	1246.88	1315.56	1270.69	1243.81	1210.00	1192.69	1223.50	1254.62	1195.56	1226.75	1182.19	1152.56	1128.00	1110.12	1097.00	1087.44	1079.50	1072.06	1068.00	1053.44	1059.81	1079.44	1135.19	1186.81	1107.88	1120.75	1068.50	1073.69	1086.75	1096.50	1060.38	1065.88	1069.81	1085.75	1103.94	1096.88	1072.69	1068.19	1077.00	1095.44	1077.31	1084.00	1101.00	1107.31	1174.00	1228.56	1212.75	1254.31	1360.25	1293.19	1172.81	1189.75	1107.81	1059.31	1019.25	1007.62	996.75	993.50	997.50	1004.69	1001.88	1002.00	1004.19	1090.06	1044.38	1191.88	1156.44	1025.69	959.06	934.81	925.75	911.62	908.19	900.12	895.25	896.56	895.69	977.38	1042.50	1044.62	1006.00	1042.06	1099.44	1155.50	1185.06	1178.12	1125.00	1110.81	1047.81	1022.31	1070.94	1088.50	1022.25	935.44	944.44	1024.31	1061.44	1119.00	1115.44	1143.44	1143.44	1128.19	1126.81	1191.38	1341.38	1182.06	1134.88	1109.75	1120.88	1233.44	1200.06	1134.12	1117.38	1105.56	1056.94	1008.44	992.06	995.44	1048.00	1007.69	999.62	1017.62	979.19	939.00	937.19	978.88	941.06	940.25	959.31	1026.38	1105.06	1177.38	1064.75	1036.94	943.44	947.50	1055.56	1100.75	1154.31	1084.88	1130.81	1261.88	1322.31	1315.12	1178.56	1348.94	1301.44	1183.56	1099.50	1225.56	1209.00	1123.31	1136.12	1196.12	1278.50	1354.06	1264.06	1169.12	1187.19	1193.62	1278.44	1423.50	1584.81	1807.88	1982.75	2084.31	2046.25	1830.25	1570.50	1536.00	1806.00	1876.25	1602.44	1417.75	1641.19	1647.81	1613.62	1550.44	1504.12	1614.81	1454.31	1289.69	1332.38	1125.19	1013.69	994.25	994.69	923.81	903.31	940.69	987.31	892.00	857.62	789.06	765.50	780.06	861.00	887.62	1013.62	1112.62	974.81	1032.81	1068.06	1084.81	1115.12	1006.56	1108.50
2402.06	2389.31	2221.19	2027.81	1976.50	2098.12	2255.94	2224.75	1784.62	1717.56	1924.00	2092.44	1972.69	1696.50	1657.50	1639.00	1602.44	1574.56	1693.12	1730.75	1756.25	1748.44	1615.50	1567.56	1668.69	1629.00	1527.69	1497.12	1421.00	1376.38	1355.88	1419.69	1635.62	1696.69	1541.44	1587.75	1520.25	1378.62	1398.75	1425.06	1444.75	1400.69	1302.88	1242.69	1194.56	1210.81	1245.75	1259.44	1247.94	1294.38	1305.62	1265.00	1237.38	1214.69	1211.00	1224.31	1230.81	1190.56	1152.12	1163.75	1146.25	1134.94	1140.50	1151.44	1082.31	1084.56	1082.19	1063.56	1060.44	1070.19	1087.12	1158.56	1212.19	1137.50	1154.50	1053.00	1110.38	1141.44	1112.69	1087.75	1102.56	1102.06	1101.44	1111.94	1096.69	1082.06	1077.06	1106.75	1166.88	1134.88	1085.00	1088.25	1172.56	1168.56	1260.81	1293.88	1254.94	1212.00	1219.50	1214.94	1150.88	1154.81	1127.56	1104.38	1070.31	1018.12	1015.06	1017.38	1021.38	1036.19	1056.12	1125.50	1156.75	1090.88	1265.62	1197.94	1056.38	981.62	960.81	943.69	914.88	908.62	899.00	898.00	897.94	904.75	1007.06	1082.38	1082.94	1022.62	1124.69	1079.50	1156.25	1212.62	1145.88	1123.50	1086.19	1066.88	1086.25	1158.25	1157.88	1076.31	944.06	964.38	1060.75	1073.81	1100.12	1122.38	1123.12	1111.19	1070.25	1056.38	1111.44	1171.00	1097.31	1134.00	1064.25	1093.62	1184.69	1200.31	1188.25	1275.94	1193.50	1131.00	1052.69	1032.81	1010.50	1041.75	1018.56	1051.75	1070.69	1024.81	954.44	954.94	966.44	946.62	960.69	1022.69	1025.81	1041.62	1130.38	1132.75	1122.06	1002.81	938.50	935.69	1039.19	1091.88	1035.69	1113.94	1156.31	1299.50	1318.00	1190.00	1383.06	1312.06	1194.81	1120.81	1285.94	1256.62	1180.25	1112.62	1174.88	1223.94	1338.19	1349.12	1246.44	1202.81	1268.12	1275.44	1315.69	1464.44	1618.12	1774.31	1985.25	2153.31	1846.56	1588.25	1698.56	1887.81	1819.12	1655.94	1798.00	1675.12	1839.00	1789.75	1712.81	1703.12	1464.25	1528.00	1295.19	1166.50	1175.25	1017.25	990.94	954.19	932.62	941.00	1001.00	951.62	900.19	883.75	799.00	776.69	766.38	828.19	924.06	897.62	915.56	954.19	987.81	1123.12	1174.06	1089.81	1111.06	1168.12
2393.88	2201.31	2124.75	2115.88	2200.62	2294.75	2366.25	2141.56	1741.19	1860.50	2024.00	2159.00	2001.75	1749.06	1679.12	1643.44	1605.06	1592.62	1742.56	1783.50	1853.75	1755.62	1619.62	1634.69	1628.69	1549.38	1473.62	1429.75	1408.44	1386.12	1379.06	1525.31	1705.88	1643.56	1677.62	1573.38	1556.19	1409.69	1405.88	1448.06	1425.00	1352.56	1264.00	1213.06	1200.44	1222.00	1263.12	1282.44	1263.75	1297.12	1288.50	1265.25	1239.94	1215.19	1199.69	1176.81	1161.38	1163.19	1197.94	1158.88	1150.31	1149.06	1196.50	1203.69	1088.38	1091.25	1086.75	1067.75	1065.50	1081.50	1096.50	1168.00	1165.81	1201.00	1193.38	1063.00	1119.06	1190.50	1144.19	1147.19	1202.94	1146.06	1095.75	1089.12	1075.38	1072.62	1084.19	1091.56	1159.50	1174.88	1103.56	1094.19	1216.31	1197.31	1221.62	1241.81	1186.19	1151.50	1202.81	1151.75	1215.69	1220.75	1170.19	1140.88	1073.12	1041.94	1022.62	1032.38	1033.81	1070.81	1083.50	1157.56	1223.25	1149.38	1225.81	1219.25	1057.62	1000.56	966.38	937.00	916.56	904.00	898.44	908.06	909.38	924.00	1046.19	1131.94	1118.62	1038.00	1131.88	1122.44	1165.75	1225.62	1195.94	1139.19	1117.25	1181.12	1077.56	1193.19	1164.31	1050.44	949.19	966.19	1108.06	1162.56	1129.75	1085.00	1121.31	1064.94	1027.44	1012.50	1035.44	1072.44	1059.69	1083.25	1044.94	1132.25	1154.69	1144.62	1182.31	1292.69	1255.38	1191.00	1140.69	1099.94	1027.69	1023.50	1038.94	1071.88	1107.00	1063.38	961.56	957.00	952.44	951.19	991.44	1083.50	1096.19	1030.25	1108.06	1166.94	1121.81	1055.12	984.75	943.38	953.06	980.06	1061.88	1139.94	1194.50	1268.88	1241.94	1207.69	1401.62	1358.69	1227.38	1130.56	1274.06	1266.44	1221.88	1133.25	1148.88	1230.50	1397.94	1439.38	1336.56	1209.38	1287.75	1408.56	1307.75	1483.56	1656.38	1886.75	2010.88	2066.69	1779.69	1668.56	1742.94	2067.62	1949.25	1841.12	1951.88	1796.56	1895.06	1952.88	1876.94	1811.69	1473.81	1308.81	1223.25	1187.44	1134.88	1035.56	988.81	948.25	954.00	959.00	1017.94	975.69	973.00	871.25	795.38	780.94	779.50	798.75	864.31	987.00	1045.31	980.50	1063.00	1065.75	1204.75	1131.56	1185.19	1211.50
2305.12	2393.94	2352.12	2406.69	2450.44	2348.38	2256.56	1914.69	1767.56	2007.25	2201.81	2116.06	1906.50	1794.38	1715.06	1645.19	1613.69	1612.12	1768.56	1797.69	1860.00	1858.31	1643.06	1583.38	1518.25	1472.69	1465.69	1464.00	1423.25	1402.19	1416.75	1567.31	1711.94	1742.94	1744.25	1648.12	1470.38	1457.44	1440.00	1437.94	1355.81	1283.50	1223.00	1200.12	1214.75	1231.38	1271.81	1303.38	1284.19	1310.12	1293.69	1282.06	1260.81	1211.12	1174.38	1239.75	1229.75	1233.38	1275.94	1175.25	1162.00	1166.56	1186.38	1192.38	1101.62	1097.69	1090.38	1069.88	1076.12	1096.12	1126.81	1226.62	1157.94	1212.81	1209.94	1105.88	1126.00	1256.25	1196.25	1221.81	1253.12	1187.75	1110.00	1098.25	1077.75	1069.94	1129.69	1112.81	1135.12	1185.50	1106.25	1096.62	1211.88	1241.44	1235.25	1217.88	1203.44	1135.12	1162.19	1126.44	1145.81	1140.38	1101.75	1073.12	1079.81	1056.44	1044.81	1056.75	1067.25	1084.94	1173.31	1120.19	1207.00	1229.88	1140.75	1095.31	1019.12	977.56	955.06	934.06	914.12	908.94	906.31	916.88	919.19	978.50	1144.88	1250.25	1157.94	1068.50	1128.25	1167.44	1124.44	1213.12	1199.81	1131.94	1145.94	1194.12	1120.19	1191.62	1147.31	1046.62	958.19	968.81	1117.31	1135.44	1093.25	1076.00	1158.69	1058.56	1001.81	1007.50	1066.00	1072.38	1062.75	1038.62	1040.94	1114.06	1114.12	1109.81	1142.56	1257.00	1316.06	1240.38	1256.81	1119.62	1066.75	1055.50	1071.62	1088.12	1111.25	1046.50	965.44	960.94	949.38	961.94	1025.75	1106.06	1121.50	1089.19	1052.44	1169.38	1142.12	1099.50	1005.50	952.19	946.88	955.12	1029.81	1151.06	1134.25	1256.56	1266.44	1287.12	1348.94	1304.00	1224.62	1143.62	1231.56	1263.19	1243.94	1158.88	1123.00	1254.19	1353.44	1434.56	1369.75	1247.31	1231.44	1393.44	1385.75	1356.75	1584.69	1768.19	1834.50	1972.56	1883.94	1873.88	1860.38	2140.12	2035.38	1870.31	1731.19	1803.06	1847.06	1853.94	1697.19	1650.56	1510.44	1420.62	1453.12	1376.62	1267.00	1172.44	1081.31	969.00	958.69	951.31	948.81	930.75	869.94	823.38	794.06	792.75	783.38	883.94	955.50	1063.94	1124.44	1071.44	1068.81	1126.56	1186.75	1190.69	1213.56	1199.81
2348.69	2478.62	2540.50	2536.25	2385.06	2189.62	1911.88	1815.25	2052.81	2233.94	2092.31	1947.25	1927.06	1846.75	1731.56	1644.12	1624.00	1656.94	1753.31	1820.94	1822.00	1770.19	1621.19	1556.94	1521.38	1511.88	1520.31	1498.94	1436.62	1419.00	1436.38	1621.06	1846.81	1857.69	1718.88	1726.00	1519.31	1509.00	1455.38	1373.31	1287.69	1234.06	1211.25	1217.94	1222.50	1245.69	1284.06	1307.69	1291.62	1316.44	1306.94	1323.44	1309.69	1261.56	1185.50	1263.44	1254.19	1307.38	1224.88	1189.69	1174.06	1170.44	1165.38	1210.75	1121.88	1103.94	1093.81	1078.62	1082.38	1099.69	1182.69	1233.94	1163.06	1253.25	1217.88	1107.38	1093.25	1217.44	1223.56	1264.75	1278.81	1190.69	1133.12	1103.12	1085.75	1069.50	1134.38	1189.12	1163.25	1148.50	1097.88	1090.25	1156.12	1180.56	1167.81	1146.12	1121.31	1101.38	1105.50	1109.44	1097.62	1083.12	1062.56	1076.19	1079.12	1072.75	1079.31	1090.56	1108.12	1100.44	1224.38	1207.38	1226.44	1201.56	1091.19	1049.12	1021.12	998.88	970.56	931.62	907.19	908.50	914.88	920.62	921.38	984.62	1136.44	1337.00	1187.88	1115.50	1131.19	1218.06	1175.19	1223.25	1195.44	1161.44	1174.44	1198.62	1154.69	1068.06	1126.94	1094.06	947.19	948.62	1049.75	1103.50	1057.56	1047.44	1094.25	1001.06	991.50	1071.94	1152.75	1102.19	1133.12	1073.62	1031.50	1095.75	1085.69	1084.94	1131.38	1248.25	1257.38	1259.31	1245.62	1157.19	1116.50	1087.50	1118.62	1121.62	1148.38	1076.12	972.25	972.50	961.56	968.62	1025.25	1089.69	1123.06	1157.12	1069.69	1169.12	1114.12	1067.25	1047.31	972.06	946.12	946.44	998.06	1073.94	1098.19	1234.25	1252.56	1334.94	1367.81	1255.94	1182.62	1147.94	1287.12	1277.06	1262.12	1199.00	1119.00	1193.19	1350.62	1388.69	1350.31	1245.94	1238.69	1294.38	1397.44	1378.75	1378.62	1510.00	1599.00	1848.62	1913.81	2002.56	2073.38	2145.62	2084.31	1860.56	1681.38	1559.31	1757.62	1909.31	1759.50	1556.31	1498.38	1470.62	1409.06	1270.12	1252.88	1321.50	1050.12	978.31	938.56	906.50	889.44	852.88	863.12	865.94	831.12	821.44	781.25	917.38	992.50	939.31	1016.06	1099.81	1118.00	1100.00	1136.19	1206.75	1192.19	1164.62
2531.25	2507.38	2517.94	2294.75	2177.81	1918.94	1969.06	2156.75	2412.19	2178.31	2048.94	2145.12	2188.88	1944.00	1699.31	1707.75	1693.44	1757.31	1746.25	1680.44	1715.25	1665.19	1563.06	1603.50	1636.81	1604.31	1613.25	1487.88	1487.06	1482.88	1477.12	1583.44	1721.00	1692.31	1592.12	1588.50	1516.06	1475.38	1337.62	1270.00	1233.56	1221.62	1213.00	1225.50	1239.56	1281.81	1327.88	1323.62	1301.44	1293.81	1273.50	1276.62	1270.88	1223.56	1224.69	1369.12	1415.50	1315.12	1259.81	1267.81	1278.56	1154.31	1145.50	1167.69	1170.31	1114.69	1104.69	1096.44	1092.19	1102.06	1191.50	1251.69	1246.31	1249.25	1168.81	1097.12	1068.00	1108.94	1223.75	1286.56	1272.19	1216.81	1193.44	1120.50	1121.50	1082.56	1092.94	1165.44	1164.69	1135.62	1147.75	1114.31	1184.44	1211.31	1186.44	1120.12	1116.94	1143.69	1096.62	1090.56	1092.69	1107.88	1086.06	1092.50	1103.94	1075.94	1096.12	1090.50	1143.62	1140.44	1175.06	1226.44	1275.69	1140.31	1081.50	1065.88	1009.50	978.44	964.75	915.75	913.25	919.19	921.12	924.69	924.94	991.38	1094.62	1162.56	1174.12	1163.31	1144.31	1236.12	1201.94	1116.19	1172.00	1173.81	1144.69	1050.31	1067.81	1024.94	983.69	955.69	933.50	955.19	972.44	989.75	985.88	957.94	999.19	1059.81	977.75	1036.56	1124.31	1095.94	1103.06	1121.50	1050.25	1054.25	1058.94	1064.62	1093.62	1116.81	1139.44	1159.56	1257.25	1197.50	1148.25	1132.31	1120.69	1111.88	1090.19	1043.50	968.88	976.69	977.62	1007.06	1071.19	1115.81	1135.88	1180.06	1095.94	1162.31	1159.69	1134.88	1056.12	1029.00	958.38	955.88	958.94	1044.56	1141.56	1229.62	1313.00	1393.94	1328.75	1238.62	1248.62	1166.06	1298.31	1321.31	1278.19	1239.38	1113.38	1145.31	1292.38	1398.62	1359.00	1259.62	1285.56	1356.00	1304.88	1334.69	1405.94	1435.88	1432.25	1507.69	1603.50	1726.81	1883.81	1968.94	1939.06	1927.69	1914.19	1573.38	1516.62	1638.12	1560.50	1544.19	1363.25	1517.44	1424.19	1447.06	1378.75	1180.00	1022.19	993.62	944.06	839.38	820.62	869.12	924.62	972.38	862.56	801.19	769.50	906.56	881.38	946.38	938.62	952.44	974.50	986.88	1118.88	1234.19	1136.25	1104.25
2472.31	2448.12	2546.19	2405.69	2108.94	1955.88	2317.50	2335.25	2369.94	2122.44	2276.44	2360.06	2199.00	1845.44	1700.00	1943.00	1906.06	1768.31	1684.25	1635.25	1627.06	1626.75	1688.62	1802.94	1742.06	1709.50	1652.56	1515.75	1562.94	1475.12	1567.00	1695.75	1730.88	1627.62	1517.50	1517.25	1513.12	1369.38	1276.94	1245.25	1226.31	1223.12	1219.56	1230.44	1269.38	1322.38	1363.38	1347.56	1341.69	1286.94	1256.12	1251.00	1238.00	1245.12	1262.31	1453.50	1410.94	1303.12	1385.25	1381.81	1240.56	1198.69	1211.56	1155.94	1190.12	1112.81	1120.31	1117.25	1106.44	1105.00	1180.81	1240.69	1282.06	1189.19	1207.25	1181.06	1083.00	1085.62	1166.00	1262.06	1338.00	1239.19	1286.50	1162.12	1118.88	1116.44	1094.81	1124.12	1115.00	1133.31	1177.12	1176.62	1247.50	1191.69	1136.44	1120.25	1177.56	1162.06	1089.31	1088.81	1138.81	1111.06	1103.38	1087.25	1112.69	1062.75	1071.50	1108.56	1125.50	1169.62	1154.75	1113.62	1080.19	1047.75	1026.94	1002.94	976.88	956.50	930.44	913.81	942.44	932.19	925.81	927.50	927.50	975.44	1049.38	1093.88	1099.06	1091.25	1120.56	1157.94	1086.19	1064.81	1075.94	1061.69	1078.69	1009.25	999.69	985.75	956.75	942.69	945.00	947.94	953.12	951.94	948.69	967.75	1032.69	1089.31	955.75	1014.00	1055.75	1154.00	1113.19	1069.38	1063.06	1069.19	1101.62	1113.50	1136.62	1116.50	1175.38	1190.75	1256.75	1154.38	1101.81	1103.44	1132.25	1114.06	1056.44	1022.56	976.31	985.19	1031.19	1064.69	1115.50	1238.94	1180.19	1196.69	1159.25	1149.81	1163.00	1113.31	1099.44	1100.88	984.56	962.31	965.50	986.56	1125.75	1243.00	1320.44	1421.00	1362.44	1276.56	1228.38	1183.56	1218.00	1272.00	1279.69	1271.19	1127.56	1121.31	1225.94	1345.06	1358.19	1287.00	1267.19	1347.88	1377.94	1385.25	1391.69	1638.88	1680.94	1662.31	1605.50	1684.94	1777.56	1939.19	1868.94	1720.94	1854.00	1636.69	1424.75	1541.00	1564.62	1462.75	1318.19	1508.44	1299.25	1403.44	1299.25	1140.94	1066.44	1003.81	893.56	815.25	824.75	957.00	943.94	917.38	832.00	788.94	776.00	810.94	895.31	1042.12	1061.56	1051.12	1051.44	1029.62	1152.56	1247.00	1181.88	1129.62
2535.75	2405.50	2260.06	2217.44	2002.62	2254.44	2357.75	2506.81	2287.62	2358.62	2413.25	2171.12	1879.38	1735.81	1796.25	1900.62	1924.75	1757.56	1672.25	1719.75	1863.38	1841.19	1846.25	1919.94	1861.06	1837.75	1651.88	1622.12	1632.44	1481.38	1638.94	1837.56	1790.25	1587.44	1590.62	1576.38	1440.25	1296.06	1254.56	1238.50	1230.75	1222.06	1231.62	1259.31	1320.62	1396.06	1404.50	1393.06	1391.19	1389.00	1409.19	1363.56	1309.38	1415.88	1342.56	1420.25	1367.00	1367.19	1439.56	1366.25	1224.69	1286.38	1260.56	1151.19	1136.06	1128.44	1125.62	1120.44	1114.38	1112.62	1130.69	1212.75	1240.88	1272.88	1256.94	1146.62	1117.19	1086.06	1164.19	1194.62	1295.88	1299.38	1217.25	1158.75	1142.00	1167.75	1174.69	1116.00	1104.94	1123.56	1157.81	1157.75	1201.75	1191.88	1180.12	1197.06	1214.62	1130.88	1112.81	1165.19	1175.69	1094.31	1094.88	1093.00	1106.25	1062.75	1075.19	1102.44	1073.25	1076.94	1043.81	1030.50	1008.06	992.00	984.44	969.44	954.88	929.94	927.62	965.06	965.12	946.38	935.31	934.25	943.00	1051.00	1126.75	1108.12	1112.12	1043.06	1035.31	1056.00	1035.12	1009.12	1003.81	994.19	996.44	986.56	983.38	952.88	945.06	954.81	963.69	975.56	1001.06	1001.69	1000.69	1017.56	1006.88	983.31	952.75	957.19	1061.31	1149.81	1117.75	1067.25	1059.06	1095.88	1130.06	1188.81	1232.44	1165.12	1194.00	1247.94	1342.38	1210.62	1080.56	1056.50	1101.00	1081.75	1035.25	994.31	979.25	989.81	1041.62	1132.81	1202.88	1307.88	1338.25	1266.62	1257.94	1135.12	1149.06	1144.62	1180.94	1119.00	1079.38	996.62	973.12	975.12	1028.75	1142.56	1256.38	1292.75	1449.62	1316.75	1248.81	1221.56	1186.94	1254.75	1294.19	1309.38	1146.94	1114.56	1171.19	1336.50	1442.31	1367.12	1344.25	1310.25	1325.44	1481.50	1410.25	1523.50	1777.06	1921.31	1917.94	1944.06	1756.31	1841.44	1796.62	1666.06	1696.81	1777.19	1568.69	1385.75	1549.31	1356.50	1232.50	1293.69	1400.19	1252.12	1284.62	1156.94	1078.81	965.25	848.38	831.94	907.06	1111.19	973.50	865.06	880.25	819.75	774.25	785.25	901.69	1000.81	994.50	1053.19	1113.69	1134.06	1112.56	1167.00	1147.50	1069.38
2383.81	2514.56	2279.81	2083.69	2239.69	2417.62	2580.56	2437.38	2414.19	2485.19	2357.00	1987.62	1758.06	1801.06	2079.81	1966.50	1817.69	1769.38	1711.69	1905.12	2036.81	2048.94	2008.25	2015.69	1879.81	1785.94	1654.19	1790.00	1590.00	1505.19	1642.88	1743.44	1604.44	1555.56	1479.44	1356.44	1282.94	1260.00	1251.19	1237.38	1235.75	1238.62	1254.00	1300.19	1376.69	1437.25	1409.69	1371.62	1360.69	1427.00	1509.50	1420.19	1341.31	1437.06	1436.06	1333.56	1335.50	1420.06	1374.88	1249.75	1192.81	1188.31	1183.25	1153.56	1140.62	1135.12	1128.38	1125.81	1122.88	1125.94	1119.12	1133.69	1176.38	1207.38	1134.19	1179.56	1172.19	1104.19	1104.25	1200.94	1210.56	1222.94	1230.56	1189.88	1152.75	1156.19	1183.81	1136.25	1119.69	1125.44	1139.19	1149.25	1163.75	1180.12	1198.69	1270.00	1218.88	1199.50	1143.75	1226.81	1149.88	1116.56	1137.25	1132.38	1101.38	1025.19	1000.38	1017.94	1025.38	1011.62	998.44	993.69	981.69	946.62	938.56	930.38	923.50	923.56	971.06	1008.50	982.06	960.94	939.56	944.62	997.75	1074.62	1131.56	1080.56	1113.06	1029.19	1019.25	1011.62	998.94	992.69	981.62	974.94	967.50	962.62	956.31	951.00	957.12	977.50	971.56	988.19	1011.00	1024.56	1048.69	1040.69	1049.38	999.06	969.19	967.06	979.12	1107.31	1064.06	1035.75	1049.19	1074.94	1121.69	1201.38	1166.88	1185.38	1221.44	1301.31	1317.75	1269.94	1115.88	1067.19	1054.06	1043.50	1022.25	990.62	991.62	994.38	996.06	1078.38	1252.44	1403.31	1451.00	1382.69	1366.19	1189.50	1204.62	1168.88	1218.75	1124.56	1137.19	1050.75	985.81	984.94	986.94	1045.25	1164.00	1207.62	1401.12	1308.69	1269.25	1250.50	1186.75	1261.19	1290.88	1298.56	1187.56	1116.31	1131.62	1254.38	1407.50	1470.75	1483.50	1426.69	1362.44	1406.88	1529.62	1490.19	1648.12	1867.06	2022.12	2012.44	1730.94	1710.94	1671.94	1469.31	1687.06	1729.75	1670.88	1374.94	1342.88	1447.75	1401.25	1154.88	1298.75	1369.69	1246.94	1282.81	1117.94	960.69	839.69	890.94	975.00	1079.75	1070.62	891.44	933.62	849.25	814.81	774.75	800.12	921.69	907.94	1037.44	1071.88	1067.12	1151.19	1103.69	1125.06	1061.94
2176.88	2244.00	2329.56	2258.25	2247.31	2364.50	2593.75	2522.62	2269.44	2155.62	2124.19	1803.06	1836.69	1942.50	2193.69	2070.88	1924.38	1994.81	1800.94	2105.75	2350.94	2263.81	2182.12	2064.06	1909.56	1971.38	1795.81	1640.75	1542.69	1542.62	1580.50	1598.56	1499.56	1353.81	1275.62	1266.62	1267.88	1257.25	1259.81	1249.25	1247.44	1258.06	1286.12	1357.00	1434.06	1428.19	1424.94	1409.88	1328.69	1351.38	1490.31	1490.00	1400.81	1388.44	1407.69	1347.12	1275.44	1281.06	1340.12	1283.88	1295.19	1258.25	1190.12	1162.38	1150.19	1152.25	1137.62	1133.94	1160.75	1172.19	1129.38	1114.75	1133.94	1170.38	1239.81	1249.38	1224.38	1123.38	1109.44	1131.56	1134.19	1186.19	1232.31	1176.56	1139.62	1129.88	1161.00	1161.62	1138.44	1148.94	1152.94	1155.75	1172.81	1180.31	1211.94	1279.50	1247.94	1243.88	1194.56	1214.38	1141.94	1158.75	1147.69	1128.88	1071.81	976.56	949.62	974.56	981.50	972.56	969.94	964.56	951.81	935.12	929.25	934.81	955.44	988.56	1041.62	1023.25	975.06	966.88	953.50	990.25	1116.31	1120.31	1091.38	1057.12	1067.38	1003.81	1016.88	996.00	982.88	980.06	979.31	977.50	971.06	968.94	959.62	959.06	966.88	997.75	991.69	986.69	1025.44	1051.88	1077.88	1086.19	1103.12	1090.56	1040.19	994.12	980.25	967.81	1011.31	1044.88	1088.44	1119.44	1126.88	1183.62	1121.69	1120.31	1185.19	1189.69	1183.94	1230.69	1143.12	1094.00	1032.00	1018.31	1003.88	994.19	1001.12	998.06	998.12	1029.81	1172.06	1327.25	1526.75	1548.12	1441.62	1332.38	1241.12	1183.88	1212.81	1186.44	1196.75	1067.69	1007.00	1001.06	999.56	1033.06	1137.44	1221.25	1249.44	1226.38	1265.06	1195.25	1164.69	1221.06	1276.12	1316.00	1269.19	1143.38	1115.50	1182.56	1330.06	1563.31	1571.88	1493.19	1494.31	1438.12	1508.69	1543.94	1700.94	1827.94	1972.69	1943.50	1743.81	1532.88	1650.50	1349.56	1559.94	1610.25	1688.00	1612.88	1374.38	1317.81	1463.31	1237.44	1125.75	1270.31	1270.94	1387.00	1212.19	907.50	881.25	1031.25	1049.69	1054.06	1051.12	954.88	940.88	892.06	856.56	800.50	782.94	801.62	911.88	922.62	1072.25	990.50	1115.81	1022.00	1136.56	1103.19
1981.31	2158.06	2281.81	2411.88	2485.31	2488.44	2482.25	2348.12	2300.50	2150.25	1878.50	1842.69	2131.25	2072.69	2244.19	2176.56	2003.50	2011.25	1856.25	2150.12	2260.69	2044.12	1969.88	1952.69	2033.06	1883.50	1707.94	1617.75	1543.50	1571.94	1593.06	1533.62	1396.00	1286.19	1287.75	1277.31	1267.19	1253.25	1249.50	1246.06	1263.12	1288.94	1347.19	1424.31	1457.69	1405.81	1388.69	1370.44	1378.44	1352.81	1419.25	1528.44	1525.12	1507.81	1325.31	1387.12	1314.69	1234.94	1253.25	1235.50	1245.94	1207.69	1179.69	1166.38	1160.06	1158.25	1143.50	1140.88	1189.19	1177.81	1148.06	1127.44	1132.50	1238.94	1323.31	1265.25	1340.00	1152.12	1223.50	1205.44	1162.19	1143.25	1208.38	1188.06	1222.25	1144.62	1127.38	1146.69	1160.12	1180.94	1184.88	1169.69	1190.31	1186.75	1200.50	1225.50	1221.69	1202.62	1189.00	1183.62	1160.88	1183.94	1107.69	1025.12	997.31	942.31	940.19	958.00	971.69	968.88	961.88	956.50	949.81	939.75	957.19	980.31	997.50	1023.69	1057.50	1009.56	990.69	977.06	968.62	973.81	1009.12	1032.25	1024.25	1021.06	1015.69	992.81	985.88	969.50	975.75	979.12	980.44	980.19	976.50	974.88	969.94	966.12	981.44	1015.75	1065.81	1005.50	1022.50	1075.31	1102.75	1105.62	1082.38	1132.69	1155.38	1054.12	1001.12	965.50	984.75	1092.31	1092.88	1171.06	1181.12	1194.81	1139.56	1124.75	1169.12	1145.75	1123.62	1178.56	1105.50	1079.81	1030.00	1015.50	1003.38	1006.00	1005.00	1002.50	999.38	1042.69	1102.94	1278.50	1452.31	1571.81	1561.62	1481.94	1305.94	1143.06	1172.31	1099.94	1064.00	1048.88	1072.75	1016.75	1006.50	1015.50	1040.56	1085.31	1115.62	1154.69	1180.88	1145.12	1153.12	1223.06	1317.38	1322.19	1311.25	1251.94	1116.00	1169.69	1330.88	1547.00	1687.56	1612.69	1612.88	1598.44	1512.12	1540.50	1640.44	1733.62	1896.81	2019.06	1846.38	1545.06	1445.62	1246.56	1350.88	1495.25	1555.12	1649.25	1498.38	1267.00	1420.31	1300.44	1144.19	1078.44	1273.25	1206.12	963.44	873.81	1027.44	1097.19	1118.94	1153.06	1023.81	989.25	993.50	904.38	903.31	856.62	793.56	782.75	807.50	916.19	965.88	985.31	1102.50	1047.25	1041.00	1183.00
1880.81	2142.31	2145.69	2348.25	2267.19	2239.19	2519.00	2237.00	2353.81	2160.25	1858.38	2017.88	2428.75	2308.94	2111.38	2209.56	2129.94	2043.88	2007.88	1986.75	2216.81	2251.00	2204.25	2002.31	1806.00	1854.50	1666.38	1600.19	1568.19	1620.00	1572.00	1431.06	1299.56	1304.31	1283.94	1260.56	1271.50	1274.88	1272.06	1271.94	1305.38	1347.12	1431.31	1472.69	1430.38	1388.50	1391.06	1404.25	1508.06	1393.62	1327.94	1324.88	1365.69	1349.00	1315.81	1271.75	1251.50	1226.12	1207.88	1200.19	1192.69	1183.81	1177.50	1169.19	1172.44	1164.12	1150.94	1158.25	1206.62	1195.06	1188.75	1159.06	1127.62	1234.00	1351.69	1323.19	1365.25	1162.31	1232.00	1276.00	1227.81	1148.94	1177.38	1272.19	1270.38	1149.81	1139.25	1161.19	1182.62	1211.25	1188.56	1176.06	1189.06	1202.62	1221.50	1220.94	1211.44	1199.19	1195.31	1175.38	1162.00	1092.88	1013.50	970.25	947.88	933.06	934.31	942.56	945.81	950.75	950.00	953.94	952.06	962.88	995.69	1026.38	1052.44	1044.25	1042.50	1030.38	1024.38	991.56	976.44	972.31	968.81	978.12	1015.38	977.31	976.25	1006.88	984.06	972.00	977.06	984.44	986.19	984.94	983.69	978.88	978.50	979.56	997.00	1037.25	1104.94	1033.69	1024.19	1098.38	1161.56	1168.56	1086.56	1161.44	1192.19	1057.88	1022.62	974.25	968.69	1030.81	1089.75	1157.38	1179.75	1131.19	1109.94	1141.31	1180.38	1146.19	1125.44	1116.75	1107.56	1059.38	1027.94	1046.25	1038.00	1028.94	1020.75	1007.25	1013.50	1050.00	1086.12	1164.31	1257.44	1437.19	1522.62	1545.94	1302.62	1135.38	1086.38	1101.12	1098.00	1176.56	1149.19	1036.56	1006.06	1016.81	1033.88	1089.25	1202.44	1216.56	1153.12	1154.12	1161.12	1256.25	1365.12	1358.69	1321.25	1260.88	1122.12	1130.88	1377.19	1522.75	1662.56	1697.38	1661.81	1663.94	1675.25	1582.19	1642.69	1795.06	1886.25	1987.62	1829.81	1579.62	1500.12	1492.00	1269.94	1172.81	1223.75	1256.69	1231.31	1171.88	1394.38	1355.06	1325.44	1060.00	1020.31	962.06	988.75	1065.69	1237.44	1194.06	1117.56	1116.38	1045.12	1071.00	1081.69	1007.12	938.38	906.62	870.50	797.38	793.38	808.06	863.12	927.31	947.69	1006.75	971.94	1114.06
1728.44	1916.94	1981.75	2083.19	2166.25	2248.88	2573.00	2363.50	2131.88	1990.38	1941.19	2027.81	2279.56	2408.44	2170.94	2242.50	2254.44	2257.31	2161.31	1960.12	2137.31	2300.31	2196.81	1994.88	1760.38	1696.31	1642.31	1603.31	1605.38	1620.31	1478.94	1350.62	1297.25	1303.00	1281.50	1272.50	1334.50	1386.81	1425.75	1388.19	1386.69	1416.75	1463.44	1456.31	1409.94	1373.56	1359.69	1369.75	1367.94	1395.94	1457.31	1355.00	1286.19	1281.56	1272.69	1235.25	1230.88	1223.94	1220.19	1237.50	1218.56	1186.88	1184.81	1171.88	1176.25	1165.62	1154.19	1167.81	1211.69	1243.31	1185.94	1201.94	1139.81	1213.62	1360.19	1363.00	1339.88	1178.31	1243.19	1262.19	1243.25	1168.12	1223.19	1306.12	1218.75	1140.75	1143.00	1164.38	1195.81	1228.62	1207.94	1184.00	1184.75	1201.62	1230.12	1222.69	1222.69	1203.00	1178.50	1116.19	1072.56	1019.56	967.19	955.25	926.75	918.81	921.25	933.81	950.00	953.25	949.00	951.44	956.50	974.81	1014.88	1068.50	1088.31	1046.81	1051.38	1049.25	1011.69	1002.00	981.62	976.81	981.31	973.56	960.88	963.31	969.56	993.62	969.75	968.44	979.75	989.81	990.50	997.50	1001.31	1003.44	983.75	1003.06	1007.94	1084.12	1138.81	1080.56	1043.50	1067.19	1128.12	1182.75	1118.62	1182.12	1105.38	1063.06	1079.56	1000.81	972.25	1027.81	1040.81	1067.12	1107.62	1112.38	1135.12	1168.31	1182.38	1140.56	1100.81	1120.94	1097.19	1052.00	1042.31	1071.38	1064.50	1062.69	1046.06	1011.38	1015.81	1051.94	1072.69	1128.81	1194.88	1315.25	1391.56	1452.38	1336.00	1178.19	1141.19	1139.44	1142.44	1176.56	1112.25	1060.50	1007.19	1021.31	1033.56	1113.12	1271.50	1132.75	1238.25	1250.94	1180.75	1274.19	1411.31	1365.81	1332.50	1239.81	1123.50	1111.38	1251.06	1604.25	1698.81	1616.19	1600.38	1598.00	1725.94	1696.31	1722.31	1757.88	1750.50	1826.81	1843.06	1773.44	1757.31	1659.38	1455.50	1128.62	1113.50	1074.81	1053.50	1026.31	1061.62	1113.94	1156.00	981.19	914.88	992.75	1141.19	1111.62	1236.62	1217.06	1103.12	1066.12	1032.31	1040.25	1104.94	1061.31	940.69	955.69	931.00	866.25	811.00	808.69	805.62	804.00	822.62	915.44	946.31	1033.94
1766.00	1713.75	1778.00	1820.44	1939.56	2204.12	2408.06	2421.12	2221.31	1930.19	2119.69	2194.25	2169.31	2401.88	2261.00	2264.56	2488.56	2295.31	2178.06	2033.50	2181.81	2118.88	2007.06	1916.44	1762.31	1675.44	1652.12	1716.12	1680.12	1527.12	1345.38	1310.31	1303.75	1290.38	1287.62	1322.06	1425.12	1626.38	1575.38	1519.38	1482.62	1477.81	1444.44	1419.44	1392.06	1373.06	1378.69	1502.25	1481.81	1380.31	1436.00	1448.38	1353.88	1331.75	1333.06	1279.00	1266.25	1283.62	1258.62	1273.25	1312.25	1187.50	1182.94	1181.62	1180.38	1166.88	1165.56	1179.81	1222.31	1264.50	1231.44	1210.31	1155.44	1203.19	1349.06	1406.12	1308.50	1167.75	1188.56	1274.75	1275.06	1169.00	1249.50	1278.81	1202.06	1151.94	1157.81	1169.31	1210.38	1240.94	1229.62	1182.31	1171.62	1195.25	1180.44	1157.25	1159.88	1160.75	1109.81	1033.88	978.50	961.31	950.12	939.81	921.06	910.44	910.75	935.12	959.94	955.38	958.94	963.12	970.12	987.19	1027.19	1091.38	1097.06	1060.00	1064.75	1052.19	1007.56	1015.12	1009.44	985.94	980.06	977.75	970.56	964.88	966.19	977.81	977.19	982.31	984.19	998.31	999.38	1011.12	1039.38	1070.88	992.88	1027.25	1026.62	1074.56	1150.88	1119.69	1065.88	1074.88	1148.62	1222.56	1189.88	1137.88	1097.56	1145.56	1145.44	1065.38	996.19	982.69	1006.44	1026.44	1045.50	1072.62	1107.50	1137.06	1112.94	1092.50	1122.88	1150.56	1119.12	1060.69	1064.06	1079.50	1101.12	1110.88	1127.31	1036.19	1018.25	1059.44	1115.56	1118.56	1222.88	1334.62	1366.38	1349.44	1371.31	1248.56	1196.94	1197.19	1122.44	1152.94	1121.00	1054.69	1017.31	1027.50	1038.69	1049.12	1178.19	1131.62	1310.88	1352.81	1248.38	1236.94	1354.25	1319.06	1307.44	1292.88	1144.31	1114.62	1129.38	1429.81	1659.62	1573.81	1439.75	1403.81	1557.44	1751.12	1757.38	1564.50	1604.44	1675.25	1876.88	1999.25	1832.50	1613.44	1360.69	1330.88	1366.56	1273.81	1178.19	1112.75	1047.94	987.25	973.00	966.69	929.25	963.62	1016.69	1048.12	1160.88	1189.00	1098.31	1109.12	1051.88	1004.31	998.81	1034.75	977.38	916.50	948.56	933.94	837.62	880.06	830.69	818.62	809.81	829.62	869.31	974.62
1973.25	2089.56	2257.81	2036.88	2066.31	2070.94	2188.50	2210.25	2056.75	1961.88	2286.00	2186.81	2256.12	2413.31	2497.81	2448.31	2361.50	2207.50	2121.69	1988.81	1908.94	1859.25	1824.44	1784.50	1765.31	1751.12	1790.00	1761.06	1514.50	1337.06	1326.19	1316.81	1311.44	1338.00	1417.62	1555.06	1582.00	1580.69	1544.81	1492.25	1476.44	1445.25	1417.38	1397.62	1392.62	1398.56	1439.88	1435.56	1505.94	1418.31	1378.25	1381.00	1364.50	1319.75	1286.56	1323.38	1318.62	1353.25	1326.38	1238.25	1242.31	1196.81	1194.12	1233.25	1208.25	1168.75	1181.62	1193.88	1240.44	1319.69	1271.44	1222.88	1187.44	1148.19	1240.88	1308.25	1231.06	1179.81	1226.56	1244.56	1246.25	1225.06	1249.44	1258.19	1180.12	1171.25	1220.19	1200.00	1218.81	1252.69	1204.44	1145.75	1130.38	1125.25	1099.38	1073.38	1087.06	1099.56	1056.12	982.75	963.81	956.69	936.00	933.69	921.12	907.75	905.88	938.62	976.44	970.06	969.44	975.56	980.69	997.69	1033.62	1056.31	1077.94	1095.00	1046.00	1033.19	1039.69	1066.69	1054.69	997.56	1006.06	1029.06	1011.00	980.44	996.56	990.00	987.88	998.12	1013.06	1041.69	1013.31	1012.31	1060.56	1106.62	1017.69	1039.00	1091.88	1085.12	1120.75	1188.69	1090.12	1048.19	1116.62	1193.44	1229.62	1144.56	1167.19	1158.62	1110.38	1109.00	1062.75	990.81	979.50	997.25	1012.94	1070.38	1092.75	1107.75	1140.38	1143.06	1133.94	1149.31	1149.12	1075.62	1085.19	1117.75	1158.06	1119.56	1104.38	1038.81	1036.12	1042.44	1176.00	1159.88	1184.31	1238.81	1257.75	1393.31	1331.56	1245.38	1157.44	1135.19	1090.69	1114.88	1121.62	1077.38	1016.44	1033.69	1057.88	1066.31	1081.12	1166.56	1328.62	1358.31	1293.81	1217.88	1277.75	1346.44	1308.94	1259.38	1250.31	1199.38	1128.06	1174.94	1295.25	1353.94	1255.06	1218.19	1293.00	1518.50	1559.88	1540.00	1772.19	1775.19	1846.06	1964.12	1775.56	1517.19	1307.19	1478.38	1589.81	1458.44	1435.38	1329.12	1341.94	1257.25	1081.56	1011.19	986.62	995.06	1017.06	1003.19	1019.88	1100.06	1135.75	1144.44	1113.12	1099.88	1014.81	977.50	951.75	953.06	936.75	883.81	969.06	963.12	964.50	866.44	825.62	822.19	869.12	1013.62
2090.06	2267.69	2343.81	2180.56	2343.56	2364.00	2225.56	2096.56	2094.56	2012.31	2339.94	2221.81	2399.62	2513.50	2657.00	2501.38	2385.44	2570.31	2425.00	2127.00	1927.44	1872.62	1958.75	1907.44	2003.62	1833.25	1665.00	1396.25	1361.94	1366.88	1353.06	1341.50	1352.25	1495.88	1569.06	1678.69	1607.75	1594.50	1522.19	1483.81	1469.00	1447.75	1423.69	1405.75	1403.75	1442.44	1451.00	1401.56	1380.75	1449.19	1491.94	1437.25	1402.56	1336.19	1338.88	1413.19	1329.19	1286.94	1257.75	1263.88	1230.38	1213.25	1201.88	1257.56	1225.81	1198.06	1192.81	1201.25	1262.44	1301.69	1343.06	1269.31	1198.25	1152.44	1180.19	1276.44	1240.25	1189.25	1266.56	1287.25	1280.81	1296.88	1296.06	1207.06	1180.50	1186.75	1212.88	1232.12	1232.12	1245.56	1171.94	1119.00	1082.12	1073.12	1043.25	1031.12	1084.38	1116.06	1109.62	1000.56	956.69	930.50	920.25	922.25	913.19	920.25	912.81	943.19	960.94	966.06	977.62	984.12	989.00	1000.88	1030.38	1062.88	1109.94	1119.56	1049.81	1034.56	1034.50	1021.50	1001.81	994.44	1012.56	1018.56	1040.81	976.88	1022.69	1010.31	996.31	1004.44	1012.31	1038.81	1038.50	1013.38	1049.06	1060.38	1040.31	1027.38	1086.06	1130.06	1137.81	1239.00	1178.88	1073.12	1097.00	1186.06	1248.19	1199.00	1125.19	1134.94	1141.00	1151.62	1105.94	1030.44	994.50	983.81	991.25	1023.38	1101.94	1137.81	1161.44	1217.00	1143.62	1157.69	1154.56	1088.81	1129.69	1162.38	1144.81	1124.88	1087.81	1042.38	1025.44	1033.25	1120.00	1222.81	1237.19	1256.62	1251.81	1366.06	1515.25	1301.75	1211.94	1154.06	1143.62	1166.88	1228.56	1148.94	1035.19	1029.06	1031.94	1074.75	1145.81	1105.12	1188.56	1266.94	1246.50	1264.00	1276.88	1257.88	1280.25	1303.38	1335.94	1250.38	1159.25	1155.56	1155.44	1176.69	1191.00	1255.44	1285.31	1291.94	1371.81	1526.44	1692.62	1806.69	1661.50	1721.12	1758.38	1588.94	1279.31	1537.06	1549.62	1499.69	1531.69	1527.88	1467.38	1436.19	1123.75	1237.56	1171.56	1102.94	1047.75	1010.19	1001.75	1032.44	1087.00	1113.19	1174.25	1122.94	1080.62	1043.69	999.62	933.56	918.62	947.69	1116.69	1017.94	1012.62	849.00	837.31	834.00	841.56	925.12
2318.12	2397.25	2396.56	2301.25	2142.75	1985.94	1987.88	2196.75	2302.44	2155.31	2237.38	2360.38	2388.00	2625.00	2780.81	2627.06	2467.88	2654.00	2346.81	2099.38	1935.94	1839.56	1915.44	1884.88	1753.81	1527.88	1396.19	1374.50	1425.19	1442.75	1401.38	1486.75	1604.69	1623.50	1791.88	1753.12	1672.00	1628.94	1525.94	1508.94	1503.31	1455.12	1432.38	1420.06	1439.44	1465.75	1436.69	1459.88	1433.81	1554.31	1607.62	1610.06	1537.44	1578.06	1469.69	1385.31	1324.62	1301.56	1268.06	1252.50	1235.50	1213.94	1205.38	1268.50	1234.62	1243.50	1195.56	1208.75	1231.00	1253.50	1298.75	1255.19	1264.94	1187.69	1213.31	1279.31	1294.88	1220.12	1273.94	1335.94	1384.12	1322.75	1223.56	1188.50	1196.75	1203.62	1228.00	1263.06	1278.50	1231.44	1154.25	1098.62	1029.88	994.81	970.50	970.25	982.12	956.00	932.69	926.62	925.31	920.56	917.62	909.25	909.12	914.38	930.06	936.88	964.81	971.19	984.25	987.81	1000.25	1012.25	1039.06	1057.31	1071.25	1080.50	1041.75	1033.12	1022.69	1008.19	1011.88	1006.88	1009.81	1006.19	1007.88	989.06	1030.12	1040.75	1019.31	1039.81	1033.69	1045.56	1030.62	1010.81	1051.81	1049.31	1074.31	1045.94	1032.31	1059.12	1085.88	1154.81	1113.38	1145.19	1090.19	1166.00	1204.25	1205.12	1169.69	1188.88	1157.50	1126.88	1165.31	1079.38	1025.38	995.94	985.56	992.00	1058.38	1149.31	1186.56	1221.62	1246.50	1166.75	1128.50	1096.94	1174.94	1191.88	1115.75	1091.44	1063.44	1065.12	1096.75	1043.75	1062.56	1184.19	1264.44	1377.75	1314.31	1386.44	1454.31	1366.56	1292.25	1296.12	1262.25	1199.00	1248.62	1172.75	1077.38	1057.25	1024.19	1053.44	1184.62	1192.31	1146.06	1185.38	1245.69	1373.44	1372.31	1346.94	1366.88	1456.88	1473.94	1332.25	1263.56	1273.25	1188.38	1202.75	1401.94	1544.94	1498.19	1376.00	1408.88	1712.12	1810.25	1811.94	1584.69	1507.50	1531.00	1364.00	1449.06	1601.00	1562.00	1652.00	1659.44	1645.31	1528.44	1214.81	1272.88	1441.25	1355.56	1242.69	1148.81	1092.69	1033.06	1006.19	1015.62	1044.44	1105.94	1115.19	1094.75	1090.31	1074.38	1012.88	990.56	945.06	926.62	908.88	852.62	845.38	861.38	835.56	848.25	940.75
2285.19	2355.25	2168.69	2091.31	1818.19	1974.69	2254.12	2360.94	2292.69	2263.69	2289.88	2404.31	2432.25	2598.50	2722.81	2436.38	2326.31	2555.81	2432.69	2122.62	1938.69	1772.81	1748.38	1672.75	1511.12	1414.56	1393.12	1489.69	1860.00	1656.44	1459.88	1779.00	1874.88	1755.00	1749.44	1697.12	1650.25	1616.62	1558.50	1553.81	1516.94	1464.06	1444.19	1429.75	1463.62	1497.31	1475.19	1494.12	1493.31	1513.94	1635.19	1590.56	1541.44	1696.00	1645.81	1450.38	1365.00	1296.56	1344.75	1268.62	1239.88	1226.19	1217.75	1260.69	1249.12	1247.88	1192.56	1208.00	1231.56	1243.62	1326.56	1349.31	1272.81	1208.38	1176.56	1270.88	1287.88	1313.75	1270.25	1346.94	1339.06	1319.62	1208.75	1208.75	1216.31	1216.31	1237.75	1274.50	1277.62	1209.00	1179.94	1168.38	1007.56	967.31	963.38	949.69	939.31	935.69	932.69	924.25	921.69	913.81	911.25	910.56	911.19	922.06	938.31	951.56	974.50	986.81	993.19	998.62	1012.25	1032.19	1045.75	1047.19	1071.00	1071.81	1045.44	1037.44	1030.88	1023.75	1025.81	1008.62	1012.69	1001.94	993.44	1015.25	1033.38	1030.56	1054.31	1049.69	1043.56	1039.94	1024.06	1015.19	1020.25	1059.81	1075.81	1071.75	1053.69	1038.38	1053.38	1106.38	1090.50	1122.94	1112.44	1136.50	1177.00	1213.19	1208.69	1214.69	1177.25	1172.00	1171.94	1142.25	1039.88	1008.38	987.69	987.50	999.62	1089.44	1164.25	1208.25	1285.75	1211.25	1170.25	1120.88	1189.12	1169.31	1120.62	1126.81	1080.81	1122.25	1146.25	1067.12	1074.44	1150.19	1268.56	1367.62	1393.81	1460.94	1327.12	1410.19	1232.56	1344.56	1315.19	1208.50	1197.44	1116.31	1074.19	1100.94	1027.12	1035.69	1140.44	1206.62	1245.88	1312.75	1221.06	1365.44	1475.31	1451.25	1510.12	1596.25	1561.50	1321.50	1325.25	1420.50	1298.06	1226.44	1404.25	1609.94	1795.56	1587.12	1374.62	1503.75	1747.38	1824.38	1682.38	1661.38	1537.50	1537.19	1655.12	1643.88	1601.19	1598.50	1577.94	1500.00	1351.50	1147.69	1376.69	1525.56	1434.62	1268.00	1194.25	1173.88	1121.31	1053.31	1019.69	1011.94	1021.88	1070.75	1071.75	1048.31	1085.94	1069.25	1043.50	1072.50	921.38	857.81	863.00	903.38	898.25	841.38	852.50	1008.75
1766.38	1830.62	1902.38	1728.50	1834.69	1974.44	2034.50	2252.81	2404.75	2371.81	2417.56	2490.06	2554.25	2460.94	2449.38	2425.31	2168.31	2149.94	2291.31	1913.44	1773.81	1626.00	1532.94	1478.56	1433.06	1424.88	1514.12	1950.50	2135.00	1803.56	1469.81	1861.50	2019.25	2075.12	1926.75	1748.50	1842.06	1706.19	1606.38	1592.81	1562.19	1488.38	1464.38	1477.38	1524.50	1584.94	1623.00	1619.69	1655.94	1577.88	1691.12	1564.81	1478.31	1552.31	1614.44	1440.94	1354.88	1307.94	1288.75	1257.94	1240.94	1230.75	1238.12	1308.00	1404.12	1266.19	1205.88	1258.31	1258.12	1257.81	1370.94	1452.75	1366.31	1261.94	1184.81	1216.31	1233.06	1270.62	1246.25	1252.31	1254.00	1309.00	1288.44	1300.50	1246.50	1246.75	1250.50	1266.56	1221.56	1136.12	1192.62	1131.81	977.06	962.25	957.06	956.94	943.06	941.12	935.25	925.62	918.75	915.19	913.06	912.62	918.31	925.31	932.25	958.62	983.75	998.75	1009.00	1022.88	1038.81	1056.81	1063.06	1067.88	1072.25	1163.62	1168.06	1092.88	1039.25	1037.19	1022.19	1018.12	1013.62	1011.94	1018.12	1044.31	1051.75	1043.44	1119.19	1050.00	1042.06	1047.44	1026.44	1047.94	1026.88	1035.00	1084.50	1097.44	1131.94	1100.38	1058.31	1082.12	1105.44	1138.00	1137.81	1213.88	1111.62	1129.25	1126.81	1157.44	1159.06	1145.25	1166.00	1117.12	1079.06	1059.69	1008.25	992.31	994.81	1020.25	1097.31	1161.06	1207.56	1200.44	1158.81	1122.56	1178.38	1169.38	1109.88	1092.50	1064.81	1100.00	1172.69	1095.81	1079.06	1117.94	1195.00	1268.56	1372.12	1397.94	1329.88	1316.00	1362.00	1223.94	1274.06	1232.75	1105.56	1066.69	1109.94	1152.44	1042.12	1038.19	1125.44	1188.94	1325.81	1424.00	1296.50	1307.62	1554.31	1596.56	1767.62	1792.12	1567.00	1320.25	1457.25	1588.94	1399.94	1240.75	1382.88	1584.62	1789.88	1826.44	1618.81	1432.81	1500.62	1649.75	1675.56	1681.75	1645.62	1610.75	1732.44	1759.25	1611.06	1545.69	1466.56	1404.75	1222.19	1388.94	1570.06	1465.00	1387.50	1218.25	1213.50	1157.12	1158.00	1174.06	1112.31	1066.75	1033.06	1011.81	1025.75	1061.62	1005.44	987.06	976.38	935.75	865.94	886.25	947.25	1017.88	911.12	861.31	879.12	976.69
1574.06	1598.62	1589.75	1726.06	2043.62	2128.81	2230.00	2147.56	2351.38	2516.38	2550.06	2543.56	2556.56	2360.06	2170.06	2233.81	2213.31	1940.00	1804.19	1616.06	1533.50	1500.12	1491.19	1463.00	1434.50	1456.44	1697.94	2006.44	2131.12	1816.19	1500.12	1838.75	2226.56	2207.81	2017.19	1870.88	1711.75	1748.25	1710.88	1633.00	1593.06	1503.25	1474.94	1528.38	1582.12	1688.88	1737.50	1668.50	1621.75	1621.50	1601.69	1568.62	1446.25	1415.19	1459.88	1373.06	1318.81	1314.06	1274.00	1255.69	1244.00	1243.31	1244.00	1329.38	1355.50	1202.50	1239.00	1313.69	1306.44	1275.94	1315.50	1404.19	1434.62	1279.50	1251.38	1177.88	1224.50	1205.50	1282.50	1220.31	1207.56	1333.12	1370.75	1346.06	1273.00	1259.88	1263.25	1228.25	1147.75	1047.25	1075.56	1023.69	977.31	952.81	946.25	952.50	939.81	930.94	933.81	939.69	932.19	935.56	921.00	923.69	927.06	938.19	953.19	975.12	1004.31	1013.44	1026.06	1037.06	1041.56	1072.19	1077.81	1088.12	1098.12	1344.88	1390.06	1132.19	1052.69	1027.62	1017.00	1009.81	1007.06	1012.31	1027.62	1065.56	1066.88	1092.25	1152.62	1065.62	1045.44	1071.31	1068.75	1082.12	1044.75	1052.88	1056.25	1087.62	1138.38	1125.62	1104.62	1110.50	1098.69	1156.69	1206.06	1267.19	1142.19	1196.00	1197.12	1224.94	1273.38	1213.06	1164.25	1144.56	1177.06	1155.19	1031.94	1011.62	998.75	1007.19	1057.81	1109.81	1147.00	1179.44	1155.25	1134.62	1187.81	1190.62	1158.75	1133.31	1075.69	1090.44	1164.88	1165.38	1099.81	1098.50	1152.19	1257.06	1370.38	1417.19	1304.88	1231.88	1387.00	1302.06	1196.38	1200.31	1090.38	1082.06	1162.50	1163.38	1079.88	1042.69	1057.75	1185.38	1299.00	1395.94	1333.94	1288.31	1386.38	1584.00	1900.94	1827.25	1541.38	1343.19	1533.00	1652.88	1468.62	1307.31	1316.00	1483.12	1628.31	1841.19	1805.12	1668.62	1454.50	1585.75	1618.06	1644.75	1608.12	1597.44	1647.81	1610.31	1598.19	1391.88	1319.94	1238.50	1426.50	1499.62	1630.81	1568.44	1379.50	1204.69	1192.19	1115.81	1164.50	1152.12	1143.50	1137.81	1051.25	996.25	976.31	980.44	1024.69	983.44	916.44	879.38	882.69	954.88	1056.44	1109.19	935.56	870.12	895.06	966.88
1953.06	2076.38	1841.75	1729.31	1866.31	1940.25	2032.06	2285.06	2282.44	2403.06	2596.81	2437.25	2165.00	2201.81	2032.81	1870.75	1729.50	1640.44	1624.00	1630.00	1565.75	1547.62	1502.56	1468.12	1433.88	1550.44	2073.44	2200.12	2091.44	1914.25	1584.81	1732.56	2159.44	2260.81	2012.88	1785.38	1766.88	1954.00	1770.88	1619.56	1555.38	1511.81	1493.12	1545.69	1619.62	1650.06	1626.75	1584.88	1552.62	1550.12	1545.38	1441.44	1393.81	1394.50	1500.94	1411.31	1326.25	1328.44	1274.31	1259.44	1260.88	1261.88	1266.06	1293.19	1222.19	1223.06	1280.38	1369.44	1388.56	1317.94	1332.38	1376.69	1320.12	1328.62	1287.25	1208.12	1196.00	1202.56	1260.19	1202.62	1215.44	1292.31	1313.94	1325.69	1277.69	1264.75	1239.88	1158.00	1057.62	976.94	974.38	959.56	950.06	941.19	953.00	954.50	941.25	935.75	942.19	955.06	938.12	948.31	950.94	961.62	963.88	983.62	996.31	1064.88	1076.44	1031.06	1046.81	1062.44	1072.25	1090.19	1093.81	1103.50	1112.50	1258.81	1389.50	1125.06	1057.50	1023.56	1012.25	1008.69	1002.19	1003.69	1058.00	1081.94	1083.56	1188.06	1150.56	1062.25	1078.50	1078.31	1061.88	1058.94	1063.94	1110.19	1080.50	1058.69	1086.81	1158.69	1148.31	1184.50	1182.62	1162.31	1215.56	1289.88	1242.94	1221.44	1314.31	1294.94	1226.31	1244.06	1231.69	1223.81	1170.81	1095.31	1021.38	1039.81	1036.44	1009.31	1043.69	1067.88	1124.00	1187.31	1171.88	1196.81	1214.44	1200.44	1197.12	1151.50	1090.94	1109.56	1202.12	1191.19	1195.25	1107.75	1162.06	1250.31	1353.44	1435.25	1416.81	1297.38	1191.56	1251.06	1186.62	1110.81	1119.75	1119.00	1177.00	1222.00	1149.06	1034.81	1055.12	1230.69	1364.50	1390.31	1285.38	1300.69	1313.69	1468.62	1767.56	1757.81	1537.75	1364.75	1502.38	1708.75	1632.94	1441.06	1272.69	1519.44	1703.50	1809.44	1875.38	1863.31	1609.50	1728.94	1826.12	1785.44	1580.38	1504.88	1445.31	1550.75	1534.56	1528.38	1434.00	1401.69	1527.62	1603.31	1446.38	1522.19	1334.50	1235.75	1099.56	1092.31	1111.94	1142.94	1150.12	1110.88	1100.62	1020.25	952.06	936.75	920.81	912.88	901.31	948.44	936.69	1107.56	1145.38	1093.94	953.06	873.88	886.00	947.44
1741.00	1863.06	1864.31	1820.44	1815.69	2049.12	2084.44	2033.94	2376.38	2574.56	2462.31	2199.56	1980.69	1945.94	1832.62	1803.06	2003.62	1691.75	1927.19	2075.12	1806.88	1666.50	1557.44	1502.62	1461.25	1633.94	2059.69	2136.19	1927.75	1837.00	1802.75	1664.62	2111.56	2305.06	1955.94	1894.38	1880.94	1833.69	1687.50	1599.50	1547.88	1512.00	1509.88	1607.75	1833.94	1705.44	1622.44	1536.88	1492.69	1472.44	1433.81	1422.62	1392.12	1369.94	1423.94	1348.12	1308.56	1290.38	1273.62	1270.69	1271.62	1287.31	1279.88	1255.94	1241.81	1266.31	1363.38	1452.38	1415.62	1347.38	1418.62	1621.25	1566.31	1448.81	1323.69	1282.44	1192.38	1186.44	1205.12	1208.44	1228.94	1259.31	1269.50	1298.56	1296.25	1253.00	1191.62	1109.00	1034.12	968.50	960.44	947.81	942.94	941.38	954.19	959.31	959.75	951.25	962.81	976.06	970.12	967.88	986.12	1007.94	1012.56	1067.06	1071.75	1180.62	1233.00	1062.81	1069.19	1082.94	1106.00	1112.69	1117.94	1126.31	1094.12	1098.25	1197.75	1125.44	1048.81	1022.50	1022.06	1004.94	1003.50	1010.50	1064.44	1113.69	1107.75	1175.69	1150.88	1132.75	1093.44	1051.50	1032.00	1033.50	1051.88	1114.25	1126.12	1061.19	1087.81	1198.94	1226.81	1241.25	1281.50	1249.38	1200.44	1298.06	1297.31	1293.56	1363.50	1289.50	1224.06	1179.69	1187.12	1250.31	1174.44	1080.94	1029.31	1082.25	1110.25	1020.38	1061.81	1092.75	1122.88	1181.81	1205.25	1225.50	1231.50	1177.94	1133.25	1107.38	1123.19	1124.81	1207.94	1257.50	1184.44	1161.44	1116.25	1218.94	1351.88	1335.69	1349.69	1382.81	1280.56	1152.19	1138.88	1180.00	1235.19	1161.94	1161.44	1286.06	1182.94	1037.00	1046.25	1145.06	1267.12	1247.25	1205.38	1248.88	1310.56	1378.94	1643.56	1843.75	1715.94	1498.31	1394.88	1566.62	1592.25	1422.75	1270.75	1525.19	1684.69	1812.31	1756.69	1829.19	1723.44	1684.94	1830.50	1849.06	1726.81	1614.75	1465.38	1381.19	1530.50	1628.44	1480.75	1517.19	1667.19	1624.75	1483.12	1374.38	1416.50	1196.31	1144.06	1053.50	1055.25	1035.88	1024.62	1055.75	1065.25	1000.00	948.94	938.50	926.31	916.88	979.00	1066.50	976.06	1135.56	1145.19	1066.88	973.12	885.75	867.44	909.50
1904.75	1803.06	2004.69	2018.31	1846.25	1913.12	2121.06	2153.00	2273.81	2523.50	2402.81	2120.69	2225.19	2331.88	1931.38	2057.12	2110.00	1707.44	2109.44	2042.44	1836.31	1707.19	1586.25	1508.81	1480.44	1741.19	2105.06	1996.00	1990.69	1989.75	1992.69	1679.75	2076.38	2124.81	2007.88	2079.00	1806.62	1675.69	1639.62	1634.62	1552.38	1515.75	1532.69	1626.31	1798.12	1729.00	1799.50	1646.44	1534.44	1518.00	1517.38	1490.12	1425.88	1369.06	1347.94	1329.88	1312.31	1295.31	1278.00	1266.19	1283.06	1339.75	1283.38	1260.00	1262.44	1334.50	1585.06	1746.44	1529.50	1415.25	1466.81	1454.62	1693.69	1651.94	1406.25	1279.19	1200.94	1185.94	1190.88	1208.75	1241.81	1272.38	1269.69	1284.12	1297.69	1267.81	1156.00	1164.88	1038.25	964.88	947.06	940.62	941.50	946.88	957.62	971.19	965.62	955.50	970.81	982.56	982.75	1022.81	1048.50	1038.62	1080.38	1172.12	1148.25	1175.50	1233.81	1102.00	1092.19	1115.62	1130.06	1133.88	1120.12	1117.19	1091.75	1083.00	1067.06	1065.12	1034.12	1039.88	1076.81	1009.12	1004.56	1014.00	1059.44	1102.88	1130.94	1167.50	1226.69	1196.75	1127.94	1058.56	1032.00	1032.00	1037.19	1089.25	1130.50	1091.94	1088.75	1206.56	1305.06	1276.50	1443.75	1388.44	1283.50	1256.38	1325.56	1246.38	1255.81	1245.75	1211.56	1184.06	1173.69	1194.62	1152.81	1046.06	1037.75	1086.50	1082.94	1031.06	1064.31	1090.44	1194.81	1215.81	1198.25	1216.38	1230.62	1190.94	1137.38	1120.44	1187.62	1120.50	1203.75	1298.69	1236.00	1227.00	1145.50	1139.56	1283.88	1359.69	1294.06	1288.88	1270.75	1153.19	1244.44	1301.81	1323.94	1294.38	1180.31	1225.56	1190.31	1050.19	1049.12	1088.94	1170.62	1171.75	1196.88	1231.31	1300.50	1404.50	1550.50	1735.94	1697.75	1557.19	1415.31	1409.88	1479.88	1434.88	1307.94	1347.56	1504.75	1678.94	1621.38	1778.44	1723.06	1721.44	1859.94	1918.69	1940.44	1794.62	1636.25	1387.19	1405.12	1488.50	1574.12	1563.69	1492.50	1464.88	1574.88	1268.25	1392.56	1212.75	1164.50	1047.69	1015.12	1003.06	975.94	973.94	965.12	965.31	938.56	933.25	932.19	968.94	1009.88	1096.12	1002.31	1147.88	1056.75	1043.69	958.44	871.69	860.69	889.62
1847.38	1862.56	1932.44	2100.62	2151.25	1950.50	1988.25	2232.75	2351.88	2506.62	2310.38	2344.06	2485.56	2262.62	1939.06	2066.19	1939.69	1704.50	2110.06	2033.81	2239.69	1919.38	1649.38	1525.00	1503.19	1682.25	2092.00	2140.62	2081.81	2027.69	1972.31	1670.31	1957.75	2142.81	2029.00	1836.81	1745.56	1732.19	1797.94	1790.62	1570.38	1532.25	1573.69	1753.69	1708.38	1927.19	1892.19	1717.81	1572.81	1521.19	1530.88	1454.38	1438.19	1389.81	1350.12	1327.31	1314.44	1298.06	1286.00	1307.75	1355.62	1362.06	1305.88	1265.25	1302.38	1482.19	1852.50	1931.00	1615.19	1552.12	1753.75	1504.12	1512.75	1657.62	1463.62	1249.38	1203.44	1191.62	1202.69	1220.12	1244.62	1263.94	1259.44	1229.25	1184.50	1085.38	1042.44	1054.00	976.25	938.00	938.00	938.06	947.88	947.38	1007.44	976.31	975.06	971.19	986.19	999.38	1009.25	1126.94	1102.31	1119.06	1158.38	1166.56	1188.38	1205.12	1239.88	1157.38	1154.62	1153.19	1155.19	1134.31	1117.69	1102.25	1082.38	1099.38	1164.75	1126.94	1040.50	1085.81	1063.88	1030.19	1021.25	1025.00	1059.31	1076.81	1104.50	1177.75	1232.94	1212.88	1201.81	1083.19	1032.00	1032.00	1059.69	1077.50	1085.12	1135.75	1173.31	1148.31	1250.12	1384.00	1419.31	1342.56	1282.56	1211.50	1221.12	1259.75	1181.69	1164.25	1166.50	1171.94	1158.00	1131.00	1080.56	1058.62	1067.81	1151.50	1061.69	1016.75	1022.00	1030.12	1054.44	1132.56	1138.31	1156.19	1201.31	1197.31	1160.50	1134.69	1191.88	1144.81	1262.69	1314.06	1295.94	1247.06	1175.31	1126.81	1209.75	1340.44	1391.38	1253.94	1170.81	1200.81	1334.25	1453.75	1406.94	1369.25	1228.12	1244.81	1223.69	1056.62	1059.00	1083.94	1090.38	1109.88	1175.12	1264.94	1324.25	1383.12	1475.88	1524.12	1508.25	1455.88	1506.38	1457.56	1552.19	1654.31	1450.81	1398.25	1335.56	1382.25	1497.38	1616.25	1590.88	1717.25	1912.88	1970.94	1993.31	1937.06	1725.56	1472.00	1335.38	1359.94	1496.31	1552.44	1470.81	1310.44	1250.69	1167.31	1151.50	1108.75	1088.94	1091.38	1142.88	1113.19	1001.19	976.44	1018.00	995.31	1022.06	993.19	1027.06	1058.31	1069.31	1093.69	1043.62	1079.88	1077.88	1016.94	905.88	860.38	856.50	869.06
1912.00	2026.81	2000.88	2177.06	2271.25	2077.94	2043.56	2134.38	2474.81	2454.88	2449.19	2453.88	2476.44	2250.38	1928.38	2050.12	1873.00	1787.12	2080.62	2168.50	2372.25	1966.00	1749.62	1535.88	1505.00	1593.56	2123.38	2216.62	2150.19	1985.00	1970.81	1670.94	1857.94	1932.19	1821.56	1825.56	1816.44	1836.62	1893.94	1794.75	1593.88	1549.56	1595.12	1753.38	1718.12	1797.94	1756.75	1610.81	1610.06	1523.38	1527.94	1498.06	1481.06	1390.88	1346.75	1328.88	1319.38	1301.94	1294.44	1352.62	1429.25	1376.94	1323.38	1286.69	1331.31	1552.69	1926.31	1834.56	1611.69	1656.94	1767.00	1609.00	1556.12	1493.38	1418.56	1248.62	1212.56	1207.12	1210.06	1227.25	1260.62	1258.69	1225.69	1181.75	1103.06	1016.75	970.88	942.31	935.94	938.81	939.25	941.06	953.06	951.75	1001.25	976.19	981.94	991.56	1004.50	1016.19	1041.94	1119.81	1124.94	1154.81	1177.56	1227.88	1327.25	1278.81	1262.50	1190.44	1178.81	1168.75	1137.75	1120.00	1102.06	1082.38	1075.50	1081.19	1103.00	1107.69	1069.75	1106.06	1067.06	1042.75	1024.50	1036.19	1094.19	1101.00	1105.00	1150.00	1212.00	1250.56	1184.81	1077.31	1032.00	1032.00	1080.75	1073.25	1083.12	1116.88	1253.88	1189.25	1165.38	1271.12	1299.06	1311.00	1341.88	1247.56	1183.75	1188.31	1195.31	1154.81	1133.50	1131.25	1125.94	1112.81	1085.69	1066.25	1120.75	1191.81	1076.94	1029.19	1009.50	1013.88	1024.19	1033.94	1062.94	1128.00	1191.25	1210.75	1192.81	1174.06	1167.69	1136.06	1262.12	1319.44	1217.25	1202.88	1162.81	1117.88	1203.38	1304.56	1308.56	1302.81	1193.62	1225.56	1354.69	1520.19	1472.56	1314.75	1302.69	1206.44	1165.75	1055.81	1107.44	1174.38	1133.94	1105.56	1155.00	1310.44	1356.69	1413.12	1611.62	1717.19	1526.69	1556.69	1609.56	1491.31	1543.69	1655.25	1497.12	1553.44	1464.62	1350.94	1404.25	1500.62	1659.62	1784.75	1842.00	1810.12	1921.25	1818.38	1716.94	1518.31	1346.62	1339.69	1536.44	1514.44	1388.50	1335.38	1268.75	1199.00	1304.25	1199.69	1181.38	1209.12	1166.50	1066.50	1027.38	1024.50	1096.12	1048.19	1071.00	1030.94	1041.69	1060.44	1096.62	1032.31	1041.88	1080.00	1047.75	992.06	900.19	855.19	841.44	854.62
2036.56	2141.25	2115.12	2289.38	2287.69	2247.62	2170.38	1977.06	2217.62	2205.94	2450.56	2545.19	2403.94	2106.75	2107.56	2057.12	1806.50	2087.81	2007.38	2242.44	2361.56	2196.56	1883.56	1571.88	1519.31	1530.00	1958.50	2209.44	2072.56	1886.69	1833.88	1676.12	1738.62	1861.25	2096.19	2046.44	1924.81	2023.50	1925.00	1805.94	1612.56	1559.25	1609.69	1704.19	1807.69	1860.44	1893.94	1637.38	1542.75	1606.25	1531.88	1600.06	1483.88	1374.50	1352.25	1347.50	1319.69	1306.25	1371.50	1410.75	1402.56	1390.88	1323.00	1316.31	1335.00	1587.50	1955.38	1864.31	1746.88	1656.38	1818.00	1796.38	1634.25	1396.44	1279.12	1248.00	1208.75	1199.06	1212.56	1236.56	1260.31	1240.38	1174.44	1095.75	1062.00	990.00	957.56	938.56	940.69	944.25	941.19	947.44	955.38	957.56	1024.12	980.25	999.56	1008.56	1042.12	1041.50	1079.56	1168.00	1193.00	1262.81	1269.25	1466.75	1549.25	1456.44	1399.56	1250.56	1156.12	1153.88	1122.69	1102.50	1092.31	1077.12	1069.25	1065.06	1084.00	1096.12	1127.62	1099.69	1078.31	1065.81	1034.25	1048.62	1175.88	1170.81	1117.31	1135.62	1199.75	1241.94	1188.88	1078.25	1032.00	1032.00	1064.81	1130.62	1122.62	1109.00	1207.19	1269.75	1187.12	1159.25	1179.56	1193.12	1260.19	1297.88	1240.25	1179.44	1143.31	1136.12	1118.94	1116.19	1120.81	1116.88	1081.31	1084.62	1107.88	1126.88	1155.06	1076.50	1014.06	1011.88	1011.06	1014.44	1030.62	1078.12	1168.69	1214.75	1243.94	1283.06	1221.75	1167.56	1170.19	1248.25	1260.44	1320.62	1205.00	1117.62	1212.12	1362.31	1350.19	1339.75	1246.81	1211.06	1319.81	1535.19	1528.56	1364.81	1329.50	1251.62	1174.75	1054.81	1211.25	1289.75	1235.50	1168.31	1123.88	1223.75	1310.06	1456.31	1746.75	1821.56	1582.88	1635.81	1725.12	1577.75	1518.81	1625.69	1508.69	1593.06	1483.50	1374.06	1416.81	1543.12	1743.62	1939.19	1781.38	1681.88	1859.25	1822.94	1689.19	1472.75	1353.38	1284.56	1470.69	1524.94	1509.31	1356.06	1433.88	1282.00	1338.44	1251.50	1293.25	1201.69	1093.88	1062.38	1107.12	1086.81	1112.38	1100.44	1160.88	1075.44	1099.25	1085.25	1047.62	1002.94	989.62	990.06	1040.19	942.31	866.12	841.56	831.62	831.62
1943.69	1926.06	1981.00	2213.69	2350.94	2374.50	2006.25	1781.69	2096.81	2227.50	2314.56	2503.19	2273.12	2238.62	2331.88	2023.94	2006.75	2309.69	2120.94	2219.75	2433.94	2135.38	1972.88	1616.06	1545.12	1554.19	1756.00	2174.56	2102.50	1912.06	1849.75	1720.50	1811.38	1992.75	2270.56	2323.19	2020.12	2228.81	2138.38	1950.12	1636.00	1564.94	1711.62	1833.25	1787.88	1920.50	1760.62	1583.75	1580.75	1539.94	1514.44	1467.44	1416.94	1379.06	1367.44	1358.94	1326.38	1341.94	1567.69	1503.69	1465.12	1344.38	1364.31	1337.69	1331.62	1443.81	1710.19	1691.19	1795.38	1786.69	1774.69	1662.81	1433.00	1296.50	1251.00	1222.94	1197.81	1195.50	1213.75	1241.56	1273.19	1212.38	1111.44	1030.19	980.88	955.88	951.12	944.75	956.00	958.12	959.38	971.94	970.56	993.69	1002.38	1037.75	1058.62	1044.38	1160.75	1225.88	1116.19	1301.81	1255.75	1371.75	1352.12	1477.06	1451.62	1339.44	1282.25	1220.12	1245.25	1181.38	1140.50	1104.31	1097.25	1079.19	1070.06	1057.25	1150.06	1250.38	1180.19	1108.75	1171.19	1135.62	1052.81	1049.69	1108.38	1175.62	1169.62	1128.44	1244.19	1245.56	1178.62	1070.50	1032.00	1032.00	1045.25	1176.19	1161.94	1124.62	1170.50	1251.56	1330.06	1322.19	1264.06	1285.94	1171.56	1266.44	1332.06	1324.31	1181.19	1126.19	1114.25	1123.94	1177.81	1126.38	1097.81	1139.25	1197.44	1127.06	1144.50	1090.94	1058.25	1014.31	1011.00	1012.19	1022.81	1034.81	1150.69	1211.56	1262.56	1260.31	1226.94	1231.75	1166.94	1273.81	1363.12	1450.19	1286.94	1143.00	1139.94	1325.38	1461.62	1415.94	1343.38	1200.19	1348.00	1425.06	1526.44	1406.75	1309.50	1242.88	1144.69	1062.69	1318.88	1310.56	1295.06	1281.50	1147.19	1222.00	1418.00	1505.75	1802.62	1894.94	1635.19	1644.88	1815.56	1685.38	1553.44	1654.00	1529.88	1594.94	1492.50	1363.25	1549.19	1621.38	1732.38	1880.69	1735.25	1581.06	1827.81	1666.38	1646.44	1586.12	1421.19	1266.62	1266.19	1486.94	1699.50	1639.25	1477.75	1356.44	1319.62	1299.81	1217.00	1147.88	1103.75	1205.25	1168.25	1134.19	1149.25	1136.94	1230.38	1127.31	1080.56	1026.38	1000.94	1007.31	997.06	958.31	916.19	877.31	843.38	829.62	821.00	817.56
1831.88	1912.44	1928.75	2015.62	2255.12	2256.62	2043.94	1749.31	2077.62	2285.56	2304.25	2374.44	2433.12	2362.88	2266.56	1986.75	2154.38	2454.25	2286.19	2304.88	2345.69	2201.50	1951.12	1634.12	1563.38	1580.62	1649.88	2066.38	2212.88	2039.44	1998.00	1723.75	1808.56	2197.56	2101.12	2444.94	2144.81	2366.56	2363.25	2095.88	1672.75	1578.94	1679.69	1920.44	1871.19	1875.75	1652.44	1615.62	1669.19	1564.94	1534.31	1471.88	1413.94	1385.75	1370.19	1349.50	1330.88	1464.44	1565.56	1454.75	1481.69	1366.31	1446.19	1374.56	1345.88	1391.56	1470.38	1591.50	1881.31	1934.94	1775.25	1586.94	1360.25	1284.38	1247.12	1223.19	1201.69	1203.88	1213.06	1238.06	1286.12	1200.25	1063.19	1040.75	972.44	963.06	947.38	953.00	957.94	953.75	974.44	1003.75	1085.06	1177.12	1195.69	1327.06	1290.50	1107.88	1335.00	1460.12	1210.62	1217.19	1323.00	1332.88	1423.44	1401.62	1283.00	1298.81	1358.94	1416.50	1288.81	1176.50	1137.25	1119.56	1100.00	1082.69	1077.19	1061.62	1120.00	1186.25	1132.06	1136.88	1218.50	1165.75	1075.38	1043.38	1073.62	1145.56	1188.62	1159.31	1244.00	1249.31	1163.06	1059.19	1032.00	1032.00	1036.94	1180.00	1194.44	1119.31	1134.81	1281.62	1338.50	1442.81	1426.25	1388.25	1292.50	1163.88	1201.56	1171.62	1129.06	1115.94	1123.75	1153.75	1201.88	1121.75	1119.38	1203.75	1242.31	1190.38	1160.88	1165.50	1106.44	1030.19	1018.38	1011.75	1014.75	1021.31	1086.44	1174.00	1265.50	1242.38	1176.81	1179.12	1169.31	1334.19	1382.12	1382.38	1361.38	1228.81	1133.88	1264.69	1434.62	1413.06	1347.94	1211.44	1286.56	1339.25	1407.94	1465.25	1323.19	1258.88	1112.69	1066.62	1395.19	1352.38	1341.12	1330.62	1207.31	1179.00	1422.81	1503.75	1753.00	1887.12	1637.62	1696.31	1852.75	1727.12	1605.00	1643.81	1499.25	1511.06	1404.75	1341.50	1510.31	1606.50	1702.88	1776.62	1732.75	1505.06	1826.12	1690.81	1840.31	1551.12	1404.06	1261.88	1188.62	1405.38	1586.06	1658.31	1649.94	1508.69	1341.69	1256.31	1191.44	1114.00	1198.81	1349.50	1242.88	1168.56	1237.62	1205.38	1272.12	1138.31	1037.69	1087.94	1048.25	1101.88	1051.12	1031.00	935.44	868.56	840.94	828.50	822.94	820.25
2031.56	2103.44	2158.56	2270.06	2178.12	2279.00	2210.88	1761.31	1911.38	2024.00	2086.69	2240.81	2249.56	2129.31	1955.44	2146.69	2316.25	2487.06	2254.88	2265.94	2220.25	2009.94	1871.81	1607.31	1669.69	1683.31	1672.12	1771.25	1998.88	2295.31	2115.94	1831.75	1813.31	2213.31	2285.19	2288.81	2389.75	2276.75	2116.19	2090.25	1775.12	1618.81	1648.44	1905.31	1965.19	1740.75	1620.25	1620.19	1707.38	1604.75	1458.69	1429.19	1415.75	1386.25	1367.75	1348.44	1361.94	1487.19	1447.38	1573.44	1544.25	1432.81	1576.81	1454.12	1413.69	1388.94	1416.19	1526.00	1663.06	1737.00	1785.75	1457.81	1316.06	1255.06	1239.06	1221.62	1221.12	1220.12	1234.06	1250.38	1264.25	1193.75	1070.69	987.44	967.12	958.94	947.50	960.31	956.94	958.50	1027.50	1083.94	1197.19	1385.12	1419.62	1525.00	1353.94	1134.88	1347.06	1447.00	1313.12	1214.69	1381.38	1343.50	1394.00	1412.62	1428.00	1436.31	1452.62	1367.06	1180.25	1177.75	1164.31	1137.81	1085.31	1085.56	1071.75	1060.12	1091.44	1186.38	1211.50	1178.56	1274.69	1217.50	1084.56	1046.88	1058.44	1086.25	1161.75	1217.38	1239.75	1232.56	1151.50	1060.62	1032.00	1032.00	1035.69	1087.44	1154.25	1158.56	1160.94	1260.88	1487.19	1518.56	1420.44	1352.12	1288.62	1177.88	1161.50	1158.25	1133.75	1127.94	1134.62	1167.00	1198.31	1107.38	1112.38	1212.88	1268.31	1245.31	1210.31	1140.62	1078.12	1081.69	1025.62	1016.00	1015.88	1015.75	1037.81	1129.62	1255.56	1220.06	1177.12	1170.19	1187.06	1254.44	1371.56	1305.62	1233.69	1173.38	1148.31	1243.81	1364.56	1452.38	1368.69	1222.88	1342.25	1455.19	1430.44	1342.25	1360.31	1325.44	1102.38	1062.00	1182.38	1296.44	1374.69	1371.00	1228.81	1162.62	1240.31	1421.56	1738.31	1761.88	1611.81	1706.06	1766.19	1774.44	1678.50	1684.06	1560.62	1444.56	1386.56	1315.94	1412.12	1539.44	1696.88	1813.62	1553.81	1484.94	1765.25	1629.62	1728.31	1735.19	1563.06	1357.56	1168.81	1201.31	1354.12	1463.19	1460.88	1538.69	1417.75	1342.25	1281.56	1175.00	1189.31	1295.31	1333.88	1193.25	1224.12	1138.12	1220.75	1158.19	1095.38	1138.62	1106.62	1098.44	990.81	982.75	903.31	840.00	825.88	821.56	820.56	848.88
1899.31	1952.44	2096.81	2341.31	2325.75	1987.00	1908.81	1672.62	1902.75	2066.69	2153.69	2201.38	2060.31	1938.88	2176.00	2193.81	2502.88	2460.00	2150.88	2176.38	2256.00	2010.19	1823.12	1648.12	2015.81	1953.06	1760.88	2047.81	1862.00	2262.12	2074.50	1976.81	1819.44	1948.75	2315.94	2406.31	2559.56	2247.81	2015.31	1938.19	1820.88	1642.69	1644.06	1790.12	1885.00	1725.38	1667.19	1694.56	1606.19	1481.56	1448.69	1476.31	1447.31	1379.25	1358.06	1343.75	1458.62	1483.38	1484.75	1552.88	1544.31	1490.81	1696.81	1575.75	1462.06	1417.44	1402.81	1572.75	1705.38	1722.06	1663.50	1400.44	1289.00	1243.56	1230.56	1230.25	1237.75	1229.38	1248.62	1272.19	1280.50	1270.25	1093.75	979.56	975.44	957.94	947.69	960.19	963.62	969.12	1114.38	1229.69	1297.06	1383.44	1506.19	1421.00	1293.81	1138.62	1291.44	1533.69	1317.00	1237.50	1341.44	1490.12	1497.75	1561.00	1450.88	1425.81	1325.44	1221.25	1187.31	1263.25	1199.38	1163.81	1096.31	1073.88	1067.06	1062.12	1110.00	1219.75	1247.06	1252.31	1277.06	1187.50	1095.62	1070.94	1053.38	1082.00	1189.75	1261.25	1264.56	1247.25	1173.00	1078.44	1034.06	1032.00	1033.38	1049.56	1144.62	1300.94	1209.06	1209.81	1385.88	1554.38	1368.88	1376.12	1272.31	1236.69	1231.81	1207.69	1149.25	1129.19	1141.00	1173.19	1192.19	1111.75	1109.38	1160.12	1201.38	1207.31	1176.44	1123.75	1105.19	1080.31	1024.62	1018.00	1017.88	1016.31	1026.06	1083.12	1229.06	1216.75	1180.62	1186.88	1187.88	1259.12	1387.06	1331.50	1311.81	1143.31	1162.88	1222.38	1300.94	1338.12	1432.31	1242.38	1395.00	1402.44	1505.25	1389.94	1267.25	1230.19	1116.50	1067.31	1165.88	1279.31	1299.81	1374.19	1241.50	1178.19	1184.69	1291.75	1570.25	1483.69	1648.81	1772.38	1690.00	1684.19	1725.25	1715.50	1615.19	1540.56	1409.12	1308.81	1370.62	1490.12	1566.50	1667.00	1433.00	1557.38	1828.38	1649.56	1641.19	1842.62	1722.31	1520.88	1261.56	1137.56	1176.81	1249.81	1315.25	1417.56	1316.50	1354.31	1275.00	1210.81	1159.56	1278.44	1321.50	1156.50	1157.94	1117.50	1103.31	1143.56	1121.44	1114.56	1072.12	1076.44	1034.31	930.19	877.00	831.69	819.31	824.25	820.69	855.38
2017.50	2098.50	2051.88	2076.94	2274.06	2129.25	1986.56	1568.50	1832.38	2024.25	2256.75	1943.19	1775.00	1899.81	2107.44	2334.62	2477.69	2467.00	2047.62	2045.12	2231.06	2065.06	1773.94	1696.75	2147.81	2085.44	1793.31	2253.75	2003.00	2180.25	2253.56	2099.12	2017.69	1881.00	2076.69	2449.44	2448.31	2280.44	2109.69	1962.88	1811.56	1682.50	1692.25	1991.12	1864.31	1700.69	1672.75	1738.44	1535.75	1482.00	1532.44	1581.06	1462.50	1388.31	1366.88	1354.62	1442.25	1483.12	1522.94	1655.12	1663.44	1585.69	1786.00	1702.44	1579.25	1460.75	1431.75	1458.00	1601.94	1697.69	1489.50	1353.19	1270.81	1236.44	1211.88	1259.19	1300.06	1250.50	1259.25	1285.81	1261.62	1131.62	1005.06	993.06	976.31	962.00	954.31	971.19	980.75	1034.62	1254.25	1368.19	1420.31	1512.06	1417.00	1289.94	1208.50	1183.81	1312.44	1376.56	1265.06	1403.88	1374.75	1451.38	1567.25	1412.88	1490.06	1345.06	1319.25	1202.94	1342.50	1296.94	1223.44	1197.50	1116.25	1077.06	1069.12	1068.62	1146.12	1313.44	1273.69	1188.50	1171.25	1158.81	1194.75	1142.38	1065.62	1073.75	1170.19	1209.56	1270.62	1296.56	1260.56	1187.50	1051.75	1032.00	1032.00	1032.00	1114.50	1282.50	1265.62	1175.00	1231.94	1354.06	1466.25	1468.44	1342.06	1278.38	1303.56	1252.25	1176.88	1137.44	1154.75	1174.25	1150.50	1120.88	1118.50	1147.44	1231.31	1289.56	1239.50	1155.00	1141.50	1104.06	1030.19	1018.69	1020.50	1020.06	1022.12	1047.44	1134.00	1195.00	1197.88	1199.38	1215.44	1322.50	1318.06	1363.31	1234.38	1147.56	1198.25	1291.88	1303.94	1342.94	1289.38	1226.31	1382.75	1516.31	1511.50	1349.19	1322.56	1219.31	1243.75	1077.19	1219.25	1242.94	1360.06	1330.19	1237.44	1265.38	1273.44	1219.38	1272.25	1309.56	1441.12	1692.12	1732.62	1571.06	1585.31	1647.44	1527.75	1478.19	1371.75	1285.94	1351.69	1453.44	1537.62	1552.94	1339.88	1620.69	1689.19	1596.50	1488.44	1784.56	1586.94	1568.12	1560.81	1329.81	1138.44	1114.94	1154.81	1178.94	1152.62	1189.56	1227.19	1225.75	1130.00	1161.94	1246.06	1235.56	1103.94	1078.25	1164.25	1082.31	1125.81	1073.00	1040.44	963.94	964.88	909.50	851.38	837.25	829.81	832.44	825.12	840.38
1789.44	1844.81	1939.00	2151.62	2275.25	2146.75	1842.38	1549.44	1750.69	1935.44	2063.75	1726.12	1928.19	2145.75	2152.81	2345.75	2506.38	2327.75	1996.19	2071.69	2199.25	1961.69	1798.75	1719.44	2163.38	2129.00	1814.50	2247.12	2179.12	2115.69	2315.19	2264.56	2224.94	2009.75	1974.00	2365.88	2506.75	2255.06	2161.94	2010.06	1817.00	1704.75	1751.31	2127.25	2117.44	1813.44	1697.12	1609.81	1490.94	1576.69	1563.69	1530.31	1457.44	1401.31	1377.00	1374.25	1401.31	1451.44	1576.44	1656.38	1801.38	1658.75	1809.56	1784.94	1719.75	1510.50	1500.38	1504.19	1570.00	1522.44	1417.25	1316.44	1244.38	1273.62	1212.19	1249.94	1313.25	1303.69	1273.00	1296.56	1258.44	1096.69	1001.38	987.62	974.75	959.19	959.19	989.19	986.62	1047.00	1183.06	1286.62	1459.19	1480.69	1278.88	1194.69	1271.69	1217.94	1426.62	1490.88	1309.06	1430.56	1558.12	1620.50	1706.62	1400.25	1293.75	1274.62	1211.75	1307.50	1436.44	1439.12	1284.19	1196.56	1111.50	1081.94	1075.50	1076.31	1101.25	1272.31	1276.31	1289.19	1316.69	1255.62	1244.81	1126.38	1075.44	1067.81	1145.06	1271.19	1303.06	1341.31	1390.19	1373.94	1146.31	1032.00	1032.00	1032.00	1140.19	1396.19	1251.75	1201.00	1173.69	1230.50	1430.44	1549.38	1348.25	1320.06	1376.75	1261.19	1177.19	1151.56	1172.75	1189.12	1143.50	1122.50	1127.50	1132.88	1202.69	1310.00	1239.00	1188.81	1231.12	1207.00	1120.62	1038.94	1021.81	1017.31	1021.25	1035.00	1084.75	1166.06	1204.50	1204.31	1223.56	1278.38	1313.44	1251.44	1233.12	1204.62	1209.88	1348.19	1357.50	1366.94	1297.44	1231.31	1308.31	1400.94	1521.50	1410.75	1394.06	1313.75	1244.50	1073.06	1293.25	1202.25	1282.38	1303.06	1237.38	1308.56	1389.31	1342.00	1342.44	1319.56	1335.81	1620.19	1786.56	1593.31	1515.38	1572.06	1641.12	1534.31	1493.44	1401.44	1270.44	1425.88	1579.00	1441.69	1348.00	1666.75	1515.75	1424.69	1515.44	1733.75	1582.25	1478.00	1718.62	1568.06	1288.31	1099.94	1305.44	1212.00	1164.75	1165.38	1127.38	1167.38	1104.19	1143.88	1171.38	1174.06	1183.00	1056.56	1147.31	1078.31	1074.50	1149.62	1172.50	1007.44	907.75	862.50	841.06	831.38	823.50	829.88	829.06	837.56
1818.00	1835.44	2051.75	2185.81	2360.00	2137.94	1933.81	1597.94	1587.38	1816.31	1905.81	1688.44	2014.62	2303.62	2162.94	2391.94	2267.88	2365.75	1939.69	2069.31	2300.31	2073.56	1772.81	1763.25	2181.50	2117.81	1828.31	2125.44	2309.94	2203.56	2296.12	2442.56	2387.12	2124.06	1992.62	2307.62	2472.12	2486.94	2416.06	2273.62	1874.31	1716.12	1814.94	2204.06	2214.56	1792.94	1756.81	1577.56	1500.19	1655.06	1667.38	1521.38	1452.31	1413.44	1384.38	1388.50	1437.38	1452.56	1586.12	1738.50	1774.19	1800.12	1847.56	1762.56	1644.75	1647.81	1633.06	1570.25	1457.69	1400.25	1319.62	1281.81	1293.94	1385.94	1240.94	1197.25	1262.81	1290.81	1285.00	1353.69	1230.44	1083.62	994.38	985.25	971.38	953.00	966.88	990.38	996.75	1025.06	1070.12	1150.12	1214.25	1197.12	1227.75	1284.69	1453.19	1241.69	1315.75	1449.88	1350.56	1550.31	1701.88	1687.62	1611.81	1372.69	1294.19	1208.25	1278.31	1508.19	1605.38	1438.50	1272.12	1176.31	1125.75	1086.50	1085.00	1084.00	1114.19	1257.12	1358.38	1326.38	1272.56	1220.81	1161.94	1111.88	1080.06	1073.81	1119.25	1179.19	1213.19	1320.00	1422.88	1339.38	1157.31	1032.44	1032.00	1032.12	1218.62	1353.94	1228.88	1293.50	1241.62	1224.12	1361.38	1503.19	1378.62	1339.69	1424.69	1292.81	1190.06	1160.62	1197.81	1208.44	1142.25	1140.31	1140.50	1137.88	1224.19	1356.75	1223.75	1218.94	1317.75	1268.75	1235.31	1074.69	1014.31	1012.38	1019.25	1033.56	1082.19	1156.31	1244.12	1231.25	1245.25	1268.69	1394.00	1235.06	1281.25	1268.94	1178.56	1309.12	1316.94	1415.31	1361.25	1273.81	1279.44	1401.44	1441.00	1444.31	1445.19	1430.69	1204.31	1082.81	1234.56	1288.06	1242.44	1315.56	1257.19	1278.06	1440.06	1487.69	1589.38	1457.38	1381.62	1445.06	1622.81	1653.00	1484.50	1459.69	1576.94	1553.00	1497.12	1438.50	1282.38	1277.75	1375.62	1428.62	1347.75	1662.00	1522.81	1315.94	1537.56	1634.62	1486.94	1459.94	1716.00	1530.38	1261.94	1083.69	1435.50	1348.50	1093.12	1253.12	1206.25	1133.50	1071.44	1127.25	1120.00	1162.44	1122.25	1019.12	1116.62	1139.75	1040.94	1094.38	1128.44	979.69	958.38	853.31	830.94	827.50	822.38	831.81	837.62	836.69
1875.50	2140.38	2054.50	2049.00	2158.88	2147.69	1994.50	1704.19	1479.19	1762.38	1774.38	1735.06	2181.19	2366.75	2380.94	2420.56	2132.62	2002.50	1800.06	1945.62	2079.31	1964.69	1745.81	1858.06	2225.62	2270.38	1848.50	2145.94	2470.38	2526.50	2526.06	2595.56	2403.31	2255.94	2057.06	2291.19	2278.62	2198.31	2018.56	1928.44	1804.00	1744.44	1839.88	2121.81	2101.25	1764.62	1755.31	1553.56	1541.56	1793.75	1767.38	1539.06	1439.38	1423.75	1394.19	1381.44	1514.56	1526.69	1551.25	1606.56	1693.06	1897.44	1903.06	1798.44	1842.56	1795.69	1665.44	1578.69	1400.25	1364.81	1424.75	1312.50	1413.69	1364.81	1271.94	1215.00	1160.81	1143.50	1122.19	1119.88	1057.88	1070.06	993.44	985.12	964.88	952.06	981.94	999.62	1027.50	1116.81	1133.56	1151.69	1225.88	1489.31	1606.12	1441.31	1565.19	1370.56	1288.88	1398.06	1382.44	1497.00	1479.81	1432.19	1375.75	1324.31	1213.81	1305.56	1468.19	1544.56	1483.25	1352.88	1317.75	1281.38	1223.44	1100.94	1093.12	1087.38	1126.44	1406.44	1474.06	1378.12	1290.12	1253.62	1183.69	1109.81	1091.00	1129.44	1123.50	1135.62	1229.75	1317.38	1354.19	1314.81	1196.25	1061.12	1037.75	1052.12	1346.50	1420.81	1269.19	1346.19	1363.81	1196.94	1315.06	1474.38	1372.94	1419.00	1323.50	1235.50	1188.12	1176.88	1208.69	1194.25	1161.81	1151.94	1145.12	1133.88	1218.50	1366.44	1295.81	1240.94	1274.56	1260.88	1215.12	1113.06	1010.69	1011.06	1014.06	1031.50	1094.44	1188.88	1217.88	1320.19	1326.19	1299.31	1394.19	1223.88	1305.56	1338.62	1208.81	1283.69	1346.44	1403.38	1446.38	1402.44	1267.81	1271.56	1327.06	1278.88	1263.25	1284.38	1178.00	1099.44	1167.00	1284.00	1207.62	1246.88	1274.62	1299.88	1376.94	1535.06	1767.00	1735.00	1512.19	1545.94	1677.12	1659.75	1583.00	1521.62	1446.44	1480.38	1474.69	1430.56	1378.75	1535.94	1315.31	1177.00	1249.88	1489.50	1651.38	1326.56	1390.75	1679.44	1495.56	1345.44	1503.69	1485.50	1313.69	1062.81	1316.00	1438.06	1123.81	1062.25	1126.25	1165.88	1122.06	1051.88	1051.94	1116.19	1082.06	1012.19	1174.12	1122.62	1065.50	1048.38	1163.69	1019.06	920.62	866.25	834.00	812.62	819.69	822.00	824.88	816.94
1857.69	2187.81	2188.31	2072.69	1935.38	2025.00	1924.31	1777.38	1442.69	1702.00	1707.44	1750.69	1941.69	2147.12	2386.94	2270.94	2297.38	2173.06	1773.25	1866.94	2224.88	2063.56	1733.06	1872.25	2120.12	2245.19	1916.81	2113.31	2386.75	2435.00	2560.06	2659.88	2491.38	2413.62	2196.56	2401.00	2150.94	1986.75	2083.75	2123.06	1931.50	1785.62	1841.38	2254.38	2067.94	1837.69	1636.56	1539.00	1602.62	1705.69	1620.94	1481.31	1457.81	1430.88	1398.06	1422.75	1471.19	1513.38	1646.25	1746.19	1800.12	1763.75	1959.69	1918.69	1941.38	1870.62	1737.75	1457.94	1449.19	1475.75	1440.75	1352.75	1502.38	1436.00	1270.31	1227.38	1168.31	1236.88	1217.19	1136.81	1078.88	1029.56	991.56	981.62	967.19	966.19	989.06	1003.44	1164.31	1293.88	1137.94	1292.06	1271.12	1633.94	1769.38	1565.06	1468.06	1425.38	1288.38	1397.38	1459.12	1506.75	1469.44	1343.12	1310.38	1232.88	1269.88	1435.44	1586.69	1509.44	1579.06	1412.81	1345.25	1436.44	1231.31	1109.81	1097.25	1092.06	1157.81	1445.88	1449.81	1348.62	1328.62	1296.62	1190.19	1117.94	1089.88	1164.69	1197.12	1140.62	1156.62	1267.19	1390.44	1359.44	1285.81	1143.94	1041.62	1083.12	1390.94	1556.94	1325.38	1354.75	1473.31	1290.81	1232.94	1359.44	1395.00	1440.31	1301.69	1287.19	1213.94	1187.88	1233.69	1212.56	1228.19	1165.81	1167.56	1143.12	1160.94	1316.81	1321.69	1214.25	1200.50	1172.19	1121.56	1045.69	1010.00	1017.69	1027.00	1036.06	1069.50	1198.81	1230.94	1282.19	1335.06	1372.12	1339.12	1225.06	1351.31	1351.19	1222.81	1276.44	1292.69	1402.94	1536.94	1450.00	1324.38	1261.56	1410.25	1244.06	1252.19	1298.06	1261.69	1091.81	1155.19	1282.19	1295.69	1181.00	1264.31	1392.44	1412.94	1540.62	1681.75	1755.44	1588.44	1548.62	1726.94	1758.06	1550.88	1584.19	1517.31	1552.38	1552.94	1398.69	1433.88	1557.25	1518.31	1220.56	1145.19	1292.56	1481.38	1265.12	1402.56	1614.19	1674.81	1429.06	1266.56	1388.88	1384.25	1150.69	1107.75	1215.50	1048.06	975.44	993.56	1023.31	1049.56	1053.31	1074.00	1064.19	1056.75	1008.81	1128.38	1138.38	1098.88	1017.69	1127.81	951.88	900.19	854.19	816.56	801.38	793.75	793.44	800.81	789.25
