149.19	134.94	126.19	120.38	108.56	123.75	143.19	145.62	145.31	133.38	123.00	109.25	98.25	90.56	88.44	85.94	94.81	97.75	99.88	118.50	134.38	130.56	111.25	89.81	72.88	64.94	59.25	70.19	130.75	135.44	141.50	153.44	152.06	161.69	172.19	181.56	183.50	187.12	188.00	193.12	198.31	201.00	205.69	207.00	217.50	216.00	205.06	185.81	164.38	175.62	207.81	214.81	219.62	219.69	226.44	214.06	208.88	195.25	180.00	147.88	121.25	97.88	94.44	75.94	71.12	81.81	122.06	84.19	99.88	165.94	214.44	222.25	224.00	203.31	168.12	184.75	223.31	226.56	230.88	225.31	209.88	190.25	177.50	178.38	174.88	209.75	174.88	148.06	127.38	118.38	122.50	157.00	179.38	208.00	195.44	174.69	157.75	145.12	137.12	136.00	157.56	162.56	180.12	175.62	148.56	118.19	98.94	91.19	83.12	76.94	76.81	85.00	115.12	125.19	107.44	93.62	82.19	75.06	72.25	83.44	119.44	142.31	157.62	167.38	148.25	178.19	191.75	229.69	220.69	190.00	178.31	184.69	182.12	186.12	187.38	164.94	194.56	217.88	222.62	207.31	186.00	147.62	137.38	140.88	130.88	107.81	93.19	97.25	136.56	193.00	242.62	252.62	243.12	240.19	211.44	177.38	187.38	175.94	162.62	136.31	138.00	167.81	187.19	197.19	207.19	200.12	183.62	175.31	168.06	151.88	135.88	115.38	121.88	162.94	184.81	176.50	179.12	177.56	158.56	147.06	144.88	123.38	117.19	131.12	153.25	141.38	148.25	163.56	155.81	145.56	153.31	158.44	173.31	203.94	206.25	184.56	171.69	160.19	149.44	154.19	156.06	146.81	153.00	150.81	141.06	127.62	111.94	102.44	95.25	89.12	85.75	81.06	79.00	77.88	76.19	76.06	75.75	77.69	73.75	76.81	87.06	96.38	124.88	127.50	148.19	196.25	201.19	150.88	165.69	122.19	116.38	139.94	124.00	120.38	135.94	147.19	136.25	161.56	175.19	231.69	231.69	237.31	252.44	199.94	189.12	220.00	242.94	231.44	197.56	189.06	210.19	217.81	245.12	236.12	205.88	188.62
145.44	137.56	131.88	115.44	116.06	138.38	143.12	128.88	118.81	106.81	103.06	102.31	105.69	100.19	90.12	106.12	114.69	111.00	105.69	119.56	138.00	136.81	113.06	93.50	91.12	86.50	60.12	51.31	86.38	107.38	149.94	169.25	168.12	169.88	178.06	182.38	184.81	188.19	175.19	185.50	192.94	196.69	195.62	195.00	216.00	215.38	205.38	196.75	179.50	162.50	179.25	208.12	211.50	215.75	229.44	216.88	206.19	199.88	193.81	151.56	113.00	97.69	92.25	70.62	106.69	113.62	105.56	84.69	137.69	199.06	223.69	207.19	197.81	139.94	157.25	206.25	214.25	212.38	225.56	233.50	233.25	220.44	217.06	197.62	186.56	207.94	168.56	139.81	125.19	115.56	143.19	185.62	211.75	221.19	204.38	176.62	155.12	145.06	132.69	127.81	129.25	134.19	153.75	128.00	112.75	92.50	82.50	86.50	91.94	94.75	91.00	104.06	123.56	115.06	108.81	106.88	94.56	73.06	73.38	80.69	111.38	152.56	161.62	164.00	160.50	201.06	219.44	231.94	205.56	197.69	205.19	214.31	205.44	214.12	191.31	189.19	236.19	229.94	227.00	195.88	165.94	139.38	125.44	122.94	120.31	109.19	93.44	112.25	161.88	238.81	228.56	207.19	195.19	192.62	166.50	141.81	136.31	136.00	131.19	136.50	143.75	145.81	176.25	207.69	225.81	204.88	182.69	160.81	152.25	136.44	122.88	113.44	116.75	166.81	189.62	196.69	197.75	182.94	166.31	163.50	137.69	124.50	145.50	148.50	161.62	159.06	165.69	175.38	165.25	155.69	171.75	179.06	202.81	226.06	204.38	187.38	172.12	158.69	164.31	171.44	165.06	161.69	154.62	139.75	126.81	114.44	107.31	102.06	94.25	89.38	85.50	81.38	79.19	79.56	77.19	76.75	75.31	74.50	75.19	76.12	75.19	74.94	78.38	118.81	163.12	195.31	195.50	133.56	156.44	134.44	102.56	101.12	97.94	97.94	109.31	115.12	137.38	133.62	152.94	224.50	206.00	233.38	233.38	217.75	182.56	209.69	238.50	233.19	199.00	190.06	194.69	210.50	232.19	213.56	229.19	217.94
151.31	140.88	122.88	113.38	128.31	144.38	135.62	119.25	120.94	112.75	113.00	108.69	116.62	98.56	96.62	121.31	132.38	115.31	115.12	137.12	146.00	133.50	114.69	95.12	82.44	67.56	52.38	53.31	95.50	140.44	157.44	171.81	160.69	172.62	172.75	165.94	183.75	179.75	159.81	159.12	175.88	174.44	179.44	194.94	213.81	206.44	200.44	195.81	199.56	195.00	180.00	184.94	195.19	222.06	222.88	203.56	187.38	169.12	150.56	131.94	120.38	106.38	85.31	71.00	138.88	118.19	102.75	93.62	183.31	225.50	210.94	180.81	135.19	119.94	137.31	163.69	175.75	194.56	216.81	229.00	237.94	235.31	224.25	203.00	194.62	210.12	162.56	145.81	136.19	120.69	139.00	213.50	226.94	211.12	199.38	168.38	151.62	141.25	135.12	130.00	121.00	113.62	110.69	101.69	92.69	83.50	92.00	116.56	126.75	111.81	108.56	120.19	123.94	122.69	124.94	114.19	89.38	74.06	74.75	101.94	139.25	150.75	167.81	164.88	168.06	201.00	238.06	236.19	215.25	231.25	236.12	239.38	243.81	226.50	203.94	227.69	236.62	206.38	180.62	160.81	144.88	131.06	130.81	135.56	129.62	110.81	95.44	104.81	167.62	224.06	185.75	163.00	148.31	139.44	128.62	119.75	127.38	145.31	156.75	156.50	150.19	143.50	160.19	192.62	222.62	202.56	188.50	164.75	146.62	132.00	135.44	120.00	114.06	144.56	189.44	219.31	209.50	192.12	175.31	149.88	122.75	140.12	162.31	164.25	173.38	178.19	186.12	186.38	174.88	165.62	189.06	215.75	230.56	237.19	201.81	183.56	178.44	173.75	177.94	178.94	173.19	163.69	150.44	149.25	130.25	114.69	104.56	100.81	96.12	92.06	91.75	86.25	85.38	82.38	77.69	76.75	76.50	73.81	73.62	75.75	73.62	76.00	78.12	126.50	180.06	187.62	188.88	126.62	137.88	129.25	81.75	78.31	86.56	89.81	98.75	108.62	110.38	133.25	162.19	192.00	197.69	234.00	219.69	209.62	182.31	192.00	229.62	235.56	200.94	186.62	186.81	207.88	227.12	200.00	243.94	223.19
158.94	139.75	126.94	119.75	140.75	152.00	138.88	129.19	127.88	126.38	116.50	130.19	120.94	103.19	95.69	125.31	144.75	129.19	130.25	152.81	144.31	125.19	109.81	91.75	71.75	59.56	51.75	83.44	138.38	165.25	170.25	161.94	145.00	169.19	148.81	155.75	182.25	166.88	119.38	146.38	171.75	189.75	196.81	204.69	199.69	207.88	194.88	198.00	216.25	205.62	196.50	201.06	211.44	224.12	206.50	195.19	183.38	193.75	162.88	165.19	132.50	90.62	74.44	74.44	142.31	123.69	115.00	95.38	153.31	196.19	167.06	130.38	118.75	151.25	183.19	206.44	212.81	210.88	226.00	233.81	240.12	240.88	234.94	234.06	217.25	222.25	180.81	157.38	147.75	129.12	162.88	219.00	220.38	190.38	172.25	161.00	154.94	147.31	137.88	130.81	128.06	126.19	126.25	111.75	86.12	93.12	112.44	134.00	143.50	139.44	135.25	134.12	130.81	124.31	124.56	112.19	75.31	75.19	89.81	132.62	157.56	165.94	174.19	180.00	181.81	214.06	251.69	253.88	242.31	239.19	220.75	231.81	248.25	232.44	218.69	217.38	209.06	185.19	170.19	159.44	150.62	148.62	150.69	147.06	121.31	99.44	92.50	132.44	198.12	189.19	151.75	125.81	117.25	119.12	130.19	138.62	161.88	176.88	173.38	157.88	164.81	156.88	152.75	198.75	220.25	198.81	179.88	159.75	148.38	154.56	141.56	120.56	113.56	149.88	198.38	227.69	203.00	173.56	148.50	126.50	132.19	140.50	162.50	183.19	200.38	205.56	210.25	204.25	190.75	192.31	202.56	222.44	204.00	215.94	210.81	185.50	174.88	182.94	178.50	172.56	167.25	165.50	167.81	146.31	134.25	122.62	114.94	110.06	103.19	101.62	105.19	100.94	95.06	86.00	93.06	98.75	75.94	74.25	74.56	75.06	74.00	75.50	103.81	123.06	165.69	167.56	176.81	125.00	101.69	88.88	77.69	77.12	82.69	89.69	92.75	99.88	102.31	124.00	149.12	172.75	182.69	200.12	222.56	191.56	169.06	192.75	224.94	246.56	223.00	196.44	181.38	194.06	230.25	189.62	228.25	234.00
158.75	138.50	124.06	126.50	143.56	152.56	138.62	142.38	135.25	129.50	130.44	144.31	127.56	108.31	96.81	108.88	137.94	147.12	148.19	142.81	142.50	129.00	108.62	79.31	71.62	78.75	52.62	90.50	147.19	147.50	164.50	148.38	134.69	128.75	124.12	152.88	177.00	165.69	121.38	161.56	184.19	189.94	199.56	190.31	186.81	200.12	171.94	197.38	217.75	215.88	220.75	225.19	218.25	220.69	212.00	204.44	166.12	149.56	117.56	108.06	93.06	83.56	79.25	80.12	165.38	152.62	117.94	97.62	92.19	115.69	125.25	107.50	159.00	219.25	223.06	188.69	171.75	168.50	197.62	220.19	236.75	244.50	241.38	230.25	238.00	211.81	180.81	159.75	155.50	128.31	165.38	221.25	221.44	187.44	175.25	168.50	151.69	141.38	130.25	120.94	117.31	117.00	124.19	101.19	91.38	110.44	132.31	153.81	157.31	168.81	156.44	145.56	127.12	110.81	99.75	86.50	74.75	82.06	124.81	153.94	168.69	174.50	187.56	196.88	196.75	232.19	267.31	257.06	228.94	215.19	206.19	190.62	204.00	204.75	177.25	186.31	209.25	196.12	176.56	152.56	141.38	151.31	149.38	125.75	102.75	97.00	132.69	184.25	185.88	147.56	117.75	110.69	124.00	147.00	152.50	167.25	190.44	191.81	173.62	180.69	175.06	173.69	157.44	192.12	219.88	202.75	186.19	154.69	169.81	163.38	140.31	120.56	117.94	158.31	210.06	199.81	172.88	154.56	140.81	127.94	131.56	138.56	164.62	213.75	235.44	226.00	208.69	207.62	200.56	211.94	208.06	206.62	183.75	202.62	212.69	185.12	164.56	161.75	171.12	155.62	146.38	158.19	178.94	161.06	158.75	148.88	135.12	116.44	108.75	108.75	111.62	109.94	105.75	109.00	115.50	104.00	73.94	75.62	76.25	74.88	76.00	99.81	148.38	126.94	150.75	157.06	154.44	101.88	76.56	77.06	76.69	75.69	76.94	86.62	91.06	92.62	95.38	108.75	145.94	201.88	178.31	173.12	209.12	194.19	169.19	177.81	224.88	235.69	227.31	199.88	181.44	186.44	222.75	183.25	218.81	221.19
161.25	134.88	128.00	141.62	148.50	155.62	150.12	157.94	149.12	141.94	145.12	145.31	126.06	110.69	102.81	105.94	128.19	150.62	141.00	123.88	127.31	120.50	91.06	70.25	86.06	96.69	60.12	64.31	89.19	80.88	132.38	117.44	111.81	94.94	124.38	159.31	176.31	159.88	103.75	135.62	171.12	192.06	196.00	169.75	192.94	174.81	178.00	202.19	217.75	226.00	231.25	221.56	201.38	211.94	217.38	199.81	162.69	114.69	106.06	119.75	107.31	93.31	87.19	73.62	155.38	177.25	115.00	104.75	110.69	92.38	92.00	114.25	203.94	213.19	195.06	134.25	147.56	170.19	178.12	197.38	232.69	242.62	241.00	238.56	249.00	219.31	182.44	153.12	150.94	131.00	159.69	197.69	217.31	187.56	172.38	160.19	140.81	132.88	127.94	118.25	114.69	104.25	115.56	93.00	103.25	119.31	143.69	166.56	173.56	181.81	162.06	144.38	113.75	94.12	81.88	76.75	76.06	101.88	151.00	167.75	157.94	185.19	198.56	210.75	212.50	242.62	266.00	248.31	212.38	181.81	193.56	182.50	164.06	172.81	159.69	168.88	190.31	196.06	172.62	134.06	123.56	129.75	122.06	111.50	102.62	107.69	158.06	160.69	129.25	108.62	107.25	132.56	150.00	166.69	168.06	195.62	209.31	188.88	182.38	193.00	187.94	175.31	156.25	189.44	224.94	207.38	176.81	166.62	181.81	163.81	143.75	121.38	127.56	192.25	210.31	181.94	167.56	162.38	140.06	139.50	134.12	142.19	181.44	230.00	228.75	206.06	187.06	185.38	198.12	203.69	184.25	188.81	177.31	177.06	205.25	171.19	158.50	149.19	166.44	154.31	140.38	148.44	174.31	167.12	166.00	165.06	153.12	125.62	115.69	114.50	115.81	118.88	123.19	128.19	115.25	84.44	74.12	76.12	76.25	75.19	88.06	135.62	166.25	135.06	134.81	144.94	141.62	80.62	77.94	76.50	76.44	76.62	77.25	79.56	85.69	90.56	93.62	105.56	142.50	213.12	188.56	168.50	184.81	188.38	172.06	166.88	207.00	211.50	221.88	197.62	175.06	179.94	208.88	181.50	214.50	221.94
158.44	131.56	135.69	160.94	168.69	168.19	169.44	172.94	176.06	174.06	148.44	130.06	115.19	112.88	113.62	110.31	124.81	145.50	129.31	108.88	95.12	88.69	78.56	84.31	106.75	109.50	90.00	58.50	53.62	64.44	67.38	65.38	61.31	102.75	154.31	163.31	159.44	133.69	118.12	166.62	180.25	193.06	181.38	161.19	150.31	169.25	198.12	203.38	207.81	232.38	231.06	201.06	174.12	184.19	192.56	171.00	126.69	138.44	171.31	172.75	123.69	96.25	88.25	72.00	148.94	155.25	117.50	117.44	126.19	114.75	97.12	112.50	215.81	156.25	121.19	158.00	190.31	209.19	199.06	217.44	231.88	244.88	247.50	248.88	253.75	207.38	170.94	152.69	158.12	147.88	138.25	190.31	227.75	191.00	172.31	159.75	147.12	143.06	133.56	134.56	126.75	108.38	93.56	102.69	119.69	133.50	157.75	183.56	189.06	181.69	151.75	120.75	100.44	97.69	83.81	78.19	76.25	83.50	123.12	148.12	155.44	180.81	219.06	228.94	230.12	240.00	235.38	209.88	187.12	170.75	157.75	150.31	146.75	141.94	139.50	136.00	139.38	144.69	139.62	111.56	110.06	119.69	131.38	121.25	101.06	96.75	105.88	103.38	101.12	100.56	133.00	158.00	179.94	182.62	183.38	211.88	211.25	190.12	210.25	207.25	196.62	177.50	169.12	204.19	224.56	193.31	187.69	200.12	189.62	168.38	144.75	122.00	132.69	186.19	197.62	192.75	183.12	150.56	159.25	164.31	153.38	160.19	185.44	228.88	220.62	206.19	183.50	170.81	183.25	183.00	164.50	153.62	160.75	160.44	180.38	177.56	152.19	134.06	146.50	143.00	134.25	136.69	163.62	157.88	143.19	148.50	162.75	147.06	129.38	125.31	125.06	133.62	140.94	126.19	79.69	76.12	75.62	75.25	76.06	87.31	124.69	165.25	167.19	129.81	128.00	143.75	99.12	80.50	77.06	77.69	78.62	77.94	77.56	79.81	81.69	85.81	92.38	101.69	133.94	164.12	214.69	185.56	164.06	187.62	187.50	159.25	177.75	216.62	231.88	190.12	164.94	175.88	207.06	172.31	211.19	217.69
151.62	137.19	147.19	163.56	171.06	161.44	152.38	157.25	165.56	167.19	146.38	132.38	130.56	130.56	119.94	127.88	140.25	145.12	131.44	105.00	80.00	89.56	96.19	104.38	111.50	101.88	95.88	77.75	55.94	67.38	97.81	101.31	91.69	63.81	81.25	106.44	93.56	85.19	136.19	177.94	186.06	187.81	172.62	145.44	148.75	208.62	163.75	191.25	215.38	229.12	223.62	215.88	195.75	183.44	162.88	160.12	195.44	186.00	155.75	111.12	93.88	83.62	77.69	70.94	118.75	164.00	161.12	140.12	121.06	119.75	121.94	106.88	201.62	131.56	120.69	203.94	232.12	218.75	220.38	238.62	247.44	251.56	253.12	254.31	249.50	216.62	185.06	173.75	170.75	146.50	149.06	195.12	218.12	192.56	170.25	166.44	157.88	143.69	147.69	147.75	137.56	123.31	100.81	123.62	141.88	154.75	180.75	202.50	195.50	167.19	133.00	120.00	125.00	107.75	91.56	90.00	86.81	75.75	76.12	111.38	141.50	170.25	204.19	233.19	235.44	217.12	201.12	198.25	189.25	173.81	175.19	166.00	163.19	163.00	163.56	154.12	139.31	136.25	134.06	128.94	135.19	139.75	120.88	111.94	112.12	100.56	99.12	126.44	123.00	106.06	145.19	167.81	202.44	201.31	209.38	231.56	217.44	207.06	223.25	215.00	198.12	189.00	169.75	197.94	233.25	222.31	233.44	224.12	193.88	171.31	154.06	134.75	121.94	157.00	204.19	192.50	163.19	175.88	188.62	164.81	163.56	186.19	230.94	236.69	208.69	190.44	177.56	179.31	164.88	162.12	155.94	154.38	141.56	135.00	141.94	160.00	162.69	138.12	119.94	125.81	125.25	122.69	155.50	160.81	135.81	132.81	150.56	125.06	101.31	98.56	98.94	119.25	132.69	82.38	76.75	76.94	77.31	77.00	84.44	123.94	158.12	176.12	152.06	122.25	114.31	92.19	78.31	78.25	76.88	77.44	78.75	78.94	80.00	83.50	82.50	81.88	91.12	102.81	139.56	196.38	235.75	210.62	173.75	168.38	192.31	164.62	172.00	222.19	234.69	200.06	162.31	171.69	198.62	169.94	209.19	204.44
150.69	148.75	160.50	171.31	159.94	152.00	148.31	140.50	143.75	155.56	163.94	151.12	144.25	128.81	124.69	141.75	142.44	125.94	112.19	91.88	95.31	112.44	120.38	118.88	109.50	90.56	83.31	68.06	54.00	53.56	74.44	114.19	108.81	103.75	86.25	81.50	63.88	104.75	146.69	157.69	169.81	192.69	168.44	114.06	172.56	199.12	144.88	179.38	205.50	226.88	206.12	215.38	216.88	214.56	210.25	204.94	170.06	134.69	131.19	113.88	94.38	110.06	92.75	72.31	102.75	221.81	223.00	170.56	131.62	127.38	117.31	103.00	115.88	103.75	122.44	212.00	231.88	225.44	238.38	249.62	251.69	252.50	246.88	251.44	262.56	248.75	229.50	188.62	170.19	151.31	138.62	181.00	202.56	191.19	179.12	171.81	158.19	160.25	155.38	133.69	131.31	114.06	97.56	129.19	166.25	186.12	199.69	187.62	167.00	145.62	148.06	143.06	136.00	120.12	99.00	113.94	118.81	91.88	75.81	102.50	144.25	162.81	179.88	233.50	232.25	212.38	214.25	205.38	189.50	194.38	187.44	184.38	192.75	185.12	170.06	164.31	164.94	162.31	149.25	133.56	120.31	123.94	126.12	122.06	112.44	98.88	133.19	153.06	128.50	114.50	123.38	152.50	162.44	176.44	221.50	224.75	227.25	220.62	227.44	223.81	216.44	184.50	183.50	185.56	237.12	244.31	232.56	191.75	169.06	161.88	138.56	133.00	119.81	163.25	209.06	184.19	184.56	200.88	193.38	172.44	180.12	219.06	250.31	230.31	211.19	199.25	202.06	191.12	186.75	182.94	176.94	171.56	155.88	142.25	130.94	120.94	120.62	114.50	108.12	106.06	105.31	119.56	146.69	160.88	139.06	112.06	113.44	100.75	93.38	92.88	89.56	91.62	76.94	77.62	75.88	76.56	77.19	84.75	114.19	161.94	180.31	171.38	140.12	114.38	81.12	79.31	77.88	78.31	79.06	79.75	78.81	80.06	82.56	81.25	80.19	81.00	84.06	110.19	180.94	212.12	191.38	225.56	197.88	167.69	166.50	165.69	162.25	198.88	209.81	217.25	160.06	170.50	191.94	165.62	201.31	202.19
170.00	170.50	175.62	176.44	168.69	162.50	155.62	139.69	136.31	154.12	175.44	154.56	136.81	137.31	142.25	144.31	130.50	122.12	108.75	98.56	118.56	130.56	136.44	120.31	105.25	101.56	93.06	79.69	55.44	74.94	86.88	109.81	102.88	116.06	105.31	99.25	82.38	75.44	69.94	128.94	155.31	196.75	161.19	140.00	212.44	170.81	182.94	207.50	217.62	218.31	190.38	199.00	220.25	212.12	192.62	169.81	164.50	157.81	152.25	125.88	119.75	155.50	99.69	74.44	107.75	209.88	225.88	188.19	186.56	161.75	127.75	115.19	101.19	123.00	130.19	143.81	216.06	235.25	253.62	252.12	248.06	249.44	236.50	243.31	250.06	242.31	241.62	216.00	176.62	160.31	143.81	170.12	203.88	203.62	183.38	173.25	171.94	178.12	155.56	123.62	122.62	126.75	103.62	132.19	172.62	217.12	209.19	190.94	174.44	175.56	165.56	142.62	123.94	121.69	122.69	114.75	114.75	100.19	77.12	90.00	123.75	144.19	176.25	219.44	232.94	223.81	224.69	214.88	213.12	216.38	218.75	217.75	212.69	195.81	180.94	168.75	155.12	141.19	129.56	130.62	134.81	138.06	133.38	120.69	101.75	114.62	153.88	157.88	134.31	121.56	122.25	119.06	117.75	136.88	163.19	174.25	204.94	222.75	232.44	225.94	212.44	202.56	193.56	218.94	261.19	245.31	208.62	179.12	162.94	153.75	137.25	129.19	119.38	157.00	207.81	200.19	211.88	218.62	197.31	206.81	232.19	245.31	222.50	194.56	216.88	221.88	225.12	218.88	210.94	197.12	199.88	185.31	172.50	166.00	148.81	139.00	139.50	132.50	125.56	123.56	114.19	104.44	111.31	135.31	132.62	102.06	90.12	89.19	86.12	83.75	82.12	79.19	75.12	74.12	73.94	73.94	74.88	101.00	128.38	176.50	187.62	154.94	108.56	78.31	77.25	77.69	79.50	79.19	79.50	90.12	108.38	82.12	78.94	79.06	78.94	79.31	85.44	132.44	207.81	225.44	192.88	174.62	177.81	189.00	166.38	150.81	141.00	164.19	183.19	214.56	167.44	158.25	159.50	159.19	188.88	191.88
169.69	176.38	167.44	159.75	153.81	145.56	139.56	137.19	136.69	164.44	171.56	146.75	141.94	149.62	150.62	143.31	132.06	120.75	104.62	103.44	129.88	146.81	136.19	118.69	117.25	112.75	104.19	85.00	56.38	100.12	121.44	116.75	105.69	123.31	114.94	102.00	121.25	105.19	86.44	77.88	151.75	183.19	131.50	163.56	206.25	146.38	169.19	197.38	214.25	218.31	186.50	183.19	210.69	208.31	222.12	216.69	202.44	182.31	180.00	121.81	136.69	151.31	107.31	79.56	87.56	147.38	228.81	238.69	223.75	179.69	131.38	110.19	109.50	139.69	141.06	133.75	177.06	231.75	255.44	231.88	244.88	254.81	239.69	215.12	199.31	195.69	197.12	180.94	163.00	152.31	144.56	158.06	209.44	228.25	201.25	182.06	178.12	179.12	149.88	138.31	143.69	122.25	115.81	148.75	198.19	240.31	224.56	204.69	200.44	187.25	164.19	133.31	134.69	149.25	134.62	108.31	89.94	82.12	77.94	81.06	116.12	140.06	172.12	205.69	230.88	236.06	238.50	232.88	237.69	229.88	220.31	205.50	184.25	175.38	163.19	152.25	150.56	141.12	145.25	144.88	142.94	130.38	120.25	102.44	96.88	121.62	157.38	161.62	135.44	130.06	136.44	135.38	136.44	127.31	132.56	142.44	165.88	208.00	246.06	234.88	228.06	215.25	200.25	250.81	263.94	228.69	211.25	195.12	174.38	157.50	155.62	142.94	121.69	154.12	179.69	196.94	229.88	241.31	225.38	222.56	209.50	205.50	186.31	164.69	180.12	222.69	220.38	219.12	181.31	200.69	210.38	202.12	193.94	170.75	155.12	160.75	156.75	147.62	140.12	135.88	125.56	114.94	107.25	102.00	97.06	87.62	82.94	80.00	78.50	78.38	76.81	75.12	75.00	87.88	79.81	77.44	75.12	101.81	121.81	148.38	156.06	112.94	77.50	79.88	78.81	78.81	78.50	78.00	81.00	113.94	136.25	84.50	79.94	77.69	79.75	82.31	107.94	182.25	195.31	205.44	204.31	189.62	168.62	163.31	162.81	152.62	142.25	140.94	175.62	220.88	165.12	166.88	149.75	149.69	194.06	173.44
157.25	175.81	165.50	151.75	149.19	154.06	150.25	139.44	132.19	150.56	141.75	131.69	133.38	136.25	145.81	142.12	126.62	118.88	111.12	115.50	124.69	141.25	144.44	133.50	125.81	118.31	103.94	75.19	57.19	111.31	144.00	124.31	117.38	129.31	118.81	120.75	138.44	118.88	107.19	95.19	87.06	128.31	99.56	179.94	162.75	125.19	195.44	202.38	218.31	219.44	187.81	178.06	207.62	210.69	220.88	233.31	218.06	173.19	155.06	138.88	135.00	153.94	100.38	86.56	75.06	108.00	217.56	224.62	183.94	149.81	128.44	116.06	124.81	175.44	174.31	142.69	154.06	189.31	221.56	204.44	234.75	254.44	252.69	237.69	209.75	191.81	176.69	164.31	164.06	163.25	164.75	158.88	192.19	213.56	208.62	189.69	173.12	163.00	155.94	159.06	138.81	117.19	111.88	153.50	204.12	239.25	220.00	200.56	185.06	163.19	151.38	156.75	160.62	169.81	139.75	109.88	85.50	79.25	77.88	85.19	125.06	155.56	180.38	218.81	236.38	248.44	243.94	234.31	230.81	204.19	189.12	188.50	178.12	173.81	170.19	168.38	168.31	156.31	139.06	138.88	135.31	112.88	103.12	99.06	105.00	150.12	174.69	160.69	137.19	152.25	148.06	148.75	136.31	145.94	159.06	147.69	171.75	210.81	264.31	249.94	240.69	214.06	209.75	261.44	268.25	245.69	219.44	190.06	187.38	177.00	161.44	141.25	123.81	139.50	149.75	167.69	218.88	241.56	232.19	229.19	210.88	194.44	176.50	151.62	158.69	202.50	184.12	192.12	157.25	165.69	178.12	189.69	188.88	179.44	178.75	165.12	131.56	148.94	154.88	149.25	140.50	130.31	123.31	104.06	91.19	88.44	92.81	91.69	90.94	90.44	88.56	88.81	94.94	129.44	91.25	77.38	74.69	89.81	120.62	130.38	103.75	76.94	77.94	79.69	78.94	80.38	78.94	80.19	101.81	141.69	116.38	82.94	83.50	81.50	79.62	92.06	151.94	193.62	172.69	194.12	210.69	204.81	189.81	172.12	158.44	151.88	144.06	139.12	165.19	203.06	170.56	147.69	148.38	140.00	205.56	179.69
161.00	175.12	163.06	158.06	161.00	160.81	148.94	137.06	126.31	125.31	124.62	126.06	135.94	142.25	149.88	143.12	132.69	123.69	116.06	129.75	136.44	136.94	153.56	141.38	122.88	106.75	89.50	61.75	69.50	123.00	144.62	134.56	135.31	137.62	129.06	137.00	128.56	115.56	117.44	130.00	118.00	78.25	101.69	155.25	121.62	159.06	195.19	206.62	212.38	207.06	175.06	166.75	174.44	187.81	211.81	227.25	208.38	219.19	198.19	174.94	147.25	154.50	116.94	99.44	82.06	82.81	147.25	211.69	180.19	155.94	138.94	121.62	139.31	201.50	215.69	169.69	147.00	173.06	188.44	205.38	215.75	249.19	261.44	240.31	217.00	186.38	176.81	187.62	185.06	183.19	168.75	174.44	195.38	211.38	233.00	209.50	178.75	173.38	170.12	163.69	142.31	124.12	109.88	165.88	210.94	227.50	219.62	200.31	184.12	176.88	185.06	188.31	175.38	146.75	122.62	100.19	84.44	78.50	78.44	101.88	139.38	167.44	204.44	246.62	246.31	243.69	227.75	216.62	209.38	207.38	205.69	205.31	199.88	191.06	179.94	172.44	161.56	141.06	126.06	119.88	118.31	106.56	99.88	111.00	124.44	164.31	175.88	146.62	153.19	171.69	175.38	158.88	155.00	175.19	179.19	156.69	152.06	193.31	252.56	249.81	237.62	225.81	228.06	260.94	270.44	236.12	214.12	221.44	202.25	178.19	152.75	134.25	128.12	144.62	182.62	211.75	230.06	203.00	186.69	185.19	185.75	170.06	159.19	147.50	142.00	147.81	146.69	169.19	161.31	133.31	134.62	149.88	138.75	143.62	152.00	139.31	108.62	121.50	141.19	148.88	142.69	128.50	108.31	88.56	97.81	126.19	134.94	135.50	134.50	130.12	128.31	132.50	136.31	134.44	113.56	76.88	75.88	77.81	103.44	87.00	76.50	78.06	78.06	78.44	78.81	79.75	92.31	114.44	134.25	142.56	87.75	81.94	79.75	78.06	87.50	154.81	168.56	169.56	145.81	182.38	191.75	165.88	177.81	195.19	183.62	180.25	157.44	148.75	142.62	159.12	182.69	167.81	140.19	155.81	198.94	182.38
152.12	171.50	173.38	166.88	168.94	148.12	135.62	124.00	120.44	123.88	128.56	127.00	146.56	149.00	148.06	146.69	141.50	129.00	123.75	138.31	140.12	138.88	150.50	134.06	115.81	92.56	62.44	59.50	101.44	145.38	149.19	150.06	149.69	145.62	140.94	144.12	123.88	124.12	124.44	141.00	129.00	90.38	84.44	87.94	101.88	143.62	195.00	207.94	208.94	189.94	174.25	142.19	185.44	211.56	215.94	213.06	229.12	226.25	187.19	172.50	180.31	173.69	128.06	110.44	88.44	74.38	121.00	203.44	214.12	184.81	168.00	133.31	130.56	218.94	235.38	176.69	156.94	196.31	235.75	248.50	236.50	244.62	256.00	233.31	205.81	194.94	216.69	242.94	223.50	190.06	166.38	171.31	212.94	262.81	273.56	244.00	214.81	208.31	191.38	171.56	148.56	123.75	105.25	151.19	176.25	212.56	221.50	200.50	194.56	205.62	206.75	196.31	157.06	121.75	107.25	95.12	84.19	78.81	78.50	108.44	147.88	176.38	208.00	203.12	234.19	234.88	230.69	222.88	224.19	223.88	220.31	211.94	204.00	189.94	184.12	174.25	157.06	132.94	122.69	121.44	111.69	100.75	110.94	132.12	142.56	166.31	164.62	148.44	162.75	181.00	185.94	154.38	176.19	191.94	185.88	158.12	150.50	188.56	245.38	248.94	248.44	237.19	246.00	271.31	259.00	229.62	209.56	196.69	180.75	156.94	133.81	146.19	145.12	143.62	204.50	237.88	229.88	197.31	182.12	171.50	169.38	165.56	171.25	166.12	163.12	139.38	126.56	124.62	130.06	118.94	116.62	117.06	115.75	110.31	109.00	102.75	97.38	98.94	100.50	104.81	105.12	96.62	85.94	100.94	132.44	145.94	144.50	135.00	128.81	121.81	119.38	118.06	119.25	109.88	117.19	85.06	76.88	77.12	75.81	76.94	79.31	79.19	78.62	78.94	83.19	94.94	129.50	143.06	150.00	126.94	82.81	80.88	80.75	93.56	158.12	190.38	157.62	140.31	139.38	191.88	196.12	152.69	150.88	179.88	197.44	191.62	191.19	168.81	151.06	135.94	146.50	181.81	156.88	140.06	189.62	186.31
153.12	160.38	154.56	156.38	157.38	132.75	118.75	119.38	127.06	134.50	136.81	130.62	151.25	152.19	148.56	158.75	153.94	140.25	135.56	151.81	142.69	146.00	146.31	122.00	103.00	81.56	62.75	65.62	113.75	136.00	142.19	153.19	162.19	154.75	147.75	148.88	135.56	133.56	137.31	133.38	104.50	96.31	105.12	111.44	85.44	88.75	151.62	207.12	204.12	163.94	130.69	175.62	213.81	213.25	188.62	216.94	235.38	200.44	201.38	222.06	199.19	160.69	155.25	117.62	94.75	76.25	101.12	202.75	228.62	212.44	197.38	142.88	129.44	189.06	224.81	209.38	182.31	173.19	202.19	226.81	264.62	266.31	262.62	252.62	222.94	257.19	263.19	256.50	222.94	184.94	164.50	169.38	248.94	270.00	273.62	267.38	264.56	233.69	194.19	170.94	147.62	141.19	114.00	142.62	176.44	200.06	217.31	213.25	211.12	199.56	177.50	155.00	130.94	105.00	95.69	96.19	87.94	80.12	78.62	97.81	155.94	196.38	167.38	211.69	215.06	228.25	246.12	240.94	246.50	240.38	225.69	212.50	203.81	186.88	174.19	154.56	137.25	131.69	138.06	120.25	102.19	117.06	132.50	152.56	168.75	163.69	162.50	166.31	185.94	195.88	182.06	168.25	193.25	200.75	184.19	173.50	154.81	196.06	245.31	263.62	255.94	252.56	262.88	262.81	214.25	195.44	187.69	169.81	145.44	139.94	160.50	179.88	151.50	135.38	180.88	232.19	217.50	204.25	198.06	194.56	194.00	186.25	195.44	189.62	180.88	146.75	126.62	138.75	144.69	137.81	151.44	143.00	140.06	128.44	120.19	116.44	117.88	125.88	128.56	127.31	126.31	104.44	87.69	120.38	131.62	140.88	138.44	138.50	137.62	130.44	124.56	113.06	99.56	88.56	90.88	79.94	76.00	74.75	76.81	79.56	80.62	79.50	82.19	86.31	95.69	127.38	162.94	164.69	138.94	92.38	82.44	80.69	82.75	160.38	174.62	192.12	143.00	113.25	140.12	141.62	190.62	167.19	134.25	182.00	170.75	170.81	209.25	208.88	178.19	157.00	135.44	187.50	165.69	131.88	165.75	193.38
152.44	147.31	138.31	143.44	131.94	115.81	118.00	123.75	136.44	142.81	145.31	133.06	152.06	157.56	151.75	160.38	162.69	152.25	152.06	163.44	153.00	152.62	145.69	120.62	95.19	73.25	62.81	64.31	112.44	129.69	140.81	150.25	168.25	147.88	134.50	151.44	147.94	145.56	146.88	130.69	112.75	110.94	107.56	118.62	98.50	98.19	105.69	190.19	199.31	167.12	127.12	190.69	209.56	216.19	171.38	215.88	233.31	225.06	233.06	237.69	210.00	194.00	143.06	117.12	101.94	79.94	88.31	153.31	230.88	230.81	194.12	159.75	133.56	140.19	199.06	238.25	219.56	198.69	219.00	228.75	245.19	267.38	270.62	251.50	257.50	249.00	220.75	199.94	181.25	169.44	173.31	171.44	209.12	234.44	266.88	262.25	259.75	235.06	193.19	164.94	165.56	144.69	123.56	134.56	185.25	207.94	223.31	220.69	205.00	178.19	161.19	141.94	120.56	102.56	105.69	117.19	100.25	83.12	78.94	81.75	134.62	199.00	156.19	208.50	183.31	236.44	254.06	251.75	254.31	249.88	236.88	224.12	203.38	166.62	154.31	150.75	144.50	149.31	139.38	112.75	107.06	156.69	164.50	174.19	178.81	175.38	182.19	180.81	200.25	210.31	181.06	186.50	210.94	208.75	195.50	177.62	157.81	197.31	215.06	249.38	262.06	267.12	255.00	238.19	188.69	163.00	158.00	145.00	137.56	165.81	191.38	191.12	155.62	133.62	161.50	208.38	225.81	218.69	216.00	213.50	202.44	210.44	208.31	184.69	172.38	127.25	150.88	166.75	159.81	150.19	167.56	170.12	164.69	152.50	136.94	130.19	139.69	149.25	146.62	139.12	128.88	103.81	85.75	92.94	114.50	130.56	150.19	155.75	146.75	135.94	134.94	113.81	97.44	99.38	94.44	84.50	79.12	77.25	77.75	81.19	79.50	82.94	87.88	92.75	119.44	161.50	186.38	160.44	109.94	80.38	80.19	79.81	95.62	182.88	161.56	200.00	160.38	118.50	117.06	150.06	203.19	169.00	134.75	181.12	146.75	166.12	192.06	206.56	174.56	160.00	136.06	159.25	174.25	130.94	153.44	188.69
141.69	129.19	118.06	114.38	114.75	118.12	127.25	137.31	145.75	149.88	141.94	136.88	141.19	162.62	159.50	155.12	161.62	166.75	170.38	178.75	169.38	166.19	144.94	115.19	98.31	81.12	67.00	58.25	115.50	123.56	106.81	110.75	109.06	112.31	127.31	145.88	164.19	161.56	158.38	155.06	141.81	141.19	137.56	139.19	122.88	113.12	94.25	117.19	156.88	167.25	140.31	181.50	163.12	182.50	164.94	216.44	211.12	206.88	237.38	233.12	179.88	149.81	138.25	120.12	105.25	98.38	77.81	121.06	157.94	216.44	225.75	200.06	152.31	137.75	158.62	233.00	247.44	248.56	264.44	259.75	260.81	267.88	266.75	269.62	247.38	238.12	201.12	194.50	199.56	199.62	190.62	194.75	194.06	216.62	241.25	236.81	247.38	223.81	190.81	181.31	165.69	135.81	126.00	129.12	172.62	194.25	227.94	223.00	203.94	179.44	158.12	129.19	123.00	123.00	115.31	126.88	117.31	105.75	83.00	79.56	120.69	153.12	143.19	145.44	193.19	250.19	248.81	235.38	229.94	242.00	222.56	198.62	173.88	171.75	177.12	172.12	163.06	155.88	121.00	104.06	143.19	192.25	188.31	193.50	190.50	194.06	193.25	193.31	210.94	220.88	188.50	220.88	242.75	224.50	202.50	171.75	164.38	163.88	192.62	199.62	245.00	243.31	213.88	197.31	192.38	182.31	158.25	140.31	167.12	192.19	209.81	193.38	164.38	145.19	141.50	168.25	199.00	225.50	226.81	228.00	235.12	238.94	205.25	170.50	140.19	150.06	193.00	209.00	187.38	172.38	176.62	165.88	157.81	150.06	129.19	124.12	132.75	142.44	130.94	118.31	103.31	93.94	85.94	85.06	105.88	148.62	165.44	170.94	158.44	153.44	143.06	112.94	109.62	116.50	96.12	88.19	88.44	85.19	83.19	91.25	95.06	93.69	93.69	121.31	158.44	171.00	173.19	131.31	98.06	81.12	80.00	78.69	95.06	178.62	135.19	159.31	148.44	137.62	109.19	161.94	217.06	159.25	129.69	148.88	133.25	152.69	176.50	205.69	170.44	163.56	139.38	135.56	175.62	134.88	145.94	175.75
121.12	110.62	112.31	115.31	120.00	123.62	137.81	151.69	158.31	149.25	145.44	141.69	138.12	156.19	164.06	158.44	157.81	163.81	172.88	172.88	168.31	165.12	140.56	117.88	109.88	92.69	71.69	60.06	90.94	64.00	61.88	61.81	59.88	81.44	103.31	135.62	153.12	160.62	168.81	163.75	162.38	159.69	166.50	166.69	141.62	121.12	116.31	88.62	96.31	125.50	118.81	135.06	129.19	135.38	151.44	169.00	178.50	202.00	230.69	238.75	214.00	181.81	145.50	132.12	122.38	111.62	88.38	82.50	126.25	195.88	233.19	227.62	178.75	145.06	142.38	227.50	248.38	242.81	270.88	274.50	266.56	253.19	248.50	268.50	252.56	251.38	207.44	230.19	238.94	212.25	201.50	207.50	212.62	210.00	225.50	237.56	249.38	225.25	211.38	188.88	162.19	155.88	141.12	122.06	158.56	204.88	231.19	219.69	193.81	167.06	142.81	131.31	147.62	124.44	134.38	140.12	132.44	116.69	88.88	80.75	83.19	94.56	137.19	180.75	221.62	227.56	232.25	230.81	211.88	202.12	192.56	182.12	185.62	189.88	188.75	171.62	149.75	137.62	115.69	114.19	179.44	211.12	205.62	200.38	198.62	196.06	186.75	194.06	216.50	224.00	199.06	245.88	244.19	210.88	180.69	181.88	187.38	173.50	177.12	189.31	216.88	235.69	226.56	224.44	202.56	165.44	153.12	150.25	187.94	223.19	218.56	195.69	173.81	148.25	136.94	155.25	189.75	226.06	210.44	198.62	197.50	196.31	183.44	160.25	135.50	168.06	211.06	222.88	201.56	182.62	157.38	136.94	125.44	120.19	114.50	114.44	111.12	112.69	116.44	117.75	102.19	89.00	87.31	91.75	104.00	135.31	154.56	176.25	161.50	140.56	125.75	119.31	114.69	130.31	106.69	100.25	96.56	96.38	99.31	123.62	133.94	120.06	112.44	142.31	151.12	143.19	141.50	134.81	112.81	80.69	80.06	82.94	87.06	145.38	107.81	102.94	103.25	112.38	104.38	167.06	197.62	180.62	138.12	127.25	121.56	144.81	186.94	203.50	181.75	163.75	142.94	125.50	184.38	143.81	118.38	165.31
108.00	110.25	115.38	124.88	127.12	134.25	150.12	167.69	168.62	157.00	155.81	144.12	139.38	143.62	152.44	158.31	158.44	160.44	163.00	168.88	168.31	156.19	138.12	129.19	119.44	98.69	75.25	65.62	60.12	67.06	66.56	64.94	64.00	67.19	78.06	123.94	128.38	148.44	151.00	144.38	133.56	143.19	163.88	178.62	171.31	160.69	130.75	107.06	114.31	106.44	94.12	128.56	181.56	192.06	199.19	198.44	213.88	229.06	243.06	243.44	243.94	214.06	177.94	166.44	136.69	104.25	110.44	87.94	88.75	160.50	205.31	236.75	217.00	173.38	146.25	151.06	164.75	187.62	237.19	210.88	208.19	218.25	248.25	280.44	278.94	264.12	220.81	241.94	242.12	226.56	221.25	224.25	236.69	219.19	257.19	268.25	270.38	244.12	201.62	176.94	184.06	164.12	151.38	122.69	161.31	199.25	220.12	203.69	186.50	161.19	155.38	154.38	148.88	135.75	145.75	139.31	118.94	113.31	96.62	83.75	81.44	79.62	149.12	197.19	199.50	187.25	189.81	230.94	213.06	196.81	193.88	197.62	203.38	199.69	184.56	160.56	146.88	147.94	114.81	134.94	184.19	222.00	207.94	211.44	201.56	180.19	179.19	193.12	221.56	226.62	216.06	251.81	230.75	201.88	192.62	210.12	196.50	193.19	193.38	201.12	212.56	241.69	241.50	221.38	179.62	160.75	180.44	156.50	201.31	241.19	226.62	199.94	172.31	151.75	151.56	198.00	230.25	220.69	203.88	191.75	174.75	164.06	154.81	144.12	143.31	165.62	202.12	197.12	178.31	160.56	141.00	135.38	135.88	143.25	136.06	131.94	140.88	147.44	135.25	112.69	90.94	91.12	102.75	117.56	110.19	136.88	156.00	171.50	149.88	127.44	126.50	135.25	123.38	137.00	130.06	120.56	110.00	112.75	120.00	145.81	157.00	137.75	127.69	139.62	124.69	116.81	125.00	132.81	121.62	81.50	81.25	81.62	80.62	87.88	83.81	83.81	82.81	82.38	86.81	130.38	154.06	163.06	146.12	107.94	116.06	147.88	169.94	197.62	171.81	154.44	142.19	121.25	160.56	121.19	119.38	174.94
112.88	118.44	117.31	128.81	133.81	135.81	147.19	164.12	171.56	173.62	165.50	149.19	143.44	145.06	143.94	149.69	157.94	160.62	161.69	165.06	170.81	156.69	131.44	118.44	99.81	90.69	90.31	79.06	77.38	84.25	78.88	79.88	85.19	65.56	66.31	74.62	82.06	101.88	111.38	123.50	141.44	154.56	156.31	175.88	189.50	179.31	125.44	158.75	159.12	119.88	104.75	115.94	174.56	205.06	191.81	212.75	210.56	233.56	230.75	229.88	223.38	230.38	222.81	181.12	138.44	122.69	128.56	103.62	81.19	137.69	155.62	172.69	211.62	212.31	186.62	170.62	176.69	179.19	170.94	203.94	225.44	227.31	255.88	288.06	265.75	241.31	233.69	247.44	257.19	253.75	247.62	257.81	256.75	228.81	254.12	276.88	269.94	225.69	200.12	206.81	206.94	174.69	155.94	126.44	156.38	186.69	207.56	187.56	180.12	175.81	167.62	171.94	169.19	161.19	148.31	123.12	121.00	123.31	99.88	87.88	82.31	79.62	110.88	174.25	155.75	161.06	190.56	213.62	199.19	193.06	201.94	216.44	219.50	202.12	181.69	162.56	153.88	147.19	115.62	109.88	169.12	171.25	201.75	219.19	184.62	175.12	209.25	212.75	238.50	245.56	248.19	252.69	231.12	215.50	217.75	229.75	212.69	220.38	202.75	243.50	246.44	247.00	217.12	193.50	179.94	194.56	191.88	162.19	221.88	241.00	218.81	196.62	181.62	158.94	157.94	224.62	228.62	224.12	221.19	206.06	197.69	189.44	170.19	146.06	167.06	203.06	206.06	182.50	155.12	138.81	156.69	166.25	158.81	166.00	152.88	151.00	160.12	149.56	127.06	100.75	93.62	126.19	144.00	136.25	119.00	129.94	169.38	170.25	143.56	136.00	144.38	143.94	134.06	150.94	155.31	143.69	133.44	144.38	150.06	159.81	147.25	120.62	103.44	104.44	98.44	99.81	118.06	136.88	117.00	81.19	82.94	83.06	80.50	84.12	82.75	83.44	83.12	82.62	84.31	82.06	85.44	101.94	123.25	105.62	122.88	137.81	158.75	193.19	191.31	177.12	160.31	133.75	121.44	110.00	149.75	175.50
121.44	133.12	122.12	131.00	143.12	140.44	149.25	153.69	165.81	179.06	164.12	150.12	151.31	155.12	149.88	147.81	157.50	157.19	150.62	161.06	164.69	156.94	136.69	117.62	103.56	109.00	105.94	99.06	100.94	104.12	79.38	103.56	105.06	72.62	72.25	73.38	65.75	84.00	122.06	147.00	159.50	170.88	170.12	176.75	189.56	173.69	137.50	182.88	161.62	132.12	128.62	109.88	136.62	177.88	186.69	184.50	214.19	230.81	224.44	208.62	187.12	219.69	225.75	188.44	156.81	129.56	113.81	97.94	84.38	95.25	112.00	133.50	152.38	187.44	230.38	220.06	226.19	214.06	180.44	217.12	258.50	265.56	280.06	282.25	253.81	247.81	266.19	273.75	270.25	257.69	255.38	271.00	256.88	251.38	256.06	267.25	274.00	243.81	232.75	217.19	191.62	159.00	143.81	132.50	148.56	184.50	211.94	198.25	193.44	187.31	185.00	192.44	199.38	178.75	144.31	129.50	133.38	125.62	105.50	94.50	84.81	80.69	83.88	127.38	122.12	159.31	172.81	157.44	167.38	186.44	224.44	239.19	227.69	207.19	187.81	160.00	135.50	132.44	138.44	129.19	112.69	158.62	209.75	202.00	151.50	181.00	220.50	234.94	259.75	251.50	241.00	249.00	248.00	236.81	251.62	239.25	237.12	226.25	220.06	259.25	255.75	220.06	186.06	183.50	212.19	217.56	188.69	176.62	226.38	242.81	224.62	201.12	184.19	173.50	159.62	209.94	213.69	238.81	232.62	224.06	205.69	185.56	158.25	157.62	193.44	221.38	199.88	168.75	145.56	160.31	184.12	182.81	182.25	163.81	156.00	161.25	161.12	143.00	118.38	94.94	98.62	144.25	173.75	159.88	146.31	140.12	167.00	157.44	145.19	154.56	164.69	157.31	155.88	165.19	168.25	161.25	155.88	157.19	156.00	145.62	121.81	103.00	94.62	92.31	94.69	95.19	97.81	105.19	89.94	80.88	83.19	81.50	81.94	81.12	81.56	83.19	83.06	84.19	84.44	83.31	80.31	80.06	85.50	104.00	134.44	164.56	180.44	205.00	197.44	189.62	180.75	142.56	136.56	114.56	129.44	146.44
125.50	141.62	128.94	130.31	148.69	148.19	160.25	166.81	178.31	182.12	162.69	157.38	162.81	161.75	152.50	152.50	163.50	159.38	142.94	147.88	138.94	151.50	135.62	121.31	121.25	128.50	123.31	119.44	118.44	98.12	96.88	119.06	115.38	94.94	94.44	93.50	75.69	67.69	121.38	155.44	163.75	175.69	178.62	186.94	195.31	175.94	167.12	180.44	168.94	147.38	160.69	124.56	102.19	128.12	151.50	194.69	231.69	221.75	212.19	159.94	178.62	223.94	240.69	222.38	172.94	132.56	128.31	111.81	93.75	82.81	117.44	168.81	181.44	177.44	217.44	241.00	263.12	237.88	192.81	204.44	231.12	253.62	278.88	282.50	272.81	278.06	284.94	278.19	237.25	224.19	250.75	276.44	268.81	274.62	275.25	281.69	277.94	245.50	207.81	178.12	172.69	174.50	164.56	142.81	144.19	169.94	193.62	205.75	202.56	196.69	199.31	214.44	204.50	174.56	153.56	149.56	148.19	120.81	107.12	112.62	94.00	85.69	80.75	81.25	87.31	93.06	105.50	142.69	174.12	176.12	226.50	245.62	221.12	197.81	180.31	151.38	136.50	147.81	157.25	136.12	109.19	151.88	204.69	160.50	150.00	180.69	215.38	256.38	257.06	239.25	222.88	226.38	248.56	248.81	252.06	238.31	248.94	237.50	258.12	277.56	259.56	211.38	188.12	197.81	232.88	214.62	203.75	189.50	237.88	236.44	218.44	213.38	204.44	193.25	164.19	180.81	211.88	247.62	225.50	208.12	194.69	184.19	161.75	183.88	223.75	201.12	170.12	155.94	151.06	190.25	204.81	199.06	183.56	151.94	141.56	144.38	149.56	138.31	109.94	92.75	107.62	141.19	186.12	184.56	174.75	170.62	166.19	157.31	167.62	172.19	176.31	174.69	175.31	168.69	159.94	156.75	148.56	151.62	141.25	121.62	106.44	96.88	92.88	90.62	90.50	89.62	86.12	84.50	81.44	86.44	91.00	90.38	80.75	81.12	83.31	83.06	82.81	84.19	83.94	84.00	83.56	83.00	83.12	89.06	114.50	149.25	184.38	219.50	213.81	189.06	178.81	167.94	133.81	115.31	110.06	163.00
126.62	140.25	141.88	129.38	147.44	160.25	173.56	169.25	165.62	174.19	178.44	178.62	167.25	158.50	151.19	153.38	171.75	164.56	140.50	132.44	124.19	126.38	124.88	127.19	133.75	133.00	127.75	127.75	125.06	82.38	109.75	130.25	128.19	127.38	113.62	109.06	88.25	84.12	75.62	116.62	142.56	172.69	179.31	193.69	199.62	185.62	186.62	188.88	181.25	177.25	182.38	139.19	115.44	100.56	125.06	173.62	215.06	197.56	193.69	163.31	176.75	241.50	253.06	249.25	202.00	154.75	147.06	114.12	108.75	87.81	90.69	155.69	230.19	205.38	232.06	266.12	269.19	238.81	211.88	246.50	270.25	281.12	286.88	282.38	255.12	274.94	278.00	254.06	214.12	204.50	250.12	214.75	227.38	230.31	267.62	281.50	275.75	228.06	189.25	192.31	198.31	180.00	167.69	151.25	128.25	153.25	176.56	201.00	210.38	210.25	212.62	221.50	198.50	176.62	173.06	160.56	143.75	127.06	129.56	123.88	100.19	92.69	86.50	87.81	85.94	82.88	81.69	111.56	145.88	173.19	207.00	212.12	218.00	194.62	175.31	161.81	169.00	174.12	158.00	144.00	117.31	145.12	152.00	141.19	183.12	211.50	231.56	256.25	230.44	223.88	221.06	190.19	215.06	213.44	204.19	220.75	256.75	268.00	292.31	275.69	262.94	219.75	211.88	214.38	237.75	227.69	225.88	201.19	231.62	236.88	242.81	234.06	206.25	181.75	161.62	166.19	218.94	243.69	227.56	224.12	205.69	179.31	175.06	198.12	221.94	194.31	184.69	164.75	182.38	229.75	205.31	183.50	166.12	150.19	141.50	134.62	121.81	124.75	102.62	92.75	114.94	155.94	196.94	195.56	193.06	186.31	173.88	168.38	171.06	166.19	157.88	157.88	159.75	149.31	145.56	135.25	129.31	131.94	129.75	108.75	100.50	96.31	92.62	90.69	89.31	87.88	83.94	81.50	87.38	104.75	136.50	106.12	86.81	85.69	84.31	80.62	83.06	82.88	83.19	83.44	83.06	83.06	82.94	83.31	80.38	117.62	191.12	209.12	224.75	203.88	175.19	158.94	154.94	124.62	108.19	134.06
133.12	140.50	148.56	135.50	137.31	146.12	156.31	152.75	158.25	162.69	172.25	181.19	167.75	162.25	156.06	154.88	168.31	166.38	144.69	141.00	126.75	123.19	114.00	110.19	109.69	102.38	103.06	105.75	102.81	81.62	102.31	116.06	130.50	140.12	120.31	116.38	105.75	106.19	71.44	81.81	141.38	156.25	176.50	188.19	187.94	192.25	178.50	191.06	194.88	191.94	178.88	155.44	149.00	120.06	101.94	120.81	191.00	159.25	150.31	190.44	191.94	235.12	246.44	249.25	186.94	200.56	158.12	123.88	114.25	93.50	82.44	107.38	230.44	241.81	263.12	276.69	278.00	270.50	234.75	262.44	281.12	291.38	293.50	264.56	224.88	223.56	252.38	222.12	192.50	166.69	183.75	176.69	191.19	210.00	254.31	279.88	270.12	228.81	214.56	224.00	213.44	181.44	164.69	141.50	135.62	173.12	188.81	208.75	234.69	227.06	227.56	229.56	212.12	198.25	178.38	152.38	135.88	146.62	142.38	124.69	105.50	109.44	95.56	104.56	102.12	87.44	82.81	84.31	125.19	163.56	199.44	187.69	208.38	179.81	163.69	175.81	184.75	180.25	151.19	157.56	131.50	117.75	124.25	173.00	217.94	243.81	255.62	252.00	222.44	204.38	222.94	184.19	180.00	181.81	188.06	200.44	234.88	256.94	279.88	251.31	259.19	236.44	233.56	233.88	236.25	247.50	235.94	216.31	240.81	253.38	238.56	213.94	190.81	188.94	171.56	171.81	212.81	255.06	241.81	221.94	187.94	200.88	195.06	219.75	217.81	205.44	194.06	164.94	212.56	226.12	194.69	182.56	166.50	149.75	134.81	125.69	114.81	113.00	102.81	92.88	118.69	177.00	203.00	187.06	178.06	182.06	172.38	159.00	163.81	168.38	159.75	153.25	146.88	141.62	141.69	135.94	133.00	123.50	113.75	104.88	99.31	96.25	93.38	90.50	88.50	84.75	82.69	88.88	109.94	142.38	161.75	109.69	88.06	85.88	84.38	83.06	83.69	83.25	82.88	83.69	83.69	83.06	83.00	82.50	80.12	109.88	180.62	203.00	231.31	218.88	187.31	149.94	165.88	132.12	111.62	120.12
141.38	146.44	153.31	140.69	141.06	145.75	152.19	156.38	164.56	167.62	171.75	182.50	172.19	164.25	162.81	159.69	170.19	176.12	160.38	139.06	135.25	124.12	118.62	117.50	112.88	96.00	98.31	96.19	96.25	99.56	94.19	106.69	122.81	140.75	133.12	120.19	129.94	123.69	89.31	64.00	112.12	160.88	182.19	172.00	179.94	186.00	165.25	191.12	197.44	189.12	184.56	189.56	174.31	159.50	126.12	116.56	134.44	129.06	178.38	224.12	217.06	222.00	245.44	247.12	225.31	229.19	168.69	136.69	116.88	107.81	85.50	89.00	171.19	240.62	278.31	238.44	282.94	279.44	258.06	272.50	273.50	275.44	275.12	253.75	227.19	190.00	177.38	183.38	155.56	159.44	182.44	213.94	215.75	223.00	267.19	289.50	279.44	260.69	243.38	226.12	200.00	184.62	172.38	142.38	137.25	179.19	205.62	219.12	249.12	250.44	249.00	241.00	216.88	186.69	167.56	157.56	152.56	166.69	149.62	124.62	130.12	126.75	107.19	115.56	106.69	93.56	86.19	83.81	86.38	132.56	144.69	202.94	196.81	179.69	185.12	190.81	191.62	175.69	160.75	162.06	138.88	128.75	118.56	195.81	230.31	248.31	236.50	236.69	219.19	185.88	199.06	162.06	169.62	203.38	217.50	200.31	234.62	278.19	266.38	225.56	251.25	261.94	259.31	265.88	253.19	252.50	256.88	244.38	271.25	257.12	228.75	218.81	209.12	185.81	160.69	186.69	249.50	253.19	221.69	201.25	206.75	228.50	215.25	229.00	218.06	215.19	188.75	171.94	221.06	222.62	187.19	162.44	141.25	128.44	124.31	134.12	138.62	126.75	99.19	98.81	158.50	194.38	185.06	174.44	163.44	170.06	162.50	150.38	158.44	168.25	164.88	153.50	156.38	153.69	154.44	141.81	133.12	120.06	108.88	103.25	99.19	95.69	92.88	92.25	89.56	85.19	100.50	137.19	162.00	184.12	161.69	105.94	89.56	87.25	85.94	83.06	86.56	83.56	83.62	84.25	82.81	82.69	82.19	82.12	81.56	95.75	155.50	199.50	223.44	214.31	196.50	143.31	145.56	124.81	113.31	109.38
147.25	150.88	158.62	146.94	145.31	150.81	165.12	171.69	178.56	177.31	182.12	176.69	168.62	173.38	169.88	165.50	168.62	178.44	170.06	147.25	142.50	133.50	121.31	110.06	101.44	106.44	110.81	100.06	112.50	103.94	100.56	115.25	127.31	137.69	121.75	113.56	139.12	137.56	108.06	68.06	86.50	140.75	165.19	164.81	172.88	155.69	169.50	189.12	185.62	174.19	189.62	197.94	198.06	176.81	161.94	172.25	116.62	126.88	217.19	227.25	242.69	240.88	249.94	245.19	243.25	246.00	196.38	168.62	141.75	113.50	93.62	85.88	125.69	229.75	233.88	198.25	282.62	239.44	240.50	286.94	243.88	267.56	225.31	265.69	248.56	185.06	160.88	143.69	161.12	188.44	206.69	245.19	250.12	242.19	268.56	288.31	286.62	268.75	238.12	222.31	204.69	180.69	157.44	143.94	147.31	161.19	192.19	219.00	251.19	277.88	269.12	235.88	205.12	184.75	179.38	166.12	172.56	174.31	149.94	145.94	153.44	129.94	125.69	125.19	113.38	98.12	91.75	87.12	83.81	83.00	144.12	187.88	190.88	191.69	194.94	200.25	194.94	179.44	174.62	147.44	153.31	136.62	112.12	204.50	214.19	231.38	213.12	192.69	202.81	158.06	155.38	182.88	207.06	221.06	230.69	213.38	254.56	284.00	255.75	217.19	212.44	232.38	246.75	252.12	234.69	244.56	267.31	279.00	282.69	252.75	227.75	217.38	184.50	171.69	178.31	179.50	234.88	241.94	226.19	217.38	240.94	248.06	250.00	225.88	218.06	203.12	173.00	194.31	220.25	203.00	171.75	148.88	139.06	147.94	147.56	150.31	143.31	129.31	97.88	113.62	161.31	168.31	169.31	171.19	164.38	161.19	153.56	145.19	143.94	153.62	160.19	162.69	172.06	166.06	152.12	139.38	128.50	117.31	111.06	104.69	100.38	95.81	93.44	92.62	87.69	86.56	110.31	157.81	154.81	165.44	167.25	104.44	90.19	87.75	86.88	83.31	83.75	85.19	86.69	85.38	83.00	82.12	82.44	80.44	83.56	85.81	134.06	181.69	219.44	210.19	203.88	166.69	138.19	133.00	124.19	126.81
155.50	160.06	165.94	155.81	154.94	160.56	173.00	179.75	176.38	182.62	166.50	155.75	174.56	168.06	168.62	167.75	167.75	176.75	174.38	164.75	147.19	136.00	119.69	105.69	109.62	119.69	108.94	118.12	114.19	103.06	107.38	128.69	138.75	130.75	115.06	120.81	134.44	146.69	121.00	85.56	66.88	75.50	126.38	139.62	127.69	148.94	173.38	188.75	158.62	180.69	197.19	197.88	207.31	205.62	202.62	209.25	143.44	111.94	177.00	187.06	229.94	251.25	241.31	222.50	229.62	256.19	242.81	203.44	146.81	124.12	114.94	91.44	101.75	185.00	153.06	224.62	281.38	220.50	212.25	255.69	190.19	185.44	196.94	264.75	225.81	165.81	137.06	153.69	181.62	204.50	216.56	253.94	280.44	267.75	285.50	293.44	286.25	274.56	237.69	191.50	161.44	146.19	163.88	176.31	162.69	177.94	191.12	216.56	258.94	293.56	283.56	253.81	209.69	190.19	179.31	176.19	175.38	167.62	156.56	167.19	160.75	152.75	151.25	144.56	134.50	108.31	98.19	91.06	87.25	84.75	98.00	168.62	195.06	196.81	205.88	209.38	195.19	191.56	163.06	154.88	165.12	141.56	116.25	194.31	182.50	196.06	177.00	152.94	156.38	150.44	175.50	215.56	233.00	243.81	242.00	242.19	276.00	280.44	250.50	215.00	192.00	200.31	209.19	217.94	238.94	241.44	279.31	291.44	255.75	232.50	215.38	196.31	194.69	215.44	195.19	200.25	222.50	263.81	253.06	248.19	271.50	248.75	222.50	209.69	205.25	192.31	193.69	223.50	186.50	166.75	160.25	173.94	167.75	170.56	157.50	147.00	142.50	131.00	103.50	105.62	128.50	147.44	167.75	184.38	179.88	174.25	166.69	155.56	144.88	136.12	137.19	168.44	172.12	162.75	154.69	140.88	128.81	123.31	115.88	102.12	97.69	93.06	91.00	89.88	89.69	94.06	93.44	103.50	112.38	126.19	129.12	97.31	90.88	89.62	87.94	86.31	85.25	87.06	84.44	83.94	83.88	82.50	82.12	81.94	82.56	83.06	146.75	204.00	214.00	196.06	210.06	195.44	185.69	166.06	142.38	134.25
172.38	173.31	177.50	171.50	167.00	173.38	172.69	161.81	161.25	176.00	142.44	151.50	166.94	150.31	166.19	165.25	169.88	177.19	173.12	170.94	152.56	132.12	119.44	114.88	129.38	120.12	124.31	129.19	115.81	111.88	114.44	130.88	144.31	132.75	125.75	130.00	140.56	151.38	129.69	115.56	74.81	74.00	127.94	127.38	122.50	170.00	183.38	186.56	145.44	192.50	187.94	188.50	210.62	217.69	227.12	225.25	185.38	124.56	128.88	201.00	248.19	248.38	200.31	202.75	245.69	258.81	248.12	193.75	151.75	143.75	122.38	106.19	89.75	106.00	126.25	252.81	230.38	175.38	198.75	197.75	143.88	177.12	240.94	249.31	181.44	133.38	144.81	188.62	215.50	228.94	236.94	267.25	286.88	289.38	295.38	292.62	291.50	261.88	209.94	177.44	155.69	160.06	183.19	178.56	170.88	197.94	210.69	238.75	291.81	290.00	271.81	270.25	225.44	198.50	185.75	180.94	172.62	165.81	170.81	178.50	175.31	174.06	168.69	166.94	140.69	116.69	103.56	93.56	89.00	85.69	85.00	163.69	175.81	193.19	206.75	218.31	205.94	190.62	168.88	179.94	163.56	153.88	122.12	151.25	144.50	137.38	140.88	147.12	157.06	185.44	198.56	241.50	249.56	258.62	255.94	268.44	267.56	244.44	233.19	192.69	195.81	220.69	224.75	238.81	266.44	264.75	295.00	291.19	241.81	202.25	180.69	196.62	238.25	221.88	209.56	249.38	273.62	278.06	273.94	274.12	277.88	255.94	240.69	231.38	214.62	211.88	213.44	200.31	186.81	192.44	184.81	198.25	182.56	163.00	144.88	134.00	131.00	122.19	109.94	100.44	137.00	175.25	184.06	198.06	186.25	168.44	161.56	153.06	142.00	131.56	127.69	153.06	148.19	138.38	137.69	122.50	114.31	108.88	105.38	99.81	96.19	95.62	91.06	96.06	103.81	99.38	93.31	95.69	99.62	102.69	100.94	94.44	91.81	90.12	88.94	88.81	89.50	93.69	104.44	92.75	82.75	82.00	80.75	84.00	82.88	85.12	152.25	206.62	192.12	177.50	205.75	223.38	226.00	196.19	155.81	133.06
172.38	176.94	184.31	170.38	171.44	168.50	158.69	147.81	163.19	169.00	136.88	147.56	143.69	140.38	161.62	155.38	170.12	161.88	161.12	172.62	147.94	134.31	127.75	120.06	135.88	135.38	143.94	130.88	133.88	113.50	131.44	151.75	157.69	149.56	145.12	142.31	135.44	126.12	129.88	78.56	73.06	118.88	154.00	120.19	90.56	122.19	155.94	136.94	131.50	157.00	158.12	157.12	178.25	200.25	226.06	225.25	184.38	135.12	114.81	188.50	233.69	230.81	172.06	229.12	246.31	256.12	246.62	227.50	202.12	149.12	113.88	117.19	107.75	91.06	93.75	213.19	186.25	138.12	139.19	121.31	170.88	243.62	251.31	184.12	136.88	143.88	206.25	245.88	258.38	266.12	270.94	288.25	292.75	292.69	286.94	265.19	234.88	207.50	178.50	161.06	153.62	176.69	191.69	178.69	183.44	213.19	242.12	272.00	304.38	281.44	257.75	251.56	258.81	237.81	221.62	196.19	182.12	177.62	195.25	202.69	205.12	202.38	186.62	175.06	147.25	124.31	108.00	100.00	90.75	87.56	83.88	114.62	134.12	162.88	204.06	224.38	209.75	197.44	194.12	186.81	160.56	141.00	128.12	114.88	129.56	158.06	173.75	175.38	191.00	208.00	233.56	265.75	273.44	268.69	258.00	260.00	247.94	224.00	187.62	183.94	226.31	251.62	254.62	266.38	267.31	280.94	294.56	281.81	227.31	193.94	191.94	245.38	236.38	225.06	239.94	274.00	256.75	228.25	249.81	252.81	243.19	245.19	261.25	243.00	238.94	234.00	208.19	204.75	211.62	219.19	199.19	180.94	168.56	160.81	150.56	141.56	139.94	124.19	102.31	101.31	127.44	154.88	179.75	199.88	187.69	158.56	143.19	136.00	133.38	135.12	126.31	122.38	118.81	118.06	115.50	111.75	108.31	111.69	117.69	109.19	102.12	95.56	89.88	110.19	119.56	100.88	96.88	96.00	97.62	97.56	95.75	93.75	91.75	89.44	88.75	90.69	95.81	126.12	158.38	140.38	89.88	81.50	81.56	83.25	82.62	85.62	147.38	201.38	179.50	167.75	201.88	203.94	219.69	180.00	177.81	158.38
169.31	178.38	174.88	150.62	156.12	150.62	137.44	138.44	167.94	152.94	128.56	147.56	128.31	153.12	159.12	135.31	132.00	143.56	163.12	175.94	165.69	154.25	141.75	144.62	149.31	158.25	152.38	150.38	134.56	119.81	146.38	165.31	173.50	174.69	164.12	140.81	125.12	124.62	98.00	69.69	109.88	154.31	135.50	79.50	82.56	106.75	95.50	106.06	121.50	133.56	146.62	153.62	197.62	226.62	233.69	216.06	184.88	145.81	125.19	121.56	157.75	190.38	152.00	221.12	241.94	213.44	250.12	254.31	203.44	142.12	129.31	136.50	123.44	106.31	92.88	98.69	96.44	92.31	92.94	119.38	178.31	252.44	231.75	153.25	114.31	186.94	194.38	201.00	263.94	280.50	281.50	294.12	293.62	282.00	264.06	228.50	214.12	209.12	182.06	156.56	166.56	218.75	193.50	183.19	201.50	248.50	277.12	299.38	306.69	294.56	264.88	240.88	228.38	235.69	272.75	240.94	209.88	204.56	216.56	212.00	207.94	196.06	183.12	166.88	138.56	124.19	117.56	102.31	92.94	87.75	86.00	85.12	121.06	174.62	195.81	219.75	219.25	210.06	210.31	194.94	154.19	138.50	148.62	122.94	138.56	184.81	200.56	193.44	204.69	231.06	267.31	292.38	294.88	273.25	243.94	217.25	222.50	215.38	177.94	217.44	250.12	267.69	263.75	242.56	243.88	264.50	283.75	257.81	224.69	226.69	237.75	255.94	252.06	260.00	270.62	269.19	248.75	212.56	199.19	231.50	205.69	209.69	243.94	250.19	246.69	215.69	192.06	184.19	181.06	195.06	192.94	181.62	178.38	163.75	148.06	143.06	128.38	107.62	95.38	104.06	131.62	154.44	162.62	189.38	192.12	159.44	150.44	139.12	147.31	135.62	129.62	136.00	132.88	132.31	123.75	120.44	123.06	121.88	123.19	110.56	102.19	94.81	94.94	127.88	127.88	102.75	96.31	95.25	96.88	96.19	94.69	93.38	91.50	90.31	91.69	94.94	97.25	118.88	142.00	108.38	90.75	81.19	80.50	81.19	83.00	86.31	147.56	204.56	183.06	158.38	185.00	205.50	212.38	163.62	187.31	171.31
176.69	165.25	151.38	145.81	129.06	131.31	124.25	138.38	156.00	136.12	118.31	138.44	130.62	144.00	149.81	124.69	141.69	166.81	179.62	196.19	190.56	177.88	166.31	172.94	172.06	175.00	160.44	166.56	140.81	131.31	163.06	163.69	159.25	171.00	148.31	131.06	116.31	117.31	122.81	96.69	75.75	85.06	76.44	70.69	92.06	122.88	124.50	120.38	164.38	178.00	189.06	175.00	191.44	227.31	234.94	233.12	194.38	138.69	141.38	142.19	128.06	162.19	154.81	232.62	179.50	251.88	254.62	251.31	178.31	155.81	141.25	121.12	117.56	132.00	120.69	102.31	115.62	106.31	98.44	94.69	143.31	229.62	188.88	123.75	110.31	160.25	144.81	156.50	237.00	228.38	273.25	286.69	283.44	278.50	261.94	251.25	236.19	204.06	175.31	159.31	185.81	243.69	207.44	204.69	227.88	279.12	298.12	303.00	295.25	274.19	249.00	235.00	217.31	199.62	201.81	230.44	244.31	230.25	222.44	209.38	194.44	181.19	167.38	156.69	161.75	146.62	126.69	110.38	93.00	89.38	86.19	84.88	141.00	165.81	168.62	219.06	234.50	219.56	205.56	179.69	164.00	149.81	162.19	129.75	158.31	192.50	219.69	208.44	222.94	261.88	282.38	269.19	309.25	291.75	251.31	215.62	192.38	188.06	174.44	238.81	272.19	243.31	213.12	205.75	233.00	252.12	269.88	283.69	270.06	267.12	261.75	267.69	267.81	278.69	264.12	240.56	223.06	202.19	186.12	190.31	203.44	184.94	195.44	246.69	260.12	224.38	205.44	185.31	169.94	160.94	153.88	143.00	140.88	129.44	123.62	120.38	115.19	98.31	99.38	118.69	149.19	181.81	192.31	190.62	192.62	170.00	150.62	148.25	143.56	133.56	138.19	151.56	148.31	140.44	132.88	134.50	129.31	123.19	118.44	111.88	103.19	93.31	117.12	155.25	134.88	104.25	99.75	98.06	96.44	95.12	94.25	93.88	93.88	94.19	94.88	97.50	98.81	113.50	124.38	84.75	84.50	79.56	82.06	82.12	80.25	84.31	146.50	205.06	190.19	152.00	161.38	189.12	210.75	149.31	166.00	195.00
173.25	158.88	135.69	132.38	120.00	117.38	134.38	152.06	151.44	130.69	113.38	118.69	108.25	118.56	118.19	141.25	171.06	185.25	178.19	177.19	193.62	180.56	176.75	170.88	183.19	185.94	180.56	171.31	149.50	156.56	175.38	155.44	140.00	132.00	125.62	128.25	118.44	92.31	103.56	90.06	78.69	86.88	93.12	78.38	70.88	92.75	141.00	109.38	164.19	203.62	213.12	208.44	219.50	232.94	236.56	218.12	170.69	145.75	187.25	184.12	149.00	131.31	140.31	155.56	176.56	259.00	220.38	253.88	225.62	185.50	137.81	124.06	133.44	132.75	118.56	124.00	138.19	117.69	118.12	103.31	98.50	134.56	143.06	105.69	119.12	128.69	148.00	154.69	169.75	207.94	270.69	277.69	270.44	288.00	283.06	281.25	233.31	204.38	176.25	173.69	233.25	274.19	266.56	245.12	262.31	299.38	302.44	284.81	262.00	262.38	248.31	223.44	200.62	185.12	172.25	183.75	218.19	243.75	249.62	219.56	195.44	188.69	175.31	178.88	165.94	159.69	138.75	111.69	93.31	88.25	87.88	86.06	92.75	117.50	170.19	230.19	239.12	212.19	196.19	189.88	165.56	172.94	166.44	137.12	127.31	182.44	220.06	222.88	260.75	290.00	270.88	240.44	283.06	266.75	249.56	228.12	189.00	160.25	197.75	252.50	262.94	228.25	197.19	190.69	201.44	209.38	233.44	263.50	283.56	255.81	237.62	224.94	222.75	245.50	250.94	247.19	235.06	219.88	202.44	177.25	174.69	171.38	223.31	273.38	250.62	218.00	215.25	201.50	193.12	179.50	169.69	153.56	144.94	136.31	131.06	123.38	97.69	100.00	123.69	130.88	152.69	198.38	228.62	209.50	180.25	168.00	158.00	154.12	146.06	147.31	143.56	161.50	155.31	149.00	144.69	137.38	128.19	120.81	120.00	117.06	100.25	98.44	136.31	163.06	130.56	107.94	101.75	102.25	101.69	99.00	95.88	95.75	96.62	97.62	98.69	99.31	102.12	112.81	114.38	86.56	83.81	87.50	85.62	84.44	82.25	80.75	131.56	197.12	201.00	149.62	145.81	193.38	208.06	144.94	160.31	186.25
147.50	146.81	141.00	121.38	116.69	139.31	157.12	148.69	141.06	127.62	105.44	100.06	108.25	112.25	113.62	120.31	133.69	153.19	146.75	181.62	199.44	179.31	174.00	163.00	175.56	176.88	152.25	157.69	167.62	192.31	169.44	146.19	135.81	145.19	146.19	134.06	115.69	88.44	81.00	86.06	95.62	98.75	110.44	96.75	82.69	84.31	132.69	129.44	112.56	170.25	213.50	216.62	230.69	222.75	211.38	228.56	219.81	163.56	215.88	235.50	190.25	167.31	158.25	153.19	143.62	176.00	182.31	233.56	241.94	175.44	143.25	145.06	143.12	138.50	131.69	143.75	137.19	130.56	137.25	122.81	106.50	99.25	97.81	115.56	139.75	151.06	169.94	168.50	159.56	203.38	265.44	243.62	264.69	297.88	297.50	284.88	268.81	219.75	186.88	185.88	200.25	242.75	289.50	291.38	298.12	301.88	299.62	280.06	243.62	223.81	228.50	205.62	189.31	180.69	175.25	157.75	162.12	221.88	228.88	217.44	208.88	196.44	188.25	170.62	147.25	141.12	118.94	97.44	90.56	94.06	94.19	88.31	85.88	153.00	201.12	192.19	233.12	207.69	193.50	189.56	188.50	193.06	160.75	155.06	129.88	155.00	184.38	221.50	274.19	264.75	252.31	216.56	214.69	224.06	213.56	205.75	166.81	179.81	239.00	274.56	243.88	191.62	196.94	226.69	231.06	252.50	249.62	274.12	291.38	260.50	242.31	220.31	198.75	194.12	201.94	231.50	244.00	215.69	199.25	193.31	170.44	162.19	212.88	226.38	204.00	227.19	234.25	220.06	207.25	197.69	183.44	170.38	154.50	138.19	125.69	105.12	98.12	121.75	149.38	155.94	162.69	203.31	245.06	201.12	186.50	182.19	174.12	159.25	159.50	152.69	156.88	166.00	164.75	158.81	146.81	138.81	131.50	127.50	125.50	103.94	93.00	108.62	143.62	160.88	126.69	116.69	106.88	119.81	124.44	111.44	102.69	103.06	102.50	100.44	100.94	103.81	108.44	118.12	121.31	96.19	89.25	88.75	86.62	87.00	84.75	83.75	101.88	163.06	192.38	147.00	150.50	166.38	197.31	139.94	124.44	187.19
133.50	125.69	120.25	108.75	113.69	137.12	154.69	139.81	128.81	113.12	98.25	109.25	121.25	121.44	123.69	125.56	124.00	129.06	132.50	179.94	177.06	183.12	175.00	159.38	151.38	153.56	155.06	162.31	173.81	194.38	165.94	148.25	149.44	153.19	146.50	124.88	106.06	95.44	91.81	112.00	116.12	107.88	122.12	104.00	77.25	85.12	153.62	150.25	118.56	152.38	189.06	191.00	219.94	187.06	219.88	239.88	214.50	207.25	215.38	246.94	224.88	217.25	195.06	160.69	152.31	154.75	218.31	261.50	251.06	201.19	160.44	158.25	163.31	151.44	143.81	161.25	141.12	148.06	155.00	139.56	120.69	108.88	100.31	100.94	155.31	205.38	213.69	180.44	163.62	215.00	260.88	228.50	277.50	304.88	305.06	296.94	267.56	218.56	203.19	202.81	231.31	273.75	295.50	305.56	304.12	302.75	295.88	269.88	240.44	209.31	202.00	185.25	184.19	186.38	170.12	143.25	148.31	189.00	185.12	197.06	217.50	201.56	182.56	165.81	139.12	131.88	108.44	95.00	101.44	110.25	102.25	90.25	86.75	121.56	153.00	190.50	216.25	201.50	186.00	194.19	201.81	195.81	179.94	158.69	133.19	132.75	190.19	228.94	276.19	259.50	237.56	217.06	194.44	223.50	203.75	167.00	169.56	211.56	258.69	234.31	195.19	181.81	221.19	247.50	257.12	273.88	272.62	282.56	265.38	241.12	228.12	231.56	219.25	205.69	186.38	201.81	232.69	233.06	221.25	203.00	179.06	158.12	174.88	186.38	199.06	238.94	232.62	208.88	194.81	186.12	164.56	150.38	137.19	122.19	110.62	100.38	111.31	131.62	165.19	177.56	191.56	224.00	248.38	215.44	196.88	192.88	176.25	169.19	168.75	162.19	166.44	161.81	158.69	155.88	148.12	141.94	135.44	129.25	113.56	95.12	98.88	119.06	156.25	158.88	137.12	126.88	111.88	122.06	133.69	130.12	118.19	111.94	112.00	112.50	118.94	114.38	113.38	122.50	131.50	123.50	96.38	89.62	87.56	86.31	85.00	84.38	82.25	119.31	181.69	145.12	131.06	160.44	188.94	125.62	111.62	132.25
147.50	134.06	116.94	100.56	118.62	139.00	135.88	119.62	107.62	96.25	96.44	113.50	139.31	145.06	141.56	145.50	138.31	122.62	121.56	135.50	145.81	164.62	154.31	138.50	144.81	151.12	176.62	175.19	176.88	190.12	173.75	162.69	170.19	140.00	122.19	103.81	113.81	117.56	115.88	138.88	135.62	127.88	133.31	105.31	71.12	105.38	184.94	183.19	155.06	124.31	126.88	140.75	142.69	179.88	232.75	232.06	237.69	243.69	243.94	253.81	253.94	256.75	223.75	207.69	164.75	165.25	216.94	247.81	238.88	244.12	229.44	207.50	215.25	172.69	168.88	183.75	152.75	171.75	174.25	153.44	132.56	119.44	104.38	102.75	198.12	259.06	238.44	192.88	180.56	191.12	200.56	243.31	273.94	293.88	310.38	297.81	271.56	259.19	230.00	239.62	286.00	297.62	302.81	308.88	307.62	294.00	288.94	270.44	252.31	224.69	208.25	185.81	162.81	146.62	156.94	169.88	149.50	136.94	152.69	195.25	220.31	205.88	182.88	162.25	129.00	103.25	103.81	122.94	129.31	129.75	117.06	93.44	88.06	86.31	109.19	177.69	173.81	161.81	165.38	201.88	214.12	206.62	186.38	155.06	154.12	131.62	183.69	227.94	266.19	253.38	242.31	216.31	187.50	225.94	176.44	157.62	204.56	251.00	245.50	183.69	176.19	205.38	225.25	262.56	275.50	290.44	295.56	282.69	263.88	257.88	260.75	254.19	223.56	206.25	193.38	175.69	188.50	228.69	233.44	211.31	187.94	172.50	150.88	169.25	197.25	207.50	193.81	196.69	177.69	161.50	152.69	142.75	123.94	110.56	100.56	108.50	136.94	157.25	210.50	224.19	208.31	225.00	210.88	183.25	188.81	205.12	187.69	184.75	173.31	160.88	148.94	132.06	156.00	164.38	154.31	147.25	135.56	114.81	97.06	99.25	115.50	142.50	165.31	150.00	133.06	124.06	118.94	119.31	121.38	134.50	152.62	134.00	130.25	138.38	155.50	149.75	137.12	145.38	154.81	163.00	132.56	92.62	88.50	88.50	87.31	86.00	83.19	98.31	175.44	158.62	122.75	169.19	160.25	98.94	95.12	93.19
159.25	130.75	109.75	97.50	133.19	154.75	137.06	109.62	94.12	95.38	109.00	112.62	130.44	151.69	162.38	170.94	151.81	130.69	130.31	131.25	126.00	128.62	131.19	139.62	153.44	157.88	179.94	181.56	192.06	197.06	178.88	169.06	151.94	124.00	110.38	110.00	133.81	114.50	135.94	155.94	141.44	142.75	124.94	93.88	75.81	143.38	198.12	174.44	175.31	166.62	160.56	163.06	168.06	155.75	180.06	225.75	234.06	246.25	238.81	242.31	263.38	266.69	262.44	218.88	175.75	153.19	171.81	173.31	190.06	245.62	280.62	274.12	277.69	237.31	239.38	221.38	180.75	209.56	181.56	149.38	130.12	131.31	112.31	100.38	163.44	248.56	263.75	237.62	200.69	194.31	191.50	220.88	264.00	300.38	305.75	290.56	289.75	278.06	266.50	282.31	303.38	307.06	307.50	308.19	310.81	292.94	268.56	234.00	240.81	227.50	210.94	190.56	155.69	164.94	190.44	195.44	174.00	145.94	128.44	168.81	197.69	206.69	182.56	158.31	113.94	105.00	150.25	169.38	153.88	136.31	113.75	98.44	91.12	88.94	86.69	89.12	100.50	110.88	143.25	202.38	216.69	204.31	185.75	177.69	162.19	132.44	162.06	231.75	236.38	237.62	221.06	194.62	168.38	179.44	154.50	189.62	242.31	243.06	186.12	171.31	213.94	251.12	262.25	290.31	284.81	266.62	271.00	282.56	270.50	261.94	245.25	239.81	230.62	225.19	209.12	185.12	167.94	209.31	225.56	220.75	204.31	182.44	157.25	142.62	156.88	155.94	158.75	188.06	185.38	176.19	161.56	130.25	112.25	102.50	103.69	124.12	157.88	200.81	259.81	236.31	204.94	188.06	172.25	154.62	170.31	180.94	176.31	183.56	171.94	148.81	139.31	120.44	134.12	160.06	155.94	149.62	115.62	96.81	99.38	105.31	131.50	161.00	168.38	145.06	124.25	119.69	139.56	133.19	138.00	132.69	163.62	194.94	179.19	165.06	167.69	157.38	158.00	151.19	156.38	176.69	149.62	98.69	88.06	88.56	88.50	84.25	83.88	94.88	160.56	146.06	114.62	149.56	102.19	96.00	95.81	93.62
151.50	126.06	106.00	105.81	140.31	153.06	135.31	101.88	92.88	108.62	127.31	122.38	129.94	134.19	146.81	167.88	164.94	147.88	134.00	139.19	131.81	136.94	143.12	150.31	166.06	169.56	182.69	193.44	203.88	191.62	165.94	139.75	122.50	119.69	131.81	123.12	141.38	118.69	129.50	160.00	158.06	139.38	122.56	103.19	81.88	123.12	178.81	142.75	188.00	198.44	212.00	210.00	215.75	202.56	184.31	178.56	199.81	209.00	226.38	253.38	262.12	253.81	260.19	238.94	219.12	170.19	170.19	192.19	192.44	218.31	263.38	302.88	312.25	272.00	275.00	263.12	251.25	229.44	168.88	145.19	152.75	150.69	121.94	100.69	134.88	254.56	287.38	276.25	238.50	214.44	213.12	235.75	275.81	306.62	293.38	270.94	288.25	291.31	297.12	308.00	299.88	300.44	303.56	303.25	307.56	294.19	267.69	232.56	210.25	215.31	204.25	187.25	152.06	184.81	196.31	199.50	183.12	158.19	131.12	137.81	169.81	190.50	167.12	122.12	107.19	121.44	166.19	184.50	161.00	134.50	113.06	105.00	95.69	91.31	88.06	87.38	96.44	140.88	163.62	209.38	224.75	217.31	209.38	173.31	145.81	135.94	139.44	180.31	191.75	245.94	222.12	197.69	165.12	148.50	172.38	224.81	242.19	190.31	164.62	202.19	239.75	289.38	288.75	279.31	261.12	230.19	273.50	278.25	260.62	232.69	216.31	202.81	188.75	219.00	206.25	182.75	164.00	197.75	218.69	220.88	214.62	201.56	177.31	153.88	136.31	131.25	130.25	144.88	144.00	137.81	127.62	110.19	104.00	105.12	117.88	135.00	163.69	238.56	255.25	232.44	215.31	198.56	179.44	155.81	140.12	142.38	158.38	154.56	162.69	146.56	122.69	105.62	109.75	117.06	116.31	111.69	100.50	100.38	108.62	110.75	133.06	166.50	161.88	142.69	124.12	128.88	151.38	146.31	156.44	148.69	152.75	208.44	188.56	150.81	150.12	154.56	142.44	138.75	151.69	172.50	125.75	95.00	86.31	88.25	89.31	84.25	82.81	103.44	152.19	148.12	119.44	124.94	95.94	95.12	95.56	93.31
119.56	120.94	108.12	102.12	135.75	138.94	112.62	91.00	104.31	124.25	141.88	134.81	137.00	139.12	142.06	149.88	164.31	159.69	147.44	148.75	139.50	144.94	158.94	162.75	177.44	182.38	196.44	190.94	182.00	192.25	169.62	139.94	131.31	134.88	144.00	144.69	142.44	129.38	127.00	154.81	172.06	133.38	107.88	110.75	125.19	85.62	102.94	164.25	203.56	200.88	213.12	199.75	225.00	228.56	231.62	230.75	241.56	253.75	261.62	241.31	242.88	216.25	249.19	261.19	259.50	183.50	170.19	216.06	240.19	213.50	238.25	283.31	264.81	242.75	273.06	295.94	300.06	240.44	176.88	160.00	153.06	151.25	130.81	104.62	112.06	222.81	247.88	278.12	270.12	248.19	258.38	267.50	295.62	298.88	280.31	248.06	259.19	276.00	299.44	306.12	294.94	305.31	296.50	291.50	304.25	302.31	260.94	220.31	206.38	183.75	173.62	165.25	178.81	209.44	211.62	203.88	190.81	162.50	152.19	119.31	131.69	131.88	113.06	115.12	132.38	151.62	185.50	200.56	165.06	134.94	130.44	110.12	100.50	93.00	89.06	87.62	98.94	161.94	186.38	233.12	241.62	228.38	198.12	166.69	158.44	163.38	142.31	130.31	185.69	232.88	230.00	188.81	142.62	156.88	207.06	244.75	196.25	159.56	199.00	235.81	269.12	291.06	272.38	230.25	205.31	242.69	286.06	265.00	242.75	221.19	204.50	190.12	175.00	178.00	174.50	166.81	157.38	166.50	172.94	189.12	211.81	201.00	182.75	167.00	153.44	145.62	135.31	125.62	122.19	122.31	116.69	106.19	105.00	119.88	140.12	150.88	169.50	226.25	214.19	187.69	180.75	172.56	161.06	145.06	132.00	126.56	125.88	116.69	115.19	108.88	109.56	112.50	121.50	113.88	108.94	112.81	115.88	113.25	120.81	120.06	141.50	168.69	153.50	141.75	130.00	135.94	158.50	160.56	172.06	154.38	150.62	195.69	191.75	158.81	137.00	133.81	138.56	127.31	156.50	162.75	87.00	86.12	83.94	87.00	86.06	84.75	87.44	151.56	147.31	140.69	121.81	104.75	96.94	92.50	93.00	92.62
107.62	103.06	104.00	94.94	118.12	111.56	89.06	98.88	125.25	146.25	159.75	157.50	150.06	158.25	151.19	160.44	170.81	162.88	159.31	167.25	153.62	153.19	173.06	173.31	194.62	200.88	190.12	172.12	162.06	181.94	184.19	164.06	151.69	151.38	161.94	153.38	150.88	146.56	132.06	142.88	157.88	137.88	119.19	121.75	153.38	100.12	92.38	172.69	213.81	169.50	147.38	162.62	176.44	217.62	252.56	251.56	235.81	233.94	248.00	248.94	192.31	214.19	258.06	246.81	260.81	206.88	180.81	195.38	238.56	252.12	214.06	213.25	223.00	241.19	281.81	308.00	305.94	256.31	236.44	233.88	183.31	146.00	132.88	109.12	103.88	151.12	184.69	253.06	298.31	290.50	296.62	298.56	297.81	309.00	290.94	242.56	267.62	286.62	303.88	302.19	280.25	305.88	278.88	277.31	308.00	304.06	273.81	243.19	222.50	188.00	164.81	165.19	195.94	277.12	243.88	201.75	186.94	177.62	155.94	131.06	139.44	130.00	141.25	136.31	166.31	182.81	212.88	202.69	165.19	145.25	138.25	116.94	102.56	94.94	89.69	88.31	106.06	181.00	207.19	252.44	236.31	208.31	205.44	184.38	178.38	172.44	163.06	136.25	140.06	143.19	172.19	135.94	146.31	193.12	241.31	199.31	158.00	191.44	236.12	290.38	285.81	254.69	229.19	198.25	220.56	286.38	283.44	264.31	241.56	215.44	191.06	191.62	198.12	192.75	191.69	186.88	178.25	169.88	155.31	156.12	167.75	195.94	198.31	186.38	172.81	161.19	152.50	147.50	139.25	119.75	106.38	109.50	125.06	135.56	160.12	217.62	230.31	215.94	196.56	179.75	160.25	146.06	131.06	117.75	130.44	137.50	130.56	132.50	133.38	133.06	127.62	130.75	148.06	140.44	122.06	134.75	134.69	116.38	132.88	134.81	131.06	162.81	164.94	153.75	137.12	143.25	164.81	176.44	169.81	150.81	160.75	182.94	190.81	156.31	140.56	121.38	108.06	106.62	111.62	104.25	88.44	86.75	84.81	84.00	87.44	84.25	116.81	114.06	111.69	119.56	114.19	95.75	92.25	92.00	90.31	93.81
121.94	112.69	109.88	101.88	92.00	88.44	95.94	119.62	136.44	137.19	147.88	161.62	163.06	163.50	163.31	164.19	162.88	147.12	138.44	171.75	171.50	170.44	181.50	168.25	180.62	179.06	167.44	155.06	156.50	180.19	200.69	178.25	175.50	178.81	189.00	166.00	169.00	143.19	146.06	151.81	155.50	151.25	123.81	125.94	125.38	101.94	109.19	180.94	161.69	124.25	146.25	160.81	180.12	216.81	226.56	236.88	208.88	205.19	245.94	218.94	178.12	206.25	199.06	228.94	274.06	223.38	228.56	237.81	205.25	234.88	247.38	237.56	244.69	250.94	294.50	306.69	296.38	297.00	300.25	251.94	188.94	154.31	135.75	122.12	108.38	120.88	196.38	276.31	304.69	301.25	304.44	301.06	306.38	314.44	300.75	236.56	242.50	300.62	305.25	291.44	262.56	280.38	251.62	274.44	304.62	308.88	292.06	243.62	209.06	182.06	189.62	187.19	236.19	301.38	246.38	213.44	195.25	165.06	136.44	150.12	165.44	145.75	162.62	173.31	186.19	196.94	207.75	196.31	176.44	173.88	152.94	122.81	107.31	96.62	90.81	88.69	101.75	173.50	218.00	254.75	238.06	229.94	215.06	203.81	169.38	149.44	154.31	168.25	155.25	145.38	141.31	150.75	143.12	188.19	203.12	156.06	171.88	219.38	285.38	294.94	261.94	228.00	192.94	203.19	268.81	269.19	258.12	250.00	229.88	211.12	214.38	227.19	212.06	208.38	218.62	207.50	197.25	178.00	162.38	149.75	146.62	190.38	193.56	181.50	171.94	168.31	158.19	147.62	123.62	107.81	111.50	130.06	159.69	181.12	203.25	246.19	219.00	193.12	186.25	175.69	156.88	129.31	128.94	137.50	160.12	152.19	154.94	156.75	149.44	134.50	127.69	151.38	157.25	135.00	128.56	148.50	138.44	124.50	130.94	149.06	137.12	143.62	166.44	164.88	156.00	159.88	177.44	178.75	160.00	152.44	169.44	197.44	182.25	150.44	136.69	121.81	98.31	93.88	92.50	90.94	89.25	86.69	87.12	87.19	86.56	123.56	144.81	103.19	93.62	94.38	99.12	95.50	93.25	90.56	93.12	119.62
131.50	120.00	118.00	100.88	85.69	87.44	100.00	112.44	123.94	139.56	153.94	164.81	164.12	165.50	161.12	146.38	139.75	132.31	143.56	168.12	170.81	168.50	177.38	151.00	159.44	173.69	166.00	146.19	162.06	194.69	186.88	163.88	169.00	191.50	199.31	194.56	169.19	147.06	162.94	164.75	167.75	160.19	147.44	148.94	109.94	88.50	118.94	124.75	94.31	159.38	191.31	202.38	199.56	183.38	216.56	241.38	214.50	185.19	219.50	190.94	159.88	185.81	213.56	258.56	280.81	272.75	276.31	272.12	236.19	216.38	251.56	295.50	298.88	302.50	314.00	288.62	283.56	309.38	303.25	266.56	196.88	172.38	154.75	142.75	117.31	110.62	173.75	225.00	298.44	280.19	286.75	287.62	298.38	303.44	291.75	243.38	231.31	292.31	304.81	281.38	238.50	228.06	288.69	302.44	308.00	308.19	277.00	220.56	190.19	206.50	206.50	219.81	274.50	294.94	263.31	214.31	187.19	154.81	146.50	174.00	171.12	166.44	181.62	185.19	191.12	195.81	202.25	196.00	185.31	181.50	148.25	127.94	118.06	99.06	92.25	89.06	94.38	143.69	217.00	249.06	253.69	236.06	221.06	195.88	162.25	163.69	178.38	186.19	164.31	156.69	151.31	169.12	148.06	145.00	150.50	168.44	200.12	251.00	277.69	265.50	228.50	192.56	181.31	216.25	223.31	220.38	237.44	259.31	235.81	214.25	243.50	233.69	218.75	221.25	225.31	216.69	205.62	187.56	174.00	148.88	146.81	168.69	156.38	146.19	160.31	161.38	148.12	132.81	112.12	113.12	124.31	163.69	191.94	243.25	235.94	211.88	188.62	171.19	155.75	148.31	133.19	130.56	160.19	167.56	180.19	168.75	169.81	159.81	148.50	151.88	141.31	152.50	151.31	132.81	136.19	157.81	147.06	134.75	131.25	151.19	145.25	143.00	155.12	173.81	174.94	183.56	186.06	175.00	158.00	158.44	179.25	198.31	177.44	159.62	140.44	110.94	97.12	88.50	83.94	87.56	86.62	87.75	86.06	85.75	99.31	168.94	146.75	97.75	91.25	90.69	93.25	92.81	91.00	90.88	100.38	124.06
139.88	118.12	104.31	87.19	85.69	95.62	110.06	117.75	135.12	164.06	167.56	155.06	148.88	165.25	158.25	143.88	126.44	121.88	144.56	162.94	147.62	143.12	155.38	133.81	153.62	179.12	170.38	144.19	156.50	196.19	174.56	149.56	158.62	198.06	191.00	200.69	187.38	167.94	187.94	181.50	181.81	169.69	167.50	159.00	113.44	103.69	83.81	89.62	86.88	114.94	157.31	202.25	150.88	186.75	208.69	237.38	222.44	155.00	197.44	150.12	179.38	226.44	261.69	275.00	265.50	272.12	286.44	272.19	239.00	238.19	285.44	315.56	303.12	326.50	314.62	257.94	289.31	311.00	288.56	283.00	223.12	188.81	169.62	148.94	127.06	108.69	149.69	229.31	305.88	254.19	237.94	281.06	271.00	285.00	271.56	240.69	221.31	269.31	301.19	282.88	231.50	225.94	280.38	311.44	310.00	300.75	264.25	229.00	206.50	242.38	218.31	240.56	300.81	300.69	256.38	218.62	187.38	162.44	165.94	177.94	173.44	183.12	195.31	202.06	212.56	223.00	225.50	220.31	197.62	181.81	147.69	140.31	123.88	102.25	94.50	89.88	92.81	123.56	177.06	259.75	248.81	227.25	204.25	189.44	175.81	188.56	193.88	179.81	178.62	160.38	165.25	178.25	160.56	153.62	164.00	168.12	215.75	250.62	231.38	220.56	191.44	177.38	201.38	216.31	211.50	234.62	255.06	266.94	246.19	235.38	254.00	248.88	225.56	219.12	225.12	224.00	215.12	196.25	172.56	148.31	135.06	128.75	123.50	122.94	149.00	152.19	127.94	114.25	121.88	138.88	132.75	166.00	210.88	242.81	233.31	215.00	201.06	184.25	169.38	154.06	131.12	151.19	182.62	197.25	189.50	176.69	162.38	159.75	171.62	161.25	159.12	158.69	148.81	155.56	143.31	164.75	159.38	146.56	136.88	150.19	149.81	154.69	154.19	172.50	190.81	197.25	188.88	176.50	163.75	167.62	190.50	208.25	186.19	159.88	129.62	102.56	94.31	85.88	90.38	85.81	85.94	86.44	85.12	92.62	165.31	194.12	135.31	91.81	89.88	91.81	91.50	92.81	89.38	88.75	92.62	106.94
127.50	102.81	90.56	82.38	89.69	109.44	125.62	131.31	142.56	163.75	144.88	127.62	149.00	154.62	160.56	149.62	131.31	122.88	153.62	150.44	125.50	117.69	121.94	120.88	145.12	158.25	164.06	145.88	168.38	185.69	153.06	140.56	162.44	184.94	171.94	184.62	205.00	180.38	192.62	191.00	192.50	185.88	175.31	149.31	138.94	124.31	110.12	122.38	109.31	83.44	105.88	141.25	141.50	172.50	212.69	230.25	199.06	141.25	145.62	151.62	174.12	234.75	259.75	237.50	229.75	271.50	287.31	276.50	268.31	286.81	307.62	297.62	291.50	330.50	319.44	255.25	293.62	302.25	278.81	306.12	287.56	255.56	185.88	158.50	142.94	115.56	132.81	252.12	292.31	246.44	198.44	242.50	254.06	246.38	265.12	207.94	207.94	261.50	290.56	263.88	220.44	222.44	303.62	309.38	305.19	298.69	288.69	248.69	250.38	258.88	228.88	271.88	307.00	290.31	275.81	218.50	192.56	187.69	189.25	197.62	198.62	217.88	244.75	252.38	257.38	251.69	242.19	219.00	197.94	188.88	159.75	146.69	123.69	103.69	95.25	90.50	92.88	136.38	205.75	258.88	232.56	213.50	210.56	201.50	204.06	210.62	196.44	192.75	175.00	179.44	177.31	185.50	175.88	158.62	153.00	157.25	168.69	166.88	181.19	182.12	184.94	197.81	232.75	227.75	240.25	268.88	282.00	279.88	270.19	268.50	268.75	258.06	219.00	210.06	213.06	220.12	218.12	196.50	180.31	158.00	145.50	132.81	121.62	121.25	139.44	126.19	113.44	118.38	148.19	151.25	159.94	173.06	204.00	247.06	226.31	204.25	205.31	190.50	170.88	143.19	136.50	171.56	209.62	206.12	194.25	189.75	182.38	184.56	181.62	173.62	179.94	174.44	165.12	166.19	157.94	171.94	176.38	161.69	148.69	157.94	157.88	166.62	165.00	169.62	183.19	177.62	179.50	175.62	175.00	174.62	200.50	225.94	205.81	157.81	137.38	105.31	89.94	87.12	88.94	86.00	84.75	83.56	95.50	158.19	183.12	176.69	122.75	86.62	91.50	95.50	92.56	94.75	90.31	90.00	93.62	102.56
112.19	94.06	84.69	81.88	104.31	127.94	137.75	140.25	147.69	158.94	128.69	119.62	142.75	169.62	155.62	133.19	117.38	124.50	151.31	123.62	110.62	112.06	124.25	122.12	124.12	133.69	136.94	136.56	173.25	153.69	134.50	136.31	153.12	170.06	156.31	187.94	190.56	167.38	172.69	176.50	190.69	191.88	176.75	152.00	152.38	150.25	131.81	138.88	119.31	94.00	84.12	84.38	128.00	145.44	212.94	206.88	164.12	120.19	133.94	171.44	183.06	244.62	245.62	195.88	251.31	287.50	286.25	279.56	292.38	299.56	294.69	283.62	283.81	325.06	321.62	255.75	286.94	299.31	265.19	297.81	301.94	294.38	209.75	177.56	151.38	123.44	122.31	251.75	226.50	199.06	180.75	227.56	258.06	207.44	264.81	209.88	194.88	273.50	296.44	272.88	224.00	242.19	311.75	307.50	296.00	294.12	295.25	262.00	273.50	261.56	253.62	292.94	314.88	298.69	266.44	231.88	215.25	216.06	221.06	233.12	238.88	259.06	272.56	257.25	243.81	232.62	227.06	199.19	182.56	193.75	168.00	144.56	123.81	102.50	95.81	91.06	89.44	119.31	206.00	241.19	226.88	219.94	222.06	211.62	219.56	213.44	203.69	202.62	186.38	195.94	186.88	193.88	178.88	163.38	163.38	169.44	168.50	171.88	192.81	205.06	200.19	224.00	252.31	242.12	255.88	289.50	300.25	295.69	291.69	286.19	276.31	258.50	218.38	209.50	195.44	206.50	214.75	201.56	182.81	163.69	155.44	139.88	127.81	123.31	123.06	120.62	111.31	127.69	152.19	158.06	173.69	193.38	215.50	223.81	189.88	192.19	198.94	183.88	163.62	135.50	150.19	188.38	213.56	212.75	207.38	208.31	200.62	196.31	192.00	192.19	195.38	190.31	177.56	171.50	166.81	182.12	183.19	167.81	150.50	164.31	163.19	172.25	174.44	173.44	165.69	157.38	170.12	168.94	181.06	180.19	198.62	229.81	220.38	173.81	150.44	108.69	90.94	87.25	85.50	85.50	87.81	98.88	143.75	180.56	169.50	166.56	108.38	89.25	94.94	97.50	95.69	94.62	93.56	94.25	96.44	104.00
93.69	83.94	80.12	84.75	116.88	124.62	133.00	154.75	151.12	152.38	110.50	140.56	161.00	157.38	139.12	115.81	100.50	102.06	106.00	104.38	107.94	130.81	148.94	148.69	135.44	136.62	132.25	140.94	129.62	128.56	133.69	141.56	153.44	144.88	146.94	152.62	155.06	159.94	171.56	183.38	190.75	192.56	179.50	172.88	171.94	174.62	173.25	181.44	132.25	122.62	116.25	98.62	101.94	163.19	201.12	184.00	118.06	127.50	169.38	223.56	222.38	252.56	212.56	209.94	268.06	275.25	225.56	263.38	249.50	277.38	266.19	277.62	286.62	304.12	302.50	265.50	234.50	283.31	229.00	274.62	252.62	301.25	261.75	194.19	166.00	135.12	115.81	157.88	152.75	187.06	222.31	262.44	236.19	192.50	264.38	219.00	191.06	264.88	298.75	289.62	233.56	211.44	308.69	299.25	263.62	293.94	300.62	295.44	295.88	282.56	303.69	308.94	307.62	303.19	304.62	292.56	281.62	279.69	278.12	292.31	283.50	285.19	285.81	262.19	236.31	214.19	201.44	189.88	162.38	147.38	123.44	114.00	108.88	105.44	97.88	90.62	90.31	102.75	166.56	228.00	226.56	223.62	219.00	221.81	225.38	216.12	213.62	195.56	222.56	213.31	210.75	199.00	177.50	178.44	184.50	187.81	181.88	183.81	207.94	211.62	221.56	260.19	265.44	263.56	266.06	296.00	303.69	289.44	269.69	263.94	258.00	260.25	225.44	211.25	194.75	224.12	217.94	201.06	189.62	175.25	160.69	151.25	142.69	141.25	142.00	119.50	117.94	147.88	148.56	158.81	167.75	218.25	245.62	206.25	178.31	157.44	151.38	143.81	142.94	137.88	176.06	194.38	205.69	217.50	232.00	212.94	198.50	187.94	184.44	187.38	186.25	204.69	206.88	194.69	190.12	200.88	185.62	167.69	167.50	173.19	175.88	180.19	171.44	149.38	132.06	140.75	148.00	176.06	186.19	182.56	196.19	235.38	229.44	176.75	134.88	108.31	96.00	83.75	86.88	84.94	97.50	165.81	165.31	164.06	139.88	147.56	92.00	93.31	93.31	95.81	99.69	93.38	96.69	97.06	99.94	119.19
88.81	80.06	79.31	82.50	84.88	85.88	102.12	115.50	118.94	121.31	103.12	146.75	134.69	119.94	117.69	96.62	100.00	108.38	112.12	112.69	106.50	130.38	151.00	144.12	132.12	122.25	119.06	123.62	134.31	140.38	144.25	156.88	160.75	148.44	154.94	162.12	162.81	164.00	170.69	175.81	187.81	208.69	196.75	165.38	171.50	188.50	190.62	185.56	151.06	129.12	109.88	102.81	90.31	102.44	108.31	110.81	125.69	168.38	209.94	239.31	244.81	238.25	173.31	221.88	241.50	246.81	185.12	252.44	213.56	227.31	253.88	270.50	277.19	261.06	289.69	294.50	227.50	215.44	203.56	237.69	215.75	246.62	238.19	253.00	191.88	155.06	125.88	120.00	189.06	238.19	258.69	258.56	230.25	163.56	231.38	213.50	162.12	231.62	269.75	264.44	229.31	246.56	300.25	248.94	276.75	306.50	307.56	308.88	311.44	312.94	315.38	307.38	277.00	307.06	316.25	299.12	280.94	292.31	281.81	283.50	271.69	275.19	252.94	236.88	214.38	201.62	196.31	177.00	142.44	132.44	128.50	133.38	129.31	109.69	97.31	91.00	91.12	105.56	156.19	196.38	230.06	235.75	234.69	237.62	236.44	221.69	215.19	219.81	229.00	228.31	216.75	189.81	198.50	198.50	204.94	195.31	200.62	195.50	202.75	230.50	264.06	274.94	271.62	272.75	279.00	285.00	271.31	248.88	219.25	208.75	205.44	201.69	192.94	184.69	182.06	223.81	209.75	208.44	199.62	185.12	174.19	163.31	154.62	153.69	136.88	115.19	124.50	144.44	162.50	167.81	185.12	216.25	215.94	194.06	185.00	182.12	170.56	165.94	157.38	139.94	180.19	182.31	192.00	234.31	230.94	214.00	211.75	197.50	189.31	187.12	175.88	169.06	190.62	194.31	209.69	222.06	208.81	195.31	194.00	190.69	193.56	179.81	163.75	159.06	137.25	120.75	139.12	171.38	175.94	187.81	221.81	249.00	210.62	184.06	155.50	121.19	98.12	86.81	88.06	87.56	92.31	149.81	130.56	122.81	160.12	142.56	91.88	94.44	93.25	92.94	97.31	100.00	108.31	104.38	113.38	135.12
82.94	78.38	80.19	85.06	87.94	90.62	92.12	89.88	91.81	91.19	93.94	120.12	100.00	94.94	97.50	99.56	105.81	126.25	130.50	125.81	111.44	115.25	130.69	114.12	115.50	119.12	121.50	124.75	135.38	146.44	163.00	164.50	164.62	159.38	167.56	175.69	174.31	172.06	157.06	177.25	192.06	208.50	191.62	157.56	173.44	195.31	192.12	167.75	142.88	120.06	124.75	120.62	106.50	102.56	109.12	89.25	131.81	166.06	186.56	230.31	238.25	202.00	165.62	217.69	236.44	178.56	211.69	242.44	173.25	216.81	280.50	243.19	260.31	243.50	288.12	296.31	265.12	222.81	200.69	187.44	181.50	178.19	210.25	252.31	245.38	178.88	144.06	121.00	148.69	156.06	174.25	196.69	181.19	139.12	157.00	145.81	148.00	184.44	193.44	210.00	204.00	238.06	277.00	211.56	242.69	284.81	308.69	311.38	304.62	309.69	305.06	293.44	254.38	272.75	287.25	287.56	258.75	253.31	254.38	229.69	233.25	278.44	244.94	229.62	205.56	189.06	170.56	155.88	139.62	151.88	157.44	148.69	129.31	107.25	96.19	92.00	93.06	106.31	137.75	162.19	221.38	265.25	254.19	240.31	242.56	216.25	235.06	240.19	233.62	232.19	199.00	188.88	204.25	216.56	214.69	214.44	210.19	218.25	232.94	283.75	303.50	282.94	294.25	301.69	281.62	269.56	254.44	238.00	225.81	221.88	203.38	191.19	204.88	201.75	180.44	169.06	174.44	196.56	197.75	187.31	179.25	171.50	162.88	153.81	127.94	116.50	144.75	164.75	178.19	185.81	210.62	234.06	227.88	203.25	206.38	194.94	192.75	180.75	155.44	138.19	159.00	167.94	194.75	232.50	223.50	226.62	221.38	208.88	208.75	208.25	189.88	169.19	161.00	164.44	191.06	208.88	210.38	199.75	192.50	184.19	201.75	195.50	175.50	153.06	128.75	118.06	134.31	151.00	164.25	207.69	236.94	226.12	181.56	162.38	144.19	120.44	102.88	93.31	87.44	89.56	89.38	90.31	85.38	143.19	181.12	130.12	90.81	93.94	93.94	95.44	98.94	134.75	141.12	120.62	127.56	123.81
79.31	77.81	83.56	97.69	98.94	97.81	101.81	97.50	97.88	99.38	96.94	95.94	99.50	104.19	112.81	113.56	110.06	129.19	141.75	128.56	124.50	116.62	114.81	117.56	120.00	127.94	134.25	133.31	147.69	160.75	174.94	177.56	177.81	179.88	171.25	168.94	182.94	172.94	143.38	199.12	198.94	186.75	154.69	153.81	183.75	203.31	180.38	154.00	149.75	152.75	155.19	117.81	126.12	126.00	126.88	111.00	109.88	161.12	204.88	233.50	237.88	170.06	161.31	184.31	229.88	154.75	239.38	203.31	162.94	249.00	293.06	210.12	259.12	226.94	251.00	259.81	289.56	274.75	223.69	209.69	196.69	175.88	164.56	173.56	188.44	194.50	151.12	121.75	137.00	142.25	141.06	140.12	147.69	162.88	171.69	174.44	173.19	164.44	164.56	158.81	167.06	214.44	214.31	235.81	284.25	290.62	304.94	307.12	293.44	279.31	269.81	259.00	227.88	208.81	222.00	231.44	254.25	223.25	197.38	204.81	247.00	290.88	264.25	228.56	210.75	196.38	171.75	164.69	174.56	193.62	190.75	177.06	134.50	103.00	94.62	93.00	92.31	99.31	135.19	178.44	253.25	265.62	227.06	183.94	184.69	194.00	250.12	261.88	251.94	238.12	212.38	194.44	196.75	223.50	229.44	236.75	233.56	246.06	270.56	306.50	282.00	265.25	289.00	266.50	254.31	279.19	275.31	253.75	245.00	209.69	203.50	225.25	221.50	208.12	194.25	181.00	164.75	157.12	158.88	152.25	166.00	163.56	154.12	143.06	122.25	121.88	148.69	182.88	188.62	207.69	243.62	241.25	222.75	218.19	219.81	210.75	194.88	176.19	165.62	142.81	157.75	179.56	231.19	245.69	231.75	236.81	233.12	225.88	231.75	214.81	193.25	185.50	172.56	154.81	153.19	177.00	169.56	174.94	163.81	151.75	157.06	163.62	144.94	123.38	114.19	108.94	119.06	134.12	162.06	197.50	231.25	214.38	178.62	163.06	147.81	132.19	99.62	91.81	88.56	89.69	88.44	92.06	84.69	102.88	131.06	92.25	88.19	92.25	96.88	100.31	99.44	134.81	159.56	139.50	114.75	116.62
77.19	77.75	82.19	98.94	108.50	104.81	112.88	106.69	107.75	107.81	101.56	108.00	114.06	118.62	125.38	124.38	118.25	138.38	148.81	146.31	136.25	120.50	130.69	129.31	125.88	138.12	149.88	141.94	155.56	166.75	176.94	163.38	179.94	168.44	131.94	109.75	123.25	118.31	129.44	183.38	174.00	151.25	130.00	156.12	179.75	194.88	176.75	172.44	170.31	176.88	156.06	129.69	153.56	140.19	136.81	118.12	107.00	147.88	161.38	224.75	232.19	153.94	150.25	175.19	189.75	168.75	214.25	163.56	169.06	257.06	276.56	205.44	252.25	205.19	208.75	247.19	276.50	296.56	267.25	272.75	238.12	195.69	187.31	170.81	155.44	145.44	135.00	127.62	166.31	164.00	158.81	164.38	167.94	182.56	203.69	200.75	202.81	193.19	193.56	185.12	185.00	169.62	191.56	261.75	293.75	300.25	308.31	308.25	302.94	262.94	234.50	215.44	198.25	197.38	193.81	181.31	194.25	187.19	164.56	198.56	262.50	312.00	288.81	256.94	224.75	197.88	190.94	187.25	195.81	202.62	201.75	164.12	121.44	97.62	93.69	93.25	92.81	95.50	133.75	195.00	264.50	237.00	189.56	155.31	154.75	207.31	270.06	277.38	266.25	256.50	246.88	214.69	211.12	222.31	236.75	243.12	250.25	261.75	269.69	290.56	253.19	220.38	243.25	218.94	269.31	301.81	291.44	257.06	240.38	237.69	248.88	250.31	224.19	210.25	203.31	187.88	175.19	164.75	154.50	143.75	134.62	132.38	131.00	127.56	122.12	130.62	144.69	176.06	198.31	222.50	246.25	225.44	216.25	236.44	233.75	218.31	210.06	200.62	174.31	153.31	177.19	188.06	243.31	274.88	257.44	250.69	228.88	219.31	221.56	225.88	208.31	186.56	173.75	167.88	151.69	149.62	141.56	141.56	135.38	130.25	128.12	130.00	128.44	126.56	114.69	114.44	137.94	155.81	177.69	205.31	232.44	220.44	181.94	168.81	152.94	121.69	94.25	91.88	90.88	90.06	88.00	87.81	88.00	86.69	88.69	90.25	91.38	91.94	94.44	99.75	103.06	104.38	137.50	130.88	115.75	136.12
76.25	77.38	86.19	112.19	115.75	111.44	120.00	113.06	118.94	117.50	111.88	122.62	129.88	135.69	139.38	134.19	139.94	154.44	152.75	158.31	130.38	123.94	142.94	145.19	140.25	155.31	163.75	157.62	169.19	173.25	147.31	103.56	112.94	92.38	91.31	91.75	92.81	91.31	95.69	134.88	153.44	126.56	127.69	157.75	180.06	190.06	179.81	190.25	192.69	187.31	151.38	156.06	185.19	182.69	138.81	130.06	115.38	94.12	150.12	228.50	218.50	134.94	110.88	126.31	123.38	117.81	123.38	125.25	165.94	215.00	215.94	177.88	178.31	190.88	246.38	293.75	292.62	311.38	316.19	307.62	291.69	259.31	231.88	221.56	203.50	172.38	152.31	133.62	205.50	202.75	189.56	201.56	196.19	207.75	257.88	238.19	234.81	225.94	233.62	237.62	214.19	176.94	199.94	255.75	293.62	298.50	300.38	300.06	297.00	267.62	231.38	208.44	221.31	226.69	216.56	199.75	192.50	183.19	162.50	187.44	256.62	311.44	299.81	288.62	253.38	226.94	221.69	218.62	199.00	177.00	151.44	125.38	103.62	93.81	93.69	93.19	94.25	95.94	118.44	166.50	228.56	222.88	179.75	141.75	174.88	241.56	281.12	246.06	222.06	241.31	247.00	195.69	238.31	259.69	259.62	258.56	253.12	210.06	191.56	189.38	192.56	179.38	183.44	198.88	270.06	310.12	301.19	286.31	285.56	266.50	241.69	247.12	231.56	222.38	206.50	198.25	187.25	178.31	168.50	154.44	142.31	142.75	145.00	128.69	124.62	149.88	162.75	166.38	199.50	239.44	250.25	233.88	219.12	216.31	214.56	215.88	219.81	208.50	160.44	165.56	199.75	213.94	289.50	284.12	258.25	208.75	206.75	199.25	190.38	213.50	207.56	194.56	187.75	178.06	169.69	160.12	160.12	159.81	143.38	147.12	147.00	146.25	141.50	128.56	103.00	133.94	179.75	194.38	199.12	219.25	213.75	190.12	161.88	144.06	142.62	101.56	89.38	90.56	90.62	89.81	88.12	88.94	86.31	87.50	86.88	90.38	91.00	92.38	94.00	100.00	112.00	106.81	103.94	116.50	127.06	157.00
75.00	80.19	94.75	121.19	129.50	125.00	132.56	127.75	133.94	129.38	119.25	137.56	142.88	138.44	131.12	140.00	154.44	142.44	141.94	155.06	138.31	127.69	134.44	155.81	159.12	163.19	165.81	175.38	173.19	169.62	98.81	87.31	90.62	91.94	97.31	102.44	102.25	106.38	103.88	102.94	108.12	104.31	138.50	161.94	174.56	187.31	176.81	191.69	193.94	193.44	173.69	172.31	202.88	190.62	158.12	151.12	124.12	99.62	123.75	213.81	194.25	108.06	131.62	146.06	150.56	158.50	154.81	159.56	149.00	141.38	147.06	158.38	207.56	232.69	302.69	320.69	294.81	303.38	314.31	282.75	266.81	245.44	220.88	199.06	217.94	207.56	157.62	145.94	268.19	272.94	252.50	255.56	232.31	243.69	275.50	276.38	272.88	268.06	277.19	276.06	258.81	197.06	186.44	279.00	291.50	295.88	301.69	294.81	274.25	249.12	218.38	228.81	255.81	259.31	246.81	224.31	205.75	190.44	156.50	168.94	242.62	304.38	275.19	285.31	276.50	257.44	239.62	215.06	170.12	142.31	116.75	104.44	96.00	94.31	94.62	97.38	114.00	109.06	97.00	128.62	200.50	221.06	165.19	140.19	207.31	273.88	271.75	230.56	186.38	258.94	225.12	171.38	237.50	263.44	223.88	192.62	174.19	165.75	155.75	168.69	175.31	195.88	215.06	229.12	255.00	304.38	307.38	297.12	276.81	252.00	227.94	216.75	216.94	223.00	221.69	208.25	201.31	192.38	176.94	165.62	161.31	162.25	142.94	124.44	141.12	168.25	178.62	167.56	184.38	212.75	231.62	244.81	217.81	192.06	184.69	173.12	171.19	163.38	154.62	162.00	196.12	267.75	312.00	246.69	217.94	199.00	178.94	174.69	167.81	162.88	165.81	188.75	192.12	188.56	177.44	169.62	170.94	158.25	153.31	170.00	169.12	148.38	117.00	111.62	110.00	167.19	208.44	204.62	203.44	223.50	210.81	182.62	152.75	114.50	105.75	89.31	87.75	91.81	91.06	87.94	87.56	87.31	92.62	86.25	86.50	88.00	92.50	90.88	94.25	121.75	127.94	114.50	112.19	109.81	122.62	149.56
74.75	81.94	99.19	117.75	142.88	139.19	141.94	141.38	150.25	144.38	132.38	146.94	125.81	106.50	105.38	118.38	126.12	120.88	133.81	158.31	149.06	138.50	144.75	164.44	161.00	145.94	162.69	166.00	141.06	133.31	89.50	88.62	97.69	99.25	102.75	112.44	117.06	120.12	106.56	110.25	106.50	98.56	116.94	147.31	169.88	183.88	164.12	177.81	189.31	194.44	192.62	192.19	209.88	195.38	185.12	145.88	118.81	114.06	95.56	145.00	138.50	106.56	170.06	189.38	201.69	194.38	201.19	196.00	186.69	177.88	182.75	187.81	231.00	275.44	316.69	316.31	271.06	306.38	308.38	270.19	234.88	228.81	221.00	204.50	176.19	165.62	145.06	150.50	238.75	261.56	273.19	271.12	259.62	272.00	292.31	291.69	291.44	290.50	295.75	291.06	269.56	208.75	180.50	244.19	255.94	298.25	304.69	288.00	263.50	240.50	240.50	258.94	294.50	290.44	266.44	242.06	229.69	197.75	166.56	156.06	254.38	297.75	251.69	266.94	255.50	244.75	224.75	188.44	149.50	122.38	106.56	98.75	94.69	95.94	102.62	119.88	137.44	119.69	105.06	111.25	167.69	205.12	148.50	139.12	215.06	262.50	239.44	213.19	176.62	255.12	207.00	167.81	206.25	237.50	196.69	170.88	149.31	154.56	179.56	198.56	200.69	220.62	238.56	243.56	251.69	297.31	310.88	278.62	270.88	250.44	221.88	211.12	204.44	203.69	215.31	213.50	204.62	196.75	187.00	176.62	173.12	161.38	132.31	126.00	157.44	182.44	184.38	175.44	182.88	199.38	243.25	256.62	217.25	200.19	196.00	174.62	167.75	167.44	169.44	173.81	200.69	284.75	300.06	259.38	223.94	211.62	200.56	195.81	186.56	169.12	152.88	160.56	170.44	177.88	185.69	192.19	185.62	171.38	172.81	178.31	166.44	131.12	93.69	94.69	114.56	166.06	169.25	207.00	206.44	224.56	186.38	130.50	115.31	94.88	92.56	92.62	90.44	91.44	90.31	88.00	86.44	88.00	85.56	85.62	85.44	90.69	92.62	94.19	114.19	136.75	129.25	122.31	124.19	119.19	128.38	162.00
76.94	91.81	117.38	133.75	152.25	153.00	157.94	157.81	157.56	150.62	147.25	135.00	99.38	106.69	117.81	120.44	113.62	118.00	122.62	150.94	159.88	157.81	165.12	166.56	142.12	123.00	133.12	102.81	89.19	88.19	92.38	99.44	105.69	115.75	113.25	117.75	132.12	124.94	116.75	125.94	118.38	111.62	99.75	130.81	157.75	175.69	151.25	177.12	172.62	196.81	211.31	216.38	222.31	217.62	197.44	154.56	140.75	129.19	119.75	100.81	93.69	112.50	191.69	198.88	239.62	231.62	271.94	263.69	249.19	225.00	226.62	236.44	268.62	299.19	308.31	281.62	251.12	297.94	308.88	292.50	280.00	278.50	258.12	251.62	211.88	194.19	172.12	137.62	198.75	244.94	290.94	307.75	290.19	290.94	293.81	293.56	311.00	315.31	298.94	284.25	271.62	245.06	199.75	202.62	256.81	293.38	300.31	279.88	276.81	271.06	283.44	304.31	315.00	308.75	293.31	285.00	250.88	198.25	166.75	160.94	234.75	276.50	242.19	212.62	228.81	215.94	218.94	172.31	132.00	114.88	101.44	96.00	96.44	110.75	141.25	154.12	151.69	140.75	116.25	103.75	117.94	184.62	138.94	144.06	225.75	244.38	211.12	171.12	163.50	204.81	207.38	176.25	170.00	198.44	158.56	141.25	160.81	189.75	212.75	210.12	218.12	239.75	256.69	263.94	268.69	292.88	289.38	255.25	253.06	238.44	224.25	217.56	204.50	193.06	188.62	182.00	180.44	190.19	184.44	179.12	175.06	157.25	128.44	134.94	183.94	199.00	193.88	194.62	203.06	219.00	250.75	259.75	243.25	222.44	188.38	198.69	198.44	175.56	192.56	198.81	223.62	259.38	240.56	232.44	227.00	258.62	225.38	214.44	193.19	176.12	161.31	147.19	140.31	146.44	173.25	212.44	205.62	191.88	175.62	151.00	134.88	111.94	91.94	92.06	100.50	103.94	134.25	202.50	192.00	175.31	130.12	96.62	91.69	90.19	88.94	91.12	90.62	90.12	89.88	87.50	87.81	87.56	85.69	87.12	88.44	91.06	97.44	138.75	158.94	149.19	139.75	141.94	136.69	134.75	142.50	175.44
82.12	108.31	141.94	154.88	168.19	169.88	169.94	150.19	129.69	148.94	126.62	106.56	92.06	105.50	125.88	133.81	124.69	129.94	122.19	133.00	149.19	163.38	170.88	146.44	119.62	95.75	88.75	88.50	91.31	93.69	102.12	115.00	117.94	125.38	113.69	127.00	142.56	125.81	127.25	138.56	127.38	124.88	113.31	106.25	131.88	166.12	138.12	149.25	168.44	195.56	215.06	223.75	225.50	228.88	204.06	182.00	167.44	143.81	142.25	125.25	101.12	114.44	156.81	193.69	211.69	240.00	258.19	232.19	225.44	249.81	280.50	285.50	290.62	266.19	293.25	259.06	242.38	267.75	311.44	322.56	320.88	309.44	292.62	271.12	241.75	246.69	202.62	147.62	218.19	279.00	305.69	318.31	291.38	285.75	278.31	298.62	324.12	319.50	296.31	273.06	262.38	252.69	207.00	204.00	273.94	302.88	305.50	293.94	301.38	301.38	314.75	319.38	315.00	306.69	304.88	303.69	263.69	220.31	183.00	146.50	203.12	285.38	245.88	204.12	195.25	185.69	193.62	152.31	117.56	107.19	96.62	95.50	103.75	137.06	160.88	160.25	160.75	144.75	135.00	114.94	104.00	139.12	116.19	174.44	232.62	233.81	202.88	176.94	159.06	169.62	205.75	158.88	144.38	140.75	138.19	151.44	170.19	205.69	229.31	228.06	261.69	269.62	275.31	235.62	251.75	259.56	243.50	229.31	239.88	239.62	229.25	224.38	214.25	200.50	186.56	171.00	166.56	159.06	158.69	156.19	159.06	155.69	131.69	143.19	199.81	214.19	208.75	210.50	217.31	238.31	253.62	242.12	234.56	200.31	213.56	223.38	195.56	194.94	218.19	226.94	246.88	247.19	212.69	200.50	187.81	202.00	200.25	197.62	199.25	187.75	179.38	166.12	152.31	130.44	139.75	184.19	169.75	172.50	156.00	117.75	105.56	98.50	92.25	101.56	139.56	110.62	107.25	157.19	124.88	106.25	94.69	91.75	92.12	89.62	95.50	90.75	90.69	90.38	89.69	90.75	91.88	91.88	89.06	90.12	90.69	90.69	120.25	180.50	173.75	153.50	161.44	161.19	150.94	154.25	147.62	169.12
