576.12	575.12	584.25	595.88	597.38	595.75	583.75	591.25	582.31	613.31	612.88	553.12	563.94	566.69	588.81	582.94	577.25	579.06	620.88	717.00	676.94	679.88	691.69	678.56	622.06	605.50	669.81	686.94	663.50	688.81	707.94	673.69	612.44	597.12	587.69	568.12	565.88	584.25	591.25	584.75	581.19	572.62	583.62	595.38	605.94	614.38	605.75	571.94	568.06	533.81	494.56	484.12	471.69	455.88	451.44	465.06	477.00	497.06	496.94	487.75	406.00	369.88	401.81	435.75	478.81	518.62	548.00	508.69	465.62	497.00	498.44	508.56	494.06	470.25	461.75	419.38	425.56	469.06	502.88	503.50	549.38	550.62	532.06	480.06	459.06	411.88	392.44	431.94	471.12	477.62	477.19	479.75	449.44	446.38	435.06	438.31	422.62	413.94	455.19	480.56	496.00	473.38	386.88	352.12	340.81	334.88	336.81	351.81	338.50	298.69	312.12	336.38	374.94	434.44	449.94	437.50	455.00	471.81	456.75	415.69	414.44	401.38	413.12	396.88	389.50	404.50	399.38	393.81	426.62	398.56	381.44	380.69	399.06	435.06	411.88	391.50	395.81	398.12	386.81	381.56	380.75	388.50	385.94	398.38	415.94	443.94	428.12	412.69	423.81	417.19	401.06	373.44	404.94	449.50	413.31	411.75	410.38	407.31	428.94	429.69	421.19	433.50	423.31	400.62	402.62	400.62	403.31	403.94	391.81	392.75	396.88	417.31	458.25	461.81	452.38	446.12	456.62	436.50	417.31	394.88	391.50	393.50	387.56	380.50	449.06	456.44	418.88	395.75	392.19	387.81	389.44	388.38	377.88	375.06	392.56	398.12	368.12	409.00	424.56	407.50	392.81	389.88	392.88	397.69	391.31	392.62	409.44	412.69	421.69	425.81	414.75	390.81	386.44	401.88	390.94	379.38	393.56	408.19	395.56	369.75	361.62	350.31	353.88	344.44	342.56	341.00	347.75	360.12	354.31	345.38	335.19	348.19	335.06	332.50	345.81	362.25	371.62	348.44	329.31	332.69	359.06	384.75	405.81	352.88	350.88	349.94	348.62	338.00	335.06	345.69	367.38	345.81	367.44	341.25	286.75	339.88
601.56	608.25	595.25	596.31	600.81	594.12	583.31	585.81	572.81	568.94	560.94	558.69	585.88	572.75	578.25	577.56	581.81	588.31	609.69	720.69	711.56	659.75	646.69	642.12	606.12	592.75	635.50	683.81	656.81	656.81	694.00	673.56	611.25	591.44	578.06	572.81	559.56	572.88	580.62	573.56	567.62	569.69	588.94	570.62	550.88	556.94	556.88	570.31	517.25	493.62	478.81	466.12	464.06	487.56	499.06	507.62	511.81	502.44	478.56	449.44	414.19	386.00	365.62	438.44	491.25	518.56	516.69	454.50	474.25	508.12	509.12	497.69	479.06	448.88	432.06	406.12	400.56	459.50	462.88	508.94	538.88	508.44	474.44	432.56	442.56	445.75	409.94	431.44	480.44	493.25	528.69	556.81	474.44	453.38	428.38	414.50	401.94	394.75	401.06	412.56	413.38	395.25	363.25	345.56	358.75	355.12	338.31	333.00	318.19	302.12	298.88	323.69	358.94	396.31	456.38	482.00	457.88	450.69	440.38	422.56	421.25	424.88	423.56	407.12	400.69	435.69	414.81	409.94	425.06	400.62	389.94	386.88	430.44	432.12	406.75	403.88	408.88	399.00	387.25	378.56	393.50	394.12	381.19	377.88	408.75	427.19	424.19	407.19	420.69	412.31	402.00	387.44	383.69	437.94	407.88	405.75	408.50	404.81	427.19	429.69	421.56	416.88	430.00	404.12	398.62	397.12	396.50	408.00	409.38	406.75	412.56	430.06	488.38	490.50	438.75	433.88	457.00	434.31	423.81	416.56	401.94	390.12	378.88	379.00	439.88	469.12	425.00	401.81	401.44	390.00	384.12	378.31	375.69	384.62	389.94	377.06	373.56	414.69	415.75	402.75	383.31	385.25	386.56	390.25	381.69	414.31	415.50	409.31	418.44	418.38	406.56	391.81	382.88	391.06	377.25	388.38	397.19	406.81	406.19	421.62	432.25	383.12	357.69	346.06	360.25	353.75	348.31	361.00	354.44	342.06	341.88	348.31	335.12	337.50	348.56	353.06	357.06	358.88	332.06	341.56	369.50	389.19	400.81	351.50	348.69	342.88	336.31	367.19	352.44	312.50	342.12	333.94	330.31	328.75	306.06	330.19
639.06	652.69	641.81	620.38	594.75	583.62	567.94	580.31	600.56	547.38	532.50	583.56	608.31	596.38	583.06	588.50	593.06	595.94	615.62	687.56	721.56	692.94	622.56	620.31	593.94	580.88	646.44	691.06	674.75	649.62	665.50	658.62	631.12	602.38	585.19	570.94	557.44	567.00	577.25	582.19	584.69	598.94	601.00	597.62	540.94	518.25	523.44	537.81	500.62	482.38	479.19	486.56	482.38	494.44	510.56	502.31	505.44	515.81	506.31	435.19	410.50	402.62	402.62	408.38	416.31	470.31	464.19	437.31	482.06	477.50	475.88	458.81	442.94	426.19	409.12	402.69	418.00	414.94	432.75	478.81	531.56	482.25	439.31	424.62	418.44	420.94	403.12	458.75	518.12	514.56	539.50	564.75	529.56	471.88	456.75	433.56	410.56	414.75	405.31	400.19	432.06	418.56	376.69	363.44	398.38	355.19	327.44	319.94	308.19	301.06	297.62	329.81	352.19	396.12	425.69	439.25	451.94	435.75	419.88	439.06	435.06	425.81	417.69	408.81	409.31	415.38	413.69	425.94	427.00	413.88	399.94	405.69	440.50	422.62	403.56	397.69	399.81	396.06	393.38	390.62	387.69	383.62	372.56	368.75	389.19	408.81	405.12	400.31	399.94	404.69	395.38	379.44	383.56	401.62	401.62	395.19	403.38	407.44	422.94	417.12	414.19	408.69	414.50	397.00	394.19	381.50	390.88	400.62	404.56	412.75	431.12	435.06	454.19	453.50	435.62	431.06	452.94	419.19	408.38	408.94	410.12	399.19	382.75	382.38	435.12	467.75	433.00	409.06	397.62	387.81	382.25	371.81	370.94	380.31	373.81	363.31	366.06	410.62	407.94	394.50	385.00	383.81	383.81	382.94	398.31	416.69	408.94	410.69	420.56	425.38	406.62	395.69	385.88	377.31	387.88	406.19	404.00	411.38	427.88	520.25	564.88	423.75	368.38	354.19	366.25	371.12	363.81	365.88	350.19	341.88	342.94	348.94	339.25	351.44	353.06	350.19	344.44	329.62	343.19	354.81	363.88	374.88	397.88	406.38	378.25	359.25	337.00	350.06	386.12	354.56	369.19	367.62	343.00	307.88	307.81	367.00
643.50	694.38	701.50	630.06	586.50	576.88	565.75	561.00	566.69	539.88	514.69	559.25	612.50	595.25	616.56	610.50	596.06	593.44	617.56	690.19	685.25	658.06	629.56	599.12	591.31	582.69	607.00	622.25	645.06	633.75	666.62	626.00	623.00	604.62	581.06	560.50	560.25	562.62	579.56	588.56	588.38	582.50	612.00	581.25	528.00	507.56	494.81	488.12	485.00	475.00	478.44	499.75	491.62	486.06	503.38	465.50	455.31	457.69	466.69	420.94	432.12	446.38	499.69	447.31	370.06	387.50	390.88	423.25	454.00	485.31	467.12	436.50	421.06	407.88	391.88	408.75	408.94	413.00	437.81	461.25	493.25	476.75	474.00	466.31	423.38	403.62	421.94	527.56	570.75	553.81	559.81	576.25	570.25	521.50	540.50	465.50	443.31	451.94	417.00	386.50	440.38	474.06	434.62	392.06	414.06	359.69	327.50	313.88	304.25	300.81	307.62	326.00	351.25	389.06	407.38	431.75	432.12	428.25	409.31	428.00	420.88	414.12	409.50	405.50	405.94	407.00	411.12	436.81	441.62	438.69	418.50	439.69	436.12	414.31	407.50	403.00	397.31	393.06	416.75	409.12	404.50	384.06	368.12	370.25	365.19	386.75	384.44	394.44	384.12	411.00	391.69	367.94	390.12	395.06	410.00	410.75	401.19	404.44	425.88	431.69	404.56	396.62	403.88	417.19	386.50	386.06	399.00	397.06	394.62	403.75	427.19	436.50	421.69	432.69	426.31	433.25	433.88	403.56	396.19	398.44	401.75	384.38	372.50	377.94	408.56	455.62	450.06	414.94	397.94	395.06	383.38	365.62	368.19	379.06	361.38	361.50	376.75	428.50	412.75	390.12	380.81	380.81	378.81	400.00	403.12	405.56	409.25	420.56	420.62	422.62	403.56	393.69	381.31	378.69	399.00	417.00	434.31	467.62	478.12	516.38	532.00	388.75	359.56	372.31	402.81	402.25	385.81	373.25	356.38	353.81	346.31	350.50	347.88	358.94	361.00	353.69	350.75	333.69	349.25	383.00	386.44	386.12	375.50	399.19	383.50	362.81	327.69	346.50	408.75	402.06	377.81	393.62	380.69	332.19	360.00	423.00
632.69	699.19	686.56	620.75	602.06	603.50	599.38	599.75	591.38	532.12	510.62	556.06	563.31	576.19	635.75	616.62	584.94	604.12	621.44	647.38	672.62	691.31	654.62	642.75	646.50	611.06	575.50	570.31	590.12	576.69	581.94	582.12	574.31	570.81	562.69	558.31	565.06	557.75	555.69	567.00	566.50	553.06	574.69	538.62	513.94	499.75	488.62	480.88	482.31	478.69	471.25	472.19	474.50	471.44	467.50	460.62	555.69	496.31	439.50	473.38	515.62	508.12	525.69	484.44	381.88	353.12	374.00	395.06	450.62	520.25	507.25	456.19	421.69	387.06	395.19	406.19	422.62	424.19	445.25	463.69	454.25	489.38	496.50	479.25	440.06	394.12	416.50	525.62	521.25	552.06	543.31	550.25	532.50	515.88	497.69	485.81	449.50	403.00	383.88	366.88	381.69	423.44	420.44	393.50	394.88	354.25	333.62	314.69	304.06	325.12	340.00	374.56	359.94	376.69	416.19	435.44	426.50	401.50	392.38	404.62	408.56	408.56	397.38	408.19	411.38	405.06	407.19	415.12	426.19	443.94	438.56	455.62	454.62	427.00	416.06	404.00	393.50	400.62	440.75	441.19	421.31	389.94	373.00	382.88	381.75	385.38	376.38	377.88	373.12	402.88	397.44	362.12	387.88	415.06	390.06	397.69	396.25	423.19	424.19	425.50	413.12	400.06	394.94	399.62	384.69	388.69	409.75	424.69	428.69	428.44	436.06	441.12	430.88	414.50	418.50	403.31	409.12	386.25	385.06	390.62	394.38	386.12	375.38	384.62	418.44	449.12	453.50	413.44	394.88	401.19	373.44	364.25	373.06	385.06	370.94	372.19	397.19	454.56	410.38	385.38	377.50	377.62	383.94	391.38	403.50	403.38	418.38	411.06	407.62	408.94	399.69	392.56	373.88	386.12	397.69	419.12	498.62	601.38	591.31	456.69	398.19	370.00	374.81	388.62	415.19	453.06	433.62	394.81	372.44	360.06	355.31	360.75	373.69	373.50	382.75	386.00	381.75	366.62	373.88	394.94	395.06	380.25	374.31	369.12	364.69	372.00	340.75	325.75	363.94	427.50	420.56	382.75	372.69	354.69	333.69	368.56
615.56	642.94	628.44	631.12	613.19	618.56	641.75	637.88	581.75	533.12	505.69	509.12	542.12	578.38	599.69	589.44	584.69	605.44	617.44	639.38	652.62	691.19	688.25	671.50	654.88	599.19	576.81	557.75	571.88	556.50	550.94	554.06	558.69	550.44	554.12	570.12	572.56	559.06	552.25	565.81	558.56	535.06	534.69	518.00	503.31	494.19	488.38	491.75	484.25	473.62	472.56	466.12	458.88	467.81	496.06	498.44	575.50	511.81	484.94	518.69	510.12	495.31	484.25	489.81	406.56	350.25	356.50	407.50	440.69	481.00	511.75	467.44	420.19	392.38	383.00	397.38	401.81	422.56	444.44	454.56	438.75	468.62	497.69	479.88	495.38	453.62	395.00	489.62	484.38	535.12	491.00	495.56	524.56	501.06	488.88	459.06	428.94	435.69	419.06	382.75	366.06	407.88	428.38	399.81	374.31	335.12	322.44	314.31	314.31	341.38	350.69	411.50	390.56	393.88	430.19	438.56	407.56	385.25	417.06	445.69	442.50	443.62	408.31	426.50	419.75	404.19	405.56	411.75	416.88	422.38	437.62	453.12	484.12	445.50	431.06	407.50	400.25	415.25	435.00	435.81	418.69	385.62	389.06	395.25	402.75	410.88	400.19	384.94	360.62	386.62	393.62	372.94	363.94	386.94	397.81	415.62	420.81	422.25	407.50	404.25	410.56	402.75	390.88	385.75	381.56	400.06	419.06	430.00	445.25	453.94	440.56	426.88	436.19	416.31	395.50	384.00	405.88	394.94	407.00	391.25	391.19	384.19	386.12	398.69	442.81	448.69	438.50	390.69	383.50	383.56	370.94	363.31	373.38	391.94	366.69	401.81	432.25	425.00	391.56	374.94	392.31	408.25	390.62	392.12	396.44	405.69	408.06	390.06	398.75	410.50	391.88	402.50	371.94	390.75	396.06	411.88	513.81	596.44	514.00	428.75	393.88	390.69	397.06	407.81	417.00	444.69	444.31	406.88	379.94	381.56	367.31	377.38	389.88	400.69	398.94	399.12	391.12	372.44	379.25	386.69	386.12	390.62	391.75	401.88	384.06	346.50	331.62	347.81	397.94	415.31	417.62	383.00	383.50	379.69	350.25	374.56
600.19	620.31	601.38	619.56	610.56	613.75	649.31	630.56	585.75	542.56	521.31	511.38	578.25	626.38	595.12	611.12	603.19	615.56	615.94	623.62	639.56	684.19	681.19	657.69	659.69	622.06	587.75	559.31	563.81	553.88	547.12	546.62	546.19	541.81	543.12	574.50	594.56	560.25	547.88	562.94	562.44	549.50	531.00	511.00	497.06	490.56	488.94	496.31	493.31	478.06	482.06	474.88	474.56	496.12	550.75	541.06	547.75	534.19	535.06	508.06	487.44	499.62	452.50	429.50	404.19	377.69	358.31	435.50	448.75	461.25	494.06	457.56	430.25	443.56	391.25	394.56	411.00	432.50	449.69	448.00	430.06	446.75	466.06	476.38	499.75	449.94	384.69	421.38	483.62	508.56	454.81	487.88	530.50	496.88	469.00	448.94	443.94	474.25	420.94	377.50	352.50	375.56	409.50	395.69	357.69	324.00	308.06	302.75	313.94	321.75	335.88	392.31	391.81	393.94	427.81	445.19	420.50	384.56	410.25	423.88	451.00	452.62	423.12	414.12	420.00	408.25	394.38	413.19	411.56	416.19	449.62	459.50	483.31	443.12	427.44	418.19	411.25	431.50	424.00	427.19	414.31	400.50	406.44	408.12	410.62	394.19	383.81	382.94	376.31	362.75	388.81	365.25	364.44	372.56	417.19	434.75	443.12	456.69	409.00	400.88	406.69	406.81	392.94	379.56	413.88	426.81	415.50	420.94	441.88	467.38	452.94	418.88	416.19	424.69	416.00	389.31	380.12	392.88	404.06	388.75	379.56	373.12	411.56	406.19	439.81	458.12	423.81	386.75	387.00	371.62	368.25	363.31	366.62	380.19	356.31	402.56	429.56	414.75	384.38	375.75	421.12	425.50	406.25	396.38	395.31	408.56	409.25	385.88	387.25	393.50	387.38	385.25	374.19	393.12	391.00	396.31	459.12	502.94	451.44	422.62	404.69	407.50	421.19	428.50	415.44	421.62	426.12	413.25	388.31	402.00	380.81	381.12	393.50	407.00	395.44	384.12	380.19	372.75	369.94	373.56	379.69	391.31	414.44	425.81	358.94	346.06	326.50	341.62	368.31	395.38	429.81	409.12	406.12	387.12	359.38	392.31
615.06	617.12	577.81	597.62	582.25	604.12	607.88	614.19	607.50	621.69	608.88	593.56	510.94	531.44	594.94	622.50	606.12	619.19	619.19	620.38	643.31	678.12	666.88	653.06	642.94	673.94	640.06	568.38	549.69	548.69	542.69	542.38	540.75	563.06	561.75	582.69	598.88	548.50	529.94	541.75	542.75	532.56	520.88	513.44	504.31	498.81	497.56	502.94	491.12	485.44	499.31	499.25	502.94	539.88	591.19	616.38	641.31	568.25	539.50	497.62	469.75	464.75	451.00	461.38	456.94	395.62	396.06	424.06	396.19	413.31	474.56	472.62	474.69	461.38	400.06	414.31	434.81	416.00	420.00	431.38	425.19	435.56	417.00	465.88	521.00	471.44	379.88	386.69	410.19	433.25	512.31	539.62	546.12	490.56	458.31	437.69	442.06	447.00	385.00	360.38	353.31	346.44	354.69	379.69	344.81	335.12	311.81	310.25	337.62	356.00	358.94	379.38	372.31	392.56	413.38	415.56	396.31	389.38	437.31	448.56	450.31	457.06	432.00	408.44	411.50	415.44	420.81	425.81	426.94	436.69	438.50	437.56	462.62	449.38	426.69	413.94	422.56	415.38	409.44	413.19	399.94	400.62	394.44	417.50	409.56	421.31	403.50	394.50	375.75	355.69	376.06	360.25	365.69	389.25	409.38	422.81	445.12	452.38	442.19	405.31	394.75	415.81	417.94	384.25	394.94	403.00	403.25	426.38	444.88	426.31	426.50	430.50	410.38	388.12	389.94	390.38	375.31	368.25	385.94	365.31	353.31	377.94	434.50	420.50	431.50	425.75	404.94	400.19	399.25	380.56	371.19	366.44	364.75	364.38	343.31	362.19	389.38	382.75	370.00	385.69	412.88	423.25	417.62	414.12	407.62	410.00	403.31	387.12	395.44	384.38	382.88	382.56	369.25	390.25	388.56	384.00	398.25	402.06	405.12	401.81	400.50	415.88	420.38	427.56	421.75	408.50	417.00	411.69	400.00	414.31	391.88	397.69	404.25	410.44	402.25	394.50	381.00	382.69	371.06	361.81	365.31	368.06	377.38	368.62	339.69	328.81	332.25	366.50	392.00	395.31	427.00	457.88	439.62	390.00	349.31	362.38
617.06	609.81	563.38	552.31	545.06	580.25	586.31	565.62	569.56	644.00	628.75	579.44	498.44	526.25	574.38	577.06	600.38	646.31	646.44	661.06	685.94	686.31	662.81	649.06	627.19	645.88	662.25	587.12	545.19	544.31	539.25	540.12	547.25	569.88	590.88	581.12	573.38	542.38	529.25	537.12	541.44	546.06	536.56	527.50	520.38	510.31	512.31	510.75	496.69	494.75	510.31	530.88	551.25	625.75	667.81	687.00	679.12	574.38	537.06	491.88	480.62	469.00	460.44	476.62	490.38	416.19	361.00	380.44	378.94	401.06	439.06	441.44	449.75	433.25	433.00	402.12	417.50	389.00	407.81	419.56	432.75	440.56	411.94	410.69	483.00	441.69	374.06	356.25	377.25	432.62	530.62	543.88	545.88	483.94	459.62	432.50	438.75	445.38	405.38	377.38	377.69	355.06	347.12	349.44	349.38	330.81	305.12	337.00	361.94	374.12	381.19	376.38	361.75	382.44	406.69	409.00	378.69	397.81	429.62	456.94	472.25	485.44	442.44	411.06	415.06	418.25	414.06	422.94	438.12	457.75	434.94	429.56	438.38	438.19	428.94	422.56	421.75	400.75	408.12	407.19	384.44	377.00	374.44	405.31	421.50	425.25	405.62	394.06	385.56	364.69	373.25	355.19	382.31	399.62	413.75	421.75	444.38	449.69	435.31	420.06	398.00	420.50	398.44	378.50	401.44	405.69	432.81	439.94	429.94	411.19	404.75	406.44	394.00	383.19	376.94	403.75	381.88	364.00	368.00	359.25	361.38	384.81	425.00	434.50	450.31	432.69	413.50	394.12	376.94	370.25	364.88	358.75	363.19	352.38	349.38	402.31	412.94	400.25	399.88	411.81	422.19	430.56	424.06	429.50	426.00	403.62	384.25	385.62	396.81	397.75	397.88	385.69	373.62	381.62	376.56	378.00	387.25	379.25	386.62	388.44	397.19	410.62	425.69	430.44	419.25	401.25	411.69	410.38	399.62	416.00	384.81	395.06	406.56	419.62	408.69	390.50	389.38	390.38	368.94	358.81	355.69	346.94	352.75	336.19	331.50	346.06	365.50	383.94	411.50	433.50	448.12	474.12	449.50	389.88	343.50	354.00
607.69	589.00	553.62	557.62	548.31	551.56	556.31	527.31	531.12	569.44	580.19	553.06	494.56	501.94	564.50	618.38	661.75	686.81	688.12	731.62	737.00	681.31	644.81	639.44	610.25	583.94	600.69	589.31	548.00	538.12	536.31	537.00	542.94	555.50	565.38	568.44	575.44	561.12	551.38	555.62	585.19	576.25	559.06	571.69	542.00	559.06	564.88	562.12	533.50	516.81	550.38	626.56	655.94	662.50	664.75	676.81	617.25	540.62	515.56	483.25	466.62	459.50	430.44	420.31	459.44	452.50	379.31	355.81	358.81	403.44	425.56	411.62	397.19	383.31	443.44	394.38	384.62	390.19	405.06	423.94	445.25	434.25	418.69	415.69	400.38	374.94	356.94	347.12	387.94	424.88	487.00	524.50	532.81	460.50	456.19	437.06	465.75	472.94	457.62	445.81	420.25	373.50	421.25	406.00	350.38	310.00	331.00	340.69	319.88	325.50	375.56	345.00	370.19	393.25	410.25	372.69	373.56	388.50	408.31	420.06	434.69	476.31	445.44	419.88	418.62	424.12	408.31	421.75	432.00	445.25	431.75	434.44	422.75	416.75	414.62	398.88	392.19	396.19	397.75	381.50	363.38	357.44	367.06	390.62	419.38	412.50	402.69	396.75	374.81	374.25	362.38	363.50	384.50	404.44	413.25	419.81	430.12	429.31	420.06	408.62	381.56	403.31	375.12	377.62	397.50	394.75	396.50	401.12	417.94	413.88	399.06	392.38	400.50	385.56	373.25	384.25	386.94	373.00	356.50	354.94	365.38	408.62	438.50	441.75	521.44	494.31	472.38	432.50	397.25	394.44	363.81	359.25	376.38	355.12	366.44	422.44	454.88	423.00	430.56	447.06	439.12	444.44	444.75	436.00	427.50	424.00	389.38	374.50	380.50	398.81	408.69	394.00	368.56	370.75	375.31	378.25	390.12	391.19	393.94	411.62	424.06	433.38	431.12	419.06	410.88	399.62	394.19	394.19	388.19	409.69	387.81	391.62	404.88	418.81	407.56	399.56	402.12	403.94	388.38	355.62	350.88	355.50	379.81	351.12	346.31	343.19	366.00	397.75	387.75	446.25	460.25	448.94	417.75	388.31	374.81	366.38
579.75	572.12	552.00	555.75	562.31	544.31	532.25	514.62	511.44	529.94	533.06	517.06	488.81	502.00	535.12	596.94	649.31	661.75	642.38	708.50	706.81	643.56	602.62	585.62	589.81	576.94	568.81	563.62	544.12	536.38	537.31	539.75	548.62	574.69	564.38	567.19	569.75	565.50	571.12	565.44	600.81	609.81	598.62	593.19	571.75	580.50	629.06	688.38	597.12	551.38	604.06	673.94	661.62	659.56	627.00	646.81	589.75	512.94	502.88	495.12	463.50	442.62	425.25	411.88	408.81	445.94	413.12	348.62	351.25	395.75	408.19	400.44	357.50	362.56	434.06	399.75	367.19	406.44	427.00	440.19	447.50	432.88	408.88	402.94	419.06	389.88	365.62	348.06	365.31	408.44	448.50	494.44	484.81	437.94	433.75	438.06	458.38	459.31	440.25	433.38	427.81	351.62	371.81	382.44	328.50	308.56	306.19	315.25	337.06	335.62	326.31	317.31	335.25	350.94	360.56	373.69	391.12	412.00	440.06	420.31	397.06	447.06	443.69	433.00	431.75	446.06	448.06	444.12	429.50	446.12	432.19	428.81	425.06	434.50	438.25	398.75	382.12	391.12	375.31	357.69	359.31	352.06	350.75	372.00	393.25	415.44	400.56	386.06	390.81	377.25	352.75	340.81	383.06	403.06	414.06	422.44	415.81	426.75	409.56	382.44	372.19	384.50	370.56	376.25	376.88	379.00	388.44	390.19	396.50	407.00	395.19	384.62	401.69	399.81	391.06	373.19	377.12	386.62	362.06	348.38	359.06	416.44	490.38	450.25	543.88	534.06	520.12	461.94	421.25	400.94	369.75	363.94	385.75	362.19	388.62	432.69	447.69	411.06	410.94	432.62	434.69	439.12	437.38	425.38	434.44	437.69	402.50	388.88	376.31	379.75	397.81	397.88	359.81	390.50	393.75	390.75	400.88	405.56	411.12	415.50	435.38	438.31	432.38	420.94	411.31	416.38	413.62	391.50	384.19	395.94	385.88	404.81	413.19	422.31	416.31	417.06	420.06	409.56	389.19	364.12	377.44	368.94	386.38	371.75	361.94	346.88	346.50	371.62	373.69	449.25	449.19	463.56	443.06	433.06	406.31	378.62
572.62	559.94	543.69	536.75	541.12	522.81	511.88	495.88	506.75	497.19	498.69	484.25	477.75	498.25	540.75	558.81	594.19	597.44	620.38	650.81	654.81	634.69	601.69	565.38	562.75	565.88	561.00	548.31	537.81	535.94	536.75	553.94	555.81	567.06	560.12	565.38	564.19	559.25	568.88	561.25	569.56	597.19	611.00	585.75	585.62	618.62	675.00	726.06	672.75	623.75	664.50	679.50	640.88	617.12	600.00	602.19	550.69	513.25	530.25	511.62	487.81	456.94	422.94	409.88	394.81	433.00	402.94	354.88	351.31	364.94	363.44	373.81	349.38	362.69	361.81	354.69	367.44	420.62	442.06	447.94	432.75	414.00	415.56	396.12	399.31	390.62	373.06	364.38	354.94	388.00	421.88	444.06	440.69	408.19	424.81	436.25	440.94	437.31	419.94	387.31	400.50	347.94	330.38	327.19	334.12	307.88	321.81	349.25	361.94	346.38	368.50	345.12	348.44	418.06	448.31	430.19	423.19	438.94	450.19	432.31	401.00	433.81	456.56	449.81	443.62	445.38	448.00	471.00	436.94	428.81	430.00	434.50	440.75	444.69	442.81	416.88	389.62	362.69	371.62	392.94	386.69	364.19	349.56	358.56	366.62	364.88	377.19	360.25	359.69	358.62	357.50	370.00	395.75	408.62	424.88	428.50	397.75	417.81	397.19	368.00	377.81	392.31	402.50	415.81	402.88	400.25	400.50	405.06	408.56	413.25	399.12	389.62	385.62	396.12	397.94	392.00	371.00	377.44	372.81	351.94	364.00	409.38	508.56	480.38	541.81	517.00	505.75	458.06	422.94	408.31	377.31	370.38	362.00	354.31	385.12	411.31	399.75	397.62	410.50	413.50	413.25	426.69	419.44	409.00	426.25	438.25	429.06	403.00	392.94	383.94	374.69	370.75	360.25	382.88	404.38	417.56	418.06	420.38	419.69	427.38	426.38	413.62	412.62	416.25	405.19	409.94	416.62	402.56	384.38	373.06	381.94	390.19	401.88	411.88	410.94	401.25	403.62	417.50	420.31	386.12	412.25	385.06	415.56	408.62	387.19	359.25	352.31	362.31	411.50	469.31	461.38	504.94	466.06	455.94	442.06	401.31
607.31	609.12	583.44	583.38	588.56	547.44	517.12	514.75	542.44	516.12	507.00	473.81	466.38	513.69	565.12	563.06	584.81	603.62	640.31	652.44	627.56	593.00	573.06	565.12	562.75	551.62	547.19	541.50	535.69	537.06	562.06	572.25	550.44	551.50	549.81	555.81	562.38	588.69	612.69	581.00	558.69	570.88	590.69	576.06	590.06	665.44	710.56	700.81	670.31	676.00	646.94	640.06	617.25	593.69	573.69	595.12	549.12	565.88	589.06	563.69	553.50	496.88	463.44	449.69	411.69	391.81	385.12	387.44	379.12	363.81	365.88	380.50	381.25	423.81	378.25	342.31	326.81	386.69	431.44	425.81	421.88	411.06	412.44	422.44	388.38	391.25	372.88	372.06	349.75	397.12	426.88	433.00	425.56	388.81	420.94	401.56	387.00	408.06	379.56	359.31	371.94	352.25	340.75	315.25	313.25	309.12	328.50	358.56	375.19	358.44	400.62	373.88	398.81	426.69	462.44	462.25	452.69	464.00	473.81	432.00	405.88	422.69	465.50	471.31	464.31	450.75	452.94	483.56	439.81	417.75	423.19	417.25	434.81	438.56	440.19	406.25	382.38	366.94	385.56	408.44	392.81	372.38	354.62	354.25	356.94	365.38	359.25	372.06	361.12	374.75	394.00	369.50	388.44	409.88	430.06	436.19	397.81	398.31	395.81	357.56	386.88	388.25	392.31	414.12	408.94	412.88	415.62	417.44	404.38	407.81	404.62	394.00	379.44	392.12	397.50	393.62	387.62	374.56	364.69	353.19	364.50	446.31	459.06	498.00	524.31	508.88	476.06	464.19	423.19	403.56	376.38	385.25	367.81	343.56	368.44	418.38	430.06	409.88	419.19	437.50	443.88	455.44	435.25	406.31	406.94	429.00	429.44	410.94	398.81	384.38	378.06	366.31	373.44	397.81	415.88	419.81	405.06	401.75	410.69	420.50	403.25	401.44	389.94	384.88	402.88	403.06	394.31	391.06	377.31	368.56	377.19	380.06	392.06	402.62	394.81	383.44	388.38	417.12	425.19	425.44	425.69	415.50	427.00	404.62	379.00	360.62	378.69	384.44	423.81	476.50	461.56	497.75	506.75	464.06	434.31	410.75
637.50	657.00	643.69	643.75	660.56	627.75	581.75	581.50	621.69	595.44	535.69	476.00	491.31	527.88	568.00	588.50	604.38	645.94	649.38	644.88	628.50	604.00	601.12	611.06	606.19	568.75	535.44	530.31	540.81	541.06	555.31	560.38	550.56	551.81	562.06	572.38	573.38	591.31	607.06	599.44	586.38	573.81	569.75	566.88	579.06	634.88	666.31	668.44	645.44	639.88	610.06	595.25	597.19	598.06	564.88	555.19	577.94	589.50	589.19	529.06	516.56	482.31	481.56	473.88	462.62	434.69	427.25	412.12	396.88	374.69	398.38	450.69	485.94	511.00	459.31	355.62	371.81	408.12	437.06	420.31	403.56	412.88	418.50	415.38	407.88	403.75	359.81	341.69	358.62	399.50	401.56	403.56	406.44	382.25	390.25	380.88	367.62	363.06	363.00	356.38	352.00	361.12	361.56	312.06	304.50	306.19	347.88	362.56	376.25	385.69	402.81	425.94	449.44	464.75	464.25	467.12	462.50	472.56	468.88	429.19	417.81	421.19	426.31	444.19	480.19	453.50	459.44	489.31	465.00	427.81	413.00	413.94	410.44	441.75	442.94	405.88	382.25	363.81	385.69	403.44	383.44	372.00	371.44	371.56	370.25	395.81	413.25	405.31	399.12	421.00	414.69	394.81	372.88	386.81	411.38	418.94	405.81	382.88	379.19	386.06	418.50	411.12	385.62	388.31	391.25	394.12	407.94	420.88	405.25	389.56	387.81	396.31	386.31	378.31	397.00	380.50	386.56	378.69	369.69	357.88	354.69	439.50	492.81	526.31	502.94	479.00	459.38	462.88	430.69	418.50	407.00	384.31	350.00	333.06	355.12	404.69	438.94	422.69	414.06	417.12	421.44	429.69	454.94	421.38	395.19	418.75	404.12	405.88	403.50	395.56	393.88	383.00	363.38	406.12	414.31	406.00	390.00	395.38	417.56	420.31	415.88	385.38	378.88	378.88	405.69	408.44	392.44	376.75	365.88	365.81	369.94	382.88	400.12	386.25	373.50	371.69	374.44	391.06	416.31	443.25	417.12	416.31	403.75	379.06	370.94	392.88	404.75	429.88	442.75	480.69	475.44	489.81	484.88	477.25	460.31	455.94
639.25	664.00	660.88	654.62	681.06	661.75	639.00	626.06	627.12	630.94	574.31	495.50	496.06	520.94	570.62	618.44	604.44	626.44	646.88	637.62	620.38	612.69	612.56	606.81	607.69	570.31	541.44	550.31	560.94	545.50	553.56	560.38	552.56	553.69	557.88	570.44	572.19	579.62	579.00	594.44	611.50	579.31	572.31	570.81	582.56	622.19	634.88	633.44	636.50	623.12	585.50	566.75	566.06	572.75	553.88	534.50	529.62	540.50	539.50	496.06	459.19	442.81	458.19	469.19	482.88	431.25	404.69	397.00	383.50	404.81	429.75	455.50	478.94	493.81	486.19	362.69	373.38	402.12	397.81	409.31	409.25	416.56	426.88	412.88	400.88	381.31	354.62	341.00	333.50	361.19	373.50	397.19	402.44	372.50	372.50	374.69	361.94	354.62	376.38	387.25	361.56	335.06	363.38	316.25	321.25	325.19	350.44	357.44	370.56	390.12	412.38	427.00	444.06	441.62	448.69	452.69	453.62	459.94	469.12	441.38	417.31	429.62	435.69	448.81	486.44	480.56	473.81	470.31	470.56	435.44	421.25	425.94	400.31	421.44	409.12	390.25	381.81	366.19	388.56	406.81	394.00	377.62	365.69	367.94	365.88	395.81	424.88	418.50	421.88	407.81	420.81	402.25	374.62	378.12	404.44	381.19	374.38	378.06	364.56	409.69	438.44	415.94	393.94	401.25	407.88	400.62	413.62	425.25	406.88	395.88	381.25	389.31	395.00	378.50	376.00	382.94	377.69	374.69	369.19	362.75	350.69	401.69	500.62	527.38	486.19	467.25	447.00	446.88	438.06	422.12	409.88	377.25	346.62	338.75	341.31	385.31	427.00	431.38	423.00	414.25	409.62	420.50	451.69	415.81	387.56	397.69	383.62	387.25	406.06	409.19	396.31	381.06	359.62	385.25	415.19	392.81	382.12	392.56	406.94	418.38	400.56	385.56	378.00	380.31	408.00	398.75	388.75	370.69	370.75	380.31	379.75	380.31	377.31	368.56	368.56	370.50	377.44	377.94	383.44	438.50	426.38	419.62	413.56	381.75	395.31	389.69	394.44	422.81	437.62	459.12	479.38	500.19	464.50	452.19	460.62	507.62
629.75	669.25	680.62	673.56	665.50	650.19	642.19	624.12	599.81	593.69	563.25	493.38	507.81	564.19	581.44	585.75	583.50	608.81	622.94	620.62	627.81	597.25	596.00	586.56	566.81	551.75	546.56	563.12	577.25	578.19	558.12	553.88	560.69	566.00	557.31	563.06	563.75	574.62	564.06	569.69	596.75	581.81	597.88	592.00	608.38	613.06	611.38	629.19	647.88	623.56	582.62	559.06	545.50	561.19	554.62	564.19	525.25	500.94	483.62	463.44	441.69	424.25	428.69	447.19	468.06	422.62	389.50	401.88	400.75	455.06	471.00	493.06	459.38	435.81	449.94	362.31	331.31	369.94	377.88	411.81	434.88	425.69	430.44	415.75	407.19	391.62	366.75	357.50	333.00	329.81	359.88	375.25	384.12	362.12	364.44	377.75	361.38	355.06	402.06	431.81	372.19	328.44	355.38	302.31	316.19	332.56	356.06	362.56	377.06	385.19	396.25	398.94	407.50	400.69	422.38	442.69	436.19	464.06	481.31	452.62	432.38	442.12	438.69	447.88	453.62	465.19	489.06	479.62	467.06	450.50	441.94	438.25	411.31	424.12	405.88	393.75	376.31	372.19	363.56	390.06	401.12	389.00	379.94	394.25	374.19	400.44	421.56	433.62	416.00	404.06	416.56	414.56	387.75	369.44	367.19	353.50	375.88	379.44	404.38	416.62	411.12	417.19	409.12	400.56	415.56	419.06	416.62	420.94	412.94	395.12	384.69	377.88	387.56	392.38	371.50	362.50	383.06	385.44	368.12	350.62	349.38	378.19	418.94	467.44	481.00	462.62	435.88	433.50	426.50	415.25	407.00	374.31	353.38	341.06	337.75	357.38	398.94	427.25	410.06	397.19	395.88	405.75	439.00	422.44	398.44	385.94	377.50	371.88	396.94	395.31	398.12	379.69	353.81	377.62	411.19	385.31	385.88	409.25	412.81	415.19	391.75	382.88	378.31	381.69	398.56	396.25	378.44	382.88	400.56	398.69	392.12	380.31	369.25	366.88	365.88	366.31	371.50	366.88	373.81	411.75	454.31	438.94	424.75	400.75	429.00	399.06	443.25	469.31	449.50	448.62	469.69	538.19	502.31	461.25	464.69	486.50
609.62	652.56	683.94	689.12	665.19	651.25	631.62	613.69	590.94	581.12	602.88	515.19	489.00	547.31	553.88	547.31	575.50	595.44	606.69	600.44	614.69	594.56	566.94	550.56	551.44	572.25	553.12	571.94	608.81	627.44	608.69	593.06	593.31	609.81	595.44	565.69	561.94	565.00	559.38	559.12	564.38	571.44	586.19	590.69	639.69	642.44	615.88	660.00	718.81	694.44	648.75	594.75	578.12	563.69	534.19	525.81	521.62	508.56	523.69	531.75	543.62	455.25	414.12	422.38	422.00	395.31	386.88	458.94	464.62	493.19	499.75	516.06	480.62	433.56	413.19	404.25	345.12	331.62	383.81	434.12	440.50	439.31	442.94	437.38	425.50	389.25	373.31	362.44	338.62	336.12	374.25	358.44	353.94	377.38	394.75	372.88	355.94	354.88	412.81	404.69	377.25	346.25	327.62	301.69	301.12	320.69	349.06	368.31	390.69	387.75	378.50	383.62	392.38	381.06	398.62	421.00	451.50	457.31	481.62	469.88	471.56	467.06	451.25	442.06	459.06	493.25	509.44	492.50	467.69	482.31	448.00	448.38	418.12	425.31	425.50	418.12	402.25	387.75	364.06	379.94	400.44	400.69	395.81	396.94	398.81	440.44	443.44	455.81	451.38	421.88	402.62	417.31	377.00	367.50	392.56	395.50	380.94	393.81	408.69	435.75	425.75	440.94	471.56	423.75	403.38	414.50	414.50	416.19	403.38	399.75	395.44	389.88	377.12	382.62	392.81	386.75	366.69	381.12	372.12	349.69	356.38	373.44	387.25	405.12	460.81	490.06	445.31	418.94	393.00	392.69	380.00	367.69	338.88	328.88	335.81	349.00	354.62	397.19	392.75	394.00	396.88	400.06	422.06	418.00	402.50	386.06	378.88	371.25	372.44	376.19	379.38	386.38	372.38	372.19	396.00	384.19	407.38	425.69	433.25	422.69	402.31	397.00	395.69	377.12	371.62	392.06	367.00	367.94	383.75	376.00	382.62	376.81	364.94	363.75	363.69	368.00	373.69	373.31	391.38	414.75	454.75	465.12	456.44	444.12	482.00	458.19	494.12	537.50	492.25	469.62	479.12	537.94	546.12	535.44	519.69	501.81
597.12	618.06	654.44	685.00	687.06	692.88	681.12	648.38	605.56	564.00	584.25	545.25	476.31	500.50	515.19	545.12	568.06	589.19	588.19	586.69	606.06	580.69	542.19	536.19	554.69	585.44	566.81	580.31	608.88	623.94	652.38	666.25	661.00	689.56	675.56	593.75	577.44	571.88	563.88	564.31	575.31	572.94	573.12	585.88	633.75	646.31	622.25	674.06	756.94	741.38	716.50	637.69	614.12	617.06	581.25	536.38	530.94	550.06	552.75	588.88	567.75	501.44	433.25	402.88	397.25	406.62	406.38	434.62	482.94	475.06	480.94	479.00	454.25	419.88	387.69	418.56	365.19	366.25	442.00	479.69	467.62	461.62	450.50	460.88	474.62	437.12	439.44	401.31	364.06	339.62	373.12	344.62	349.06	377.31	389.88	358.12	344.94	346.12	369.44	391.62	395.56	382.56	338.88	307.31	326.00	339.44	334.31	368.31	393.62	366.12	358.50	375.62	390.19	399.56	400.25	416.88	454.62	466.75	477.00	469.06	482.44	470.19	442.19	444.88	451.88	460.69	470.88	495.44	482.44	487.25	449.19	426.62	411.81	408.75	419.94	416.38	412.62	386.19	370.00	390.81	389.94	396.31	407.50	410.25	410.50	432.62	430.75	439.19	443.69	417.94	391.69	398.94	372.50	401.88	454.88	439.69	398.75	395.75	404.88	435.62	455.00	501.94	512.19	438.31	418.31	419.56	401.44	401.19	395.44	400.19	393.00	381.50	381.62	366.38	380.81	388.00	374.69	361.75	367.25	349.81	367.00	391.62	383.50	388.19	412.56	462.69	440.69	414.25	382.88	384.88	377.88	357.44	334.81	330.81	339.62	345.44	332.31	387.06	426.62	421.94	408.50	403.94	429.06	417.62	409.12	396.62	397.44	387.44	366.94	360.88	358.25	359.50	357.25	366.44	367.31	388.31	416.12	427.38	419.88	417.44	398.88	402.31	396.94	394.12	368.94	375.25	363.81	381.69	373.88	359.25	362.88	367.50	361.88	360.38	365.12	375.50	381.44	385.06	409.88	436.62	465.31	474.62	464.19	447.31	443.06	444.38	442.00	488.81	488.31	467.94	495.56	475.31	502.38	509.88	493.25	487.12
606.44	605.44	615.88	656.75	698.62	710.94	700.19	652.25	621.38	564.75	555.88	568.44	486.38	520.69	557.94	560.06	557.38	562.88	572.69	590.75	586.62	537.69	501.31	528.81	583.19	608.06	602.19	625.88	644.50	641.50	681.88	694.25	683.62	683.75	675.19	683.56	667.00	632.12	613.75	601.75	593.25	581.94	584.44	609.19	640.19	677.69	670.06	671.94	705.81	708.44	731.19	644.19	589.88	581.56	564.94	598.94	576.62	595.06	575.12	603.94	599.44	582.00	479.44	411.75	398.94	428.94	440.31	445.31	453.44	443.62	434.25	425.88	422.25	397.06	357.25	361.00	335.19	381.31	439.75	460.50	442.50	447.00	449.62	465.81	483.75	475.50	463.00	450.88	433.06	380.62	329.69	324.62	336.50	358.88	356.88	353.12	345.75	364.75	376.19	401.81	405.06	379.62	336.44	321.81	314.06	355.75	370.62	395.81	387.62	344.56	382.50	401.38	422.88	434.75	436.19	438.00	446.00	473.19	496.75	469.12	474.38	458.00	434.19	452.62	453.25	454.56	463.06	498.50	477.44	448.94	433.38	427.31	406.38	403.88	405.94	402.31	403.69	387.94	392.19	401.56	406.31	408.81	411.56	419.50	418.00	400.88	411.50	429.94	431.19	429.06	400.50	379.44	356.38	386.00	403.19	398.69	394.62	381.38	392.06	426.69	449.81	478.56	480.56	451.88	455.06	436.88	403.56	389.81	385.56	395.94	402.75	395.06	397.19	376.88	358.94	385.31	369.81	357.62	353.31	350.19	363.81	382.75	402.06	394.56	410.62	463.62	450.50	434.69	419.31	384.50	370.50	354.50	331.19	342.44	351.75	354.00	354.81	362.06	398.69	437.75	436.38	414.19	426.19	431.38	398.19	404.75	398.62	392.62	388.88	378.81	386.06	382.94	362.31	344.31	365.44	384.44	413.75	409.06	395.94	408.00	402.50	380.00	393.94	385.94	383.50	361.69	361.12	383.31	360.12	352.38	357.19	357.38	361.19	358.75	372.44	383.19	381.00	389.88	399.00	404.56	438.31	441.56	457.00	452.81	433.62	426.00	426.50	444.44	449.94	447.94	472.06	439.38	454.25	485.31	514.12	499.69
656.38	639.31	625.25	638.19	667.94	670.38	646.81	626.50	595.62	545.69	548.94	547.69	466.38	513.12	561.00	578.06	582.50	591.56	594.44	596.81	573.44	518.12	524.12	605.25	626.44	635.88	624.75	709.75	728.00	681.94	675.38	666.50	672.12	671.56	666.50	708.31	708.94	690.81	686.94	649.62	606.81	599.12	611.50	660.75	706.56	702.19	696.94	665.12	695.19	693.94	718.38	630.00	571.81	555.69	581.69	645.25	620.12	604.25	589.19	587.38	593.88	511.00	447.50	414.06	407.44	454.50	448.69	432.44	435.31	443.56	439.31	427.19	404.75	387.75	370.62	334.50	335.62	390.75	433.94	445.44	426.62	436.81	457.25	464.06	458.81	459.31	467.38	456.06	449.50	420.38	343.38	313.56	338.81	380.62	355.25	339.50	361.56	400.38	387.00	385.12	382.62	342.94	310.56	299.12	298.06	332.00	373.38	402.38	373.25	337.25	363.19	377.12	382.94	422.81	447.81	447.56	433.56	466.50	498.56	484.88	491.94	448.94	433.44	441.31	443.38	450.12	455.94	488.62	511.88	451.31	428.31	424.25	420.19	423.00	421.00	411.25	412.12	399.25	406.50	404.50	410.56	421.69	412.00	423.94	412.94	404.12	423.75	449.69	436.38	405.06	397.81	371.75	355.88	369.88	375.94	378.31	379.00	376.19	394.19	405.25	448.00	461.94	468.62	462.62	457.50	442.19	405.06	395.00	380.00	393.38	394.81	405.19	393.25	381.19	375.62	355.12	364.88	348.88	349.56	361.50	371.00	378.12	381.06	383.62	424.56	451.19	466.00	467.88	472.50	405.19	370.75	343.88	334.00	352.12	368.56	372.25	391.50	381.06	378.00	403.56	413.94	407.00	415.06	422.56	389.75	392.50	386.06	373.25	369.75	365.12	377.25	372.94	354.94	349.25	370.69	379.25	411.38	412.50	384.75	399.31	399.06	372.31	392.12	365.50	381.75	358.50	368.38	371.31	349.56	353.94	359.94	359.56	358.44	358.94	364.69	366.12	376.38	388.19	398.69	408.62	422.75	415.69	442.69	475.69	455.88	430.62	433.25	434.44	437.00	418.69	436.88	441.25	440.38	476.44	541.00	524.94
617.81	618.38	601.44	572.25	579.88	597.81	608.94	606.38	633.31	599.38	509.31	495.56	495.75	542.31	540.44	557.44	567.00	584.56	593.19	581.69	518.19	474.75	565.25	628.06	635.94	640.81	642.94	643.12	705.81	703.62	665.44	647.56	658.25	665.94	663.75	676.88	686.25	665.00	655.50	654.50	649.00	666.44	677.56	740.88	751.00	698.25	683.25	685.31	691.88	728.50	732.19	626.62	567.94	544.81	584.75	608.19	603.94	615.69	554.38	487.69	490.81	451.50	424.31	413.19	412.38	424.25	425.75	426.88	427.44	427.88	437.44	434.06	412.12	454.50	407.38	333.19	352.06	396.69	418.00	404.25	407.81	428.12	446.62	457.06	439.62	431.69	446.75	434.62	428.50	413.62	363.19	322.62	327.06	353.38	355.31	329.62	372.94	395.19	388.38	378.69	325.81	308.62	355.56	356.56	359.38	304.81	325.75	365.12	356.00	379.25	398.56	387.69	382.50	408.19	432.94	439.31	423.38	442.38	438.88	465.75	449.88	444.56	428.06	434.62	436.50	445.06	453.00	458.44	478.38	451.62	434.00	439.19	437.88	452.12	443.19	438.31	426.38	401.50	398.56	416.88	412.12	410.31	417.06	414.56	412.25	399.44	410.25	419.56	431.06	416.88	406.88	378.56	347.62	381.56	395.50	376.00	376.62	390.69	406.06	437.62	452.81	444.75	470.06	480.69	471.44	423.56	399.38	388.88	382.25	374.50	395.31	395.56	392.25	381.56	371.19	369.31	347.00	346.06	342.38	347.19	355.19	376.94	381.56	391.06	464.69	428.56	434.31	444.88	444.50	459.81	396.00	361.00	388.38	396.31	406.38	406.56	401.94	416.00	414.31	417.38	416.38	412.38	411.44	406.00	401.31	399.44	397.31	386.62	378.44	368.50	368.06	361.12	351.19	355.00	364.50	387.94	405.62	410.69	377.19	384.62	393.94	376.62	387.69	363.69	356.81	353.25	358.94	365.44	359.69	360.06	368.81	373.75	382.25	380.12	372.44	376.00	379.38	381.25	385.31	399.00	412.12	403.38	443.31	465.00	467.00	455.31	453.81	431.31	424.94	424.19	441.12	432.38	465.19	497.69	512.50	485.56
578.69	578.81	572.69	534.38	540.88	536.50	602.31	607.50	642.50	592.81	523.38	453.88	513.31	565.19	590.75	580.19	583.56	573.25	586.88	584.62	553.44	491.50	532.56	605.62	628.38	619.69	597.88	601.31	651.75	670.88	665.38	637.94	645.69	648.00	660.69	681.25	704.00	716.44	707.00	715.19	723.44	708.56	697.81	728.94	756.19	720.69	704.88	722.69	735.00	747.88	714.81	611.88	557.94	539.00	566.50	566.69	535.62	536.25	495.75	451.06	435.94	428.00	419.94	419.25	431.75	425.81	428.56	439.19	429.69	433.25	447.75	445.19	434.56	456.50	406.50	324.75	329.38	348.50	394.06	388.06	412.38	437.19	450.88	454.56	420.50	402.38	425.62	422.38	430.38	417.38	384.81	362.44	313.44	367.69	353.12	335.00	362.50	367.06	356.06	385.81	334.12	334.19	379.12	378.81	383.94	349.81	344.88	354.56	379.50	392.69	428.69	402.75	386.38	410.88	432.31	432.06	416.88	431.88	427.25	436.81	429.31	438.81	428.06	436.88	444.56	463.56	465.44	457.56	470.88	448.50	446.06	447.56	470.56	487.62	467.81	429.75	412.31	400.75	399.56	407.25	416.12	409.56	430.12	440.06	437.12	408.12	397.56	389.38	407.12	405.06	419.62	381.88	346.69	381.31	409.88	389.75	381.88	393.12	431.56	453.88	442.25	435.75	467.25	470.94	462.44	414.38	396.88	391.31	382.88	371.94	387.62	391.75	379.81	376.81	378.06	362.44	343.81	347.75	344.31	355.12	359.50	364.88	368.31	383.94	420.50	443.06	411.38	425.19	465.25	460.50	378.88	430.25	452.31	467.00	421.50	407.62	420.06	417.81	424.44	415.25	413.81	418.06	407.69	385.50	389.25	395.00	390.62	393.94	383.62	377.00	384.75	382.19	367.94	353.88	378.06	372.19	397.94	400.81	374.88	371.69	385.56	364.38	382.62	350.25	365.69	385.81	399.38	397.69	377.75	369.38	376.06	372.75	384.00	386.62	371.69	376.06	393.62	393.44	387.25	395.88	408.88	401.00	415.06	430.44	440.75	437.25	437.69	419.44	417.62	425.56	434.12	424.25	462.25	479.44	479.00	460.19
549.62	564.50	557.06	512.69	506.94	509.12	590.50	638.94	639.50	540.50	447.88	500.81	570.75	599.50	623.38	613.00	609.25	586.31	595.06	580.81	554.06	503.69	508.19	602.69	633.94	615.06	547.69	535.69	584.81	621.88	641.00	637.25	646.19	680.94	680.44	669.44	697.56	703.69	703.69	727.06	766.69	721.38	689.00	739.44	788.94	746.94	754.44	737.69	730.88	697.88	640.88	571.88	540.50	546.69	618.06	661.88	549.81	499.81	465.38	441.56	432.00	430.62	426.44	446.50	477.31	457.12	440.44	446.12	445.75	447.50	465.25	486.56	480.81	449.75	401.50	387.75	366.75	329.06	374.38	381.50	395.69	429.81	453.00	464.00	418.00	393.75	423.94	427.62	432.94	447.81	424.94	364.75	319.94	334.44	324.94	344.62	365.44	347.38	347.00	342.50	319.25	369.56	376.69	390.38	407.94	403.81	415.38	428.69	420.50	443.00	429.69	399.12	387.94	398.56	417.75	409.31	415.31	424.81	421.62	424.88	428.38	433.56	427.94	429.50	439.62	475.38	473.62	461.44	475.69	460.94	451.81	455.56	470.00	478.50	462.44	438.94	431.25	412.12	415.19	408.94	417.56	423.69	433.88	438.69	433.25	402.81	403.06	389.31	398.25	418.50	431.56	356.12	365.31	370.44	375.00	385.62	386.50	393.62	435.62	436.31	428.44	433.19	433.81	449.31	440.62	408.44	399.19	393.19	386.56	375.50	371.19	387.50	397.69	377.25	361.31	360.44	344.56	349.56	355.31	369.25	375.00	371.06	367.56	376.88	428.12	430.69	400.00	401.06	433.81	383.94	339.81	368.00	396.44	421.56	415.06	418.31	412.06	406.31	415.38	410.94	408.19	406.31	395.00	372.06	373.94	388.44	379.94	398.12	396.25	389.56	386.19	374.12	354.94	361.75	369.25	380.75	402.38	385.81	371.12	361.19	372.44	344.06	346.00	353.50	376.12	366.50	394.06	396.31	392.81	411.44	397.75	390.44	390.81	384.94	373.94	372.19	382.94	397.31	394.81	398.69	406.00	398.94	411.00	409.19	418.19	424.44	418.50	406.00	411.50	423.19	434.62	444.88	463.50	474.06	453.31	448.88
545.75	560.56	549.56	510.50	477.44	526.44	579.12	608.19	562.19	462.50	458.88	567.62	572.81	605.69	630.12	614.19	631.31	607.25	612.38	581.88	548.75	504.19	492.69	544.12	582.69	623.25	543.06	518.00	628.62	652.00	634.38	657.12	653.56	678.81	695.06	677.38	677.69	677.50	691.62	717.31	763.69	724.94	683.38	742.75	814.88	773.12	763.94	734.94	656.12	628.31	597.81	548.06	525.00	542.38	614.50	670.19	545.50	495.44	474.44	457.12	447.69	447.88	440.31	462.25	493.00	456.50	459.12	472.56	456.38	457.56	481.69	490.25	491.06	456.25	421.12	394.44	348.25	315.81	337.06	333.25	368.44	413.31	440.31	439.19	382.50	406.31	431.81	457.94	443.75	430.19	402.31	367.25	316.25	321.06	320.62	365.44	384.00	376.50	364.75	304.00	325.44	360.50	393.69	397.56	416.12	424.56	411.44	412.56	422.62	431.62	415.06	416.44	415.75	405.69	400.19	408.56	424.56	422.31	420.94	435.06	435.00	418.31	425.88	432.12	450.19	499.38	509.81	483.38	470.00	457.50	447.12	448.94	448.00	466.62	443.25	446.38	453.62	429.81	416.81	411.25	408.81	431.75	428.19	423.12	401.56	394.31	420.06	404.19	415.56	444.94	419.31	342.00	355.25	356.69	370.44	381.44	371.88	383.12	445.00	435.56	424.62	422.38	416.94	433.44	424.94	404.62	396.69	401.31	389.00	377.88	368.94	381.12	391.44	381.25	363.50	336.44	336.31	346.00	368.00	382.56	385.00	375.94	383.19	413.38	443.44	420.75	420.44	397.62	428.50	367.69	339.62	344.38	373.12	394.44	405.31	432.88	416.69	390.94	396.38	394.88	402.50	372.56	363.81	355.50	355.25	373.88	367.25	388.50	401.38	393.88	394.31	380.88	346.12	367.44	384.50	386.50	389.06	375.50	364.44	355.75	348.69	344.06	371.06	391.56	405.38	380.06	380.81	386.88	401.25	422.06	411.81	401.44	392.94	386.44	377.94	377.19	379.06	385.25	395.12	406.69	399.50	393.81	412.31	402.75	409.31	415.94	413.12	411.06	406.12	430.94	426.69	440.75	482.31	457.31	423.81	429.31
558.50	523.75	541.88	508.50	470.31	516.00	523.00	545.62	482.88	421.19	443.81	491.12	507.25	548.31	612.25	610.50	620.81	618.25	632.44	591.38	549.31	505.31	476.62	487.31	510.00	589.62	520.75	539.44	581.25	590.81	628.81	680.75	655.06	668.31	683.94	684.19	676.25	685.38	713.75	730.19	764.38	726.38	678.31	712.00	765.06	757.44	730.62	685.94	604.62	577.00	565.25	531.69	517.50	526.00	551.94	567.69	526.69	501.88	505.19	491.25	489.81	478.00	461.44	465.75	462.44	441.56	462.75	448.31	437.00	453.19	483.25	488.31	483.75	475.88	433.81	415.12	419.62	395.50	359.00	337.19	322.19	388.75	434.00	397.00	362.06	417.25	441.12	481.00	464.88	423.38	381.88	356.25	336.19	329.44	323.69	355.19	368.44	359.75	334.31	308.00	355.62	391.25	406.44	405.31	425.38	443.75	440.06	424.81	426.94	430.38	422.00	436.19	445.12	428.00	409.50	404.81	422.88	416.50	425.00	449.38	442.50	430.69	433.44	446.00	464.94	506.69	519.19	484.38	468.38	453.44	458.94	460.44	440.50	442.56	424.25	444.12	458.75	468.69	428.38	412.31	419.06	417.00	407.56	418.06	411.56	413.81	429.44	416.19	411.56	403.06	382.31	342.00	354.38	364.88	371.25	369.19	367.62	394.50	447.12	445.00	435.00	418.75	406.88	416.44	414.44	401.88	389.50	391.62	391.31	386.19	372.62	370.31	372.56	369.38	356.25	343.69	350.75	358.06	373.88	382.38	378.94	379.31	386.81	444.38	435.12	402.75	432.00	418.12	455.31	378.44	335.81	338.31	382.88	385.44	405.56	440.50	410.25	382.81	371.00	382.62	385.00	365.94	354.19	347.38	354.50	380.31	374.81	394.06	408.31	408.44	399.69	386.25	351.44	355.31	371.44	382.56	378.50	370.06	363.88	355.00	337.56	357.88	380.25	387.62	408.38	390.69	397.12	407.25	421.56	435.94	425.44	424.94	413.50	402.12	399.94	397.94	385.25	401.44	403.62	408.69	400.56	396.06	411.81	412.81	408.81	420.00	414.81	405.06	400.81	410.88	408.38	425.69	446.69	433.06	415.19	412.38
528.44	508.69	550.69	507.94	451.62	473.75	483.56	488.69	463.88	414.31	471.94	470.69	481.06	509.44	557.19	548.25	547.56	577.88	642.75	628.88	579.44	547.38	484.06	455.38	470.38	552.94	463.00	580.44	605.94	587.19	663.56	703.69	674.62	685.94	677.12	676.19	677.88	695.44	742.62	748.25	726.56	696.25	672.19	677.88	721.06	756.56	750.81	671.62	593.44	553.81	554.56	534.56	516.88	515.69	517.69	524.12	523.06	515.88	513.31	506.19	550.62	521.81	503.81	464.31	446.50	434.19	448.06	448.25	419.88	415.19	441.31	487.75	466.38	486.00	453.31	479.19	459.75	443.88	432.25	356.00	345.38	406.31	369.88	349.56	359.31	396.50	434.38	473.88	457.94	441.69	411.88	393.25	354.25	330.62	332.88	360.38	335.50	292.19	297.25	343.38	363.88	419.44	413.19	428.94	438.88	458.38	468.19	459.25	437.88	447.88	458.69	451.38	463.81	448.69	430.81	408.38	410.94	414.88	420.94	430.56	435.50	477.19	456.56	444.44	459.44	474.12	473.94	477.19	497.94	468.31	492.12	489.00	459.56	448.12	428.38	412.69	416.94	450.38	436.38	411.25	418.25	408.25	390.12	411.12	415.94	416.06	425.19	409.00	351.19	349.19	346.88	359.50	381.50	372.44	364.12	355.06	353.00	374.25	397.19	417.00	436.94	430.88	411.25	417.31	408.69	403.00	396.94	384.75	394.12	387.44	382.94	367.69	352.62	348.88	349.44	343.81	349.25	348.62	357.00	359.50	363.12	379.50	386.81	423.12	402.56	372.69	396.12	402.00	410.62	350.19	314.50	312.88	339.62	360.44	382.44	397.69	373.12	372.81	360.25	369.69	386.31	373.44	355.12	344.94	374.44	427.69	393.44	398.00	397.19	395.19	378.69	366.88	344.25	331.19	358.56	373.94	367.38	354.31	347.06	339.81	353.56	364.56	357.25	372.56	394.75	391.75	403.25	427.19	449.00	441.50	429.50	433.62	427.75	427.69	433.94	417.38	394.38	415.06	418.25	410.00	403.38	396.12	396.00	401.38	403.06	405.06	408.44	400.25	403.81	411.50	408.81	412.19	415.81	411.31	409.94	408.25
503.81	486.69	501.69	451.50	372.50	405.62	466.62	434.12	431.31	433.50	463.69	512.88	493.38	542.56	547.62	512.19	504.31	544.88	573.12	634.19	631.50	603.94	568.88	503.75	434.44	456.50	557.62	653.25	672.62	666.31	673.12	702.69	698.00	726.94	729.75	725.44	682.25	701.31	725.06	710.00	676.94	678.25	669.75	671.62	728.88	761.25	753.38	718.44	654.88	592.50	599.06	572.81	541.19	544.19	537.81	512.50	501.31	479.12	487.19	482.81	475.81	494.81	558.81	498.00	483.00	445.19	421.31	442.94	416.25	411.62	431.62	489.06	482.62	435.62	471.88	488.75	469.12	448.25	417.31	344.06	319.31	346.06	340.25	388.62	415.88	424.25	441.94	450.00	444.56	468.00	443.19	447.62	408.88	357.69	312.75	340.06	347.50	302.62	312.62	379.81	393.25	429.38	448.12	448.50	444.06	452.69	475.00	477.44	464.88	458.12	470.38	469.25	472.94	451.31	433.75	420.94	411.06	443.06	454.12	444.25	446.56	513.44	489.00	449.38	453.75	443.12	440.62	468.94	473.75	466.81	479.75	482.75	478.75	469.00	464.69	448.25	413.69	405.69	425.00	396.56	426.62	419.31	393.06	407.75	402.81	419.69	430.94	389.69	328.81	324.31	352.19	340.38	365.62	354.62	348.81	356.12	356.56	373.12	375.12	383.50	396.88	415.50	400.25	408.25	404.12	409.81	412.56	386.69	378.19	372.38	366.94	357.19	344.25	341.00	359.88	370.88	373.12	373.06	356.94	363.75	373.44	373.38	379.56	437.00	422.56	388.25	378.00	374.12	364.19	337.75	308.50	322.38	348.62	362.25	357.06	351.19	360.06	382.12	365.88	357.06	375.25	360.50	346.50	342.00	371.12	437.06	394.69	391.50	386.38	378.94	368.88	377.19	357.25	331.62	335.62	361.50	358.50	337.25	335.19	360.50	362.56	371.12	371.06	370.50	389.69	396.38	405.56	426.81	446.69	438.75	430.44	429.75	430.19	443.44	432.69	423.94	424.69	427.00	423.94	419.69	414.12	393.12	388.81	398.00	400.62	392.12	396.44	407.75	418.06	418.06	404.50	415.94	411.88	404.06	415.31	406.69
503.62	511.06	437.75	357.62	420.06	393.56	400.38	398.12	415.56	453.25	489.00	513.44	535.50	565.94	546.50	503.50	482.19	518.69	517.31	552.81	594.19	636.12	591.12	583.31	464.62	514.62	615.69	710.56	737.81	735.38	712.81	703.44	729.25	738.69	733.94	746.38	738.19	712.12	707.88	664.94	646.44	656.62	662.44	669.31	687.81	722.56	723.75	712.81	689.62	640.56	629.69	615.69	564.75	557.88	547.62	562.69	517.56	495.06	463.69	487.81	465.94	455.75	513.69	503.19	489.00	452.44	400.19	419.75	423.31	394.62	420.19	465.00	444.00	408.38	447.56	479.12	457.50	448.38	416.12	344.56	301.50	331.12	337.06	406.38	425.25	419.31	415.00	427.19	444.12	469.19	450.88	443.50	417.50	376.00	316.56	328.38	347.75	307.88	330.94	396.38	402.50	456.56	459.00	432.75	446.19	458.94	468.81	477.19	472.81	464.06	460.31	463.19	468.50	453.56	442.75	419.50	439.00	448.62	470.56	460.25	466.50	480.38	486.62	464.19	465.19	436.31	429.31	453.31	464.88	455.00	454.19	455.69	486.62	464.19	456.62	429.06	419.06	413.38	416.56	400.44	419.06	419.00	405.62	383.44	414.62	424.75	388.88	374.94	321.12	323.19	340.81	328.50	338.25	343.81	348.25	354.12	359.00	379.69	397.69	399.75	406.75	419.25	390.00	409.50	404.75	405.31	406.75	391.12	370.25	370.06	350.62	340.12	338.56	346.06	349.69	360.00	372.44	374.12	372.31	375.25	383.12	378.94	397.69	451.81	407.50	383.44	359.31	365.88	351.88	344.00	311.69	334.94	353.12	345.88	337.56	332.69	352.31	375.88	367.44	355.62	370.06	356.81	352.69	341.25	376.56	416.31	391.19	408.31	412.94	396.44	360.75	380.62	362.19	343.62	327.75	356.88	347.94	324.19	345.00	373.12	378.44	373.88	378.94	383.00	398.19	410.31	419.69	436.00	427.44	419.69	435.38	429.88	414.12	427.31	429.00	421.19	428.50	434.69	428.62	431.31	422.06	415.31	402.81	392.38	393.88	391.25	398.94	413.06	420.69	431.88	420.56	423.88	426.38	410.69	418.50	400.62
531.69	474.31	395.69	325.25	558.94	538.88	486.31	546.25	591.81	538.50	539.00	517.75	554.31	522.56	532.56	505.00	463.62	496.19	513.50	495.19	537.62	586.75	584.62	507.25	455.31	600.56	656.88	681.62	726.06	719.19	705.50	701.19	736.38	746.19	684.50	712.62	709.88	724.94	688.31	653.38	639.75	674.44	703.94	700.19	649.75	687.06	683.62	681.31	665.06	670.62	659.12	629.88	592.56	583.06	582.12	600.62	587.06	548.44	479.44	469.44	477.25	432.38	416.56	433.75	417.50	388.88	412.94	417.94	388.06	366.12	376.88	371.06	394.75	380.38	387.38	436.94	428.81	402.19	410.56	377.81	339.81	317.56	318.00	402.00	397.81	399.62	412.81	436.50	475.19	474.81	434.81	429.75	415.19	380.75	355.50	297.56	296.06	334.00	364.69	420.50	443.12	467.00	439.81	424.44	439.31	441.81	466.19	474.12	465.81	451.75	461.19	452.00	459.69	456.19	449.69	448.44	444.62	458.38	453.94	451.94	447.88	452.75	459.00	440.06	420.88	420.00	420.75	438.56	469.00	483.12	447.38	445.88	458.31	436.56	429.31	415.38	405.44	419.75	437.94	419.94	407.19	397.56	377.44	367.94	379.00	374.44	362.62	347.50	321.50	345.25	385.62	352.44	341.38	350.50	361.62	374.44	384.62	384.56	401.94	402.38	389.25	387.00	372.88	406.56	429.06	411.94	378.25	375.94	364.88	360.94	343.31	349.00	376.06	365.00	351.88	348.31	354.62	358.38	370.69	380.25	401.69	426.62	443.00	426.38	385.50	365.06	346.06	351.19	352.00	338.50	308.94	326.25	319.44	325.00	326.06	342.94	351.44	364.88	364.81	354.06	350.75	342.38	346.50	339.88	357.25	370.88	366.06	374.75	380.25	365.94	351.81	376.62	361.19	348.69	324.69	334.62	327.75	332.19	357.94	367.38	373.19	363.56	372.00	383.56	387.62	402.56	418.44	419.94	414.81	422.69	434.12	425.50	413.69	409.31	415.44	423.75	415.06	427.19	422.44	442.06	429.06	417.81	410.56	394.25	390.31	386.56	414.50	419.50	419.62	432.25	436.31	440.31	424.44	435.56	439.38	417.44
534.12	416.94	297.88	343.56	523.00	570.50	589.81	654.94	664.00	569.19	504.94	465.38	492.38	496.12	491.50	490.94	451.19	509.12	519.25	464.69	509.31	485.25	425.56	417.06	484.25	547.00	575.00	609.12	669.56	699.88	653.94	646.19	713.12	709.38	635.06	634.19	649.00	693.19	666.75	627.12	654.88	686.25	713.44	667.94	613.56	669.94	679.88	653.75	658.38	662.12	677.81	650.81	611.12	579.38	581.06	582.00	579.81	547.50	492.25	452.56	454.06	463.56	439.62	405.31	394.25	384.69	413.00	500.50	488.81	396.25	346.50	348.44	398.31	401.25	364.56	407.88	425.19	386.44	424.94	429.88	396.50	303.81	336.75	391.50	409.75	412.31	413.44	439.50	475.19	461.25	421.38	407.00	386.69	341.75	330.31	288.88	278.88	348.50	399.88	425.06	448.50	460.88	420.19	424.75	441.62	456.06	478.06	474.50	456.25	449.00	471.00	449.25	453.00	458.25	455.50	444.94	443.62	465.38	451.94	442.00	437.19	447.62	427.00	416.81	407.06	404.00	409.38	426.19	467.00	478.69	474.25	459.88	442.88	428.62	416.62	412.69	443.56	412.50	414.31	420.62	452.50	433.00	417.81	398.38	363.31	351.00	347.50	324.12	331.56	366.62	384.94	377.38	362.81	361.69	368.38	375.31	389.38	392.00	396.00	401.06	384.94	372.81	360.38	380.75	436.81	437.25	418.75	373.75	351.12	342.06	333.56	396.62	435.94	370.25	360.62	359.12	362.75	368.56	381.88	392.44	443.19	528.50	478.00	437.81	389.06	363.88	364.06	362.50	371.19	344.50	306.75	300.12	324.69	357.94	358.00	341.50	351.81	364.81	372.62	358.56	353.06	340.94	339.06	341.56	343.62	350.88	354.81	355.69	358.62	353.12	346.56	374.25	357.94	334.50	323.12	320.88	319.75	339.00	347.00	354.62	353.19	351.81	353.75	363.88	375.19	395.12	414.69	411.44	405.44	417.62	424.38	420.31	420.06	406.69	399.69	406.56	403.88	411.56	410.50	422.69	435.75	421.81	402.12	393.38	387.50	385.44	415.75	426.69	416.88	420.88	438.25	449.75	414.06	417.38	409.12	411.44
515.62	418.12	318.75	438.88	513.31	508.00	545.81	622.25	617.38	495.06	437.50	409.62	415.12	425.38	472.94	440.25	409.31	483.62	482.38	410.56	457.50	377.81	380.06	467.06	443.06	446.00	462.88	506.88	584.94	623.62	587.62	607.56	655.56	646.12	596.06	578.81	611.50	640.88	586.56	633.56	703.81	728.69	729.25	665.19	593.81	601.81	683.25	662.81	640.06	664.00	705.94	689.44	658.25	600.06	550.06	536.81	542.88	512.38	485.44	516.06	520.81	508.56	475.81	421.62	408.94	453.25	437.25	493.81	530.69	467.12	399.88	350.69	339.00	411.06	369.50	405.00	426.25	397.56	345.38	308.88	315.75	317.75	387.44	383.31	429.50	449.56	452.88	467.56	484.12	454.25	427.00	408.06	387.69	416.25	399.62	303.06	326.88	381.25	417.25	411.06	413.56	420.81	405.62	442.88	467.56	469.62	476.31	464.25	456.50	444.81	471.81	435.12	445.81	460.94	450.94	439.50	450.44	463.44	442.44	421.19	444.56	439.19	412.31	400.38	407.44	394.31	395.25	408.06	431.94	453.94	508.12	486.62	475.88	459.38	439.94	416.25	427.56	433.94	441.38	428.31	413.00	398.69	387.19	394.38	397.06	353.94	365.06	335.50	324.56	363.94	370.06	391.94	367.75	378.44	395.31	396.25	390.25	385.94	391.56	389.75	378.25	361.06	349.25	383.25	414.88	427.19	398.81	385.50	340.19	333.12	352.19	404.81	417.38	376.06	371.62	380.25	377.88	374.06	397.94	415.94	481.75	515.81	465.62	440.06	385.50	369.44	370.75	371.56	354.12	339.19	312.19	298.56	333.88	353.19	341.69	326.25	341.44	356.38	360.94	348.69	352.88	347.06	342.56	338.25	350.31	346.12	342.75	340.50	338.31	338.06	354.50	410.31	359.75	320.06	321.31	323.19	334.44	346.06	340.94	338.12	338.56	349.50	365.75	376.88	391.50	386.38	393.44	389.62	404.81	417.00	411.19	407.56	403.12	414.81	413.56	402.38	395.50	405.75	397.69	406.44	410.81	417.31	397.69	384.19	381.94	381.38	386.00	408.06	406.00	420.25	418.12	416.88	409.44	403.56	406.69	402.69
480.75	361.88	359.81	461.31	504.31	467.38	490.56	564.06	598.81	491.25	407.69	391.44	397.25	392.00	435.50	440.25	379.25	453.62	410.56	347.38	345.69	371.88	372.56	375.81	437.75	526.94	532.88	464.00	518.44	537.38	559.19	608.88	645.12	649.38	605.94	562.94	615.00	615.56	555.69	630.19	684.06	704.56	679.69	622.06	578.25	562.56	635.50	665.56	637.12	660.44	693.25	714.81	711.38	642.44	567.94	523.56	507.50	501.00	560.56	561.56	517.69	514.56	475.00	421.25	459.31	490.00	457.69	509.94	547.25	500.75	463.75	388.38	327.56	357.38	354.69	357.81	367.38	407.00	349.38	319.38	295.81	300.75	352.06	389.88	406.56	425.94	444.56	468.88	481.12	445.00	423.31	414.56	429.25	490.31	418.62	311.75	366.50	408.56	412.06	384.12	381.25	415.94	444.25	458.00	461.88	466.19	477.44	462.06	432.12	426.69	456.94	440.44	434.25	456.56	439.62	444.12	452.12	443.44	431.25	412.31	441.94	441.81	420.69	401.25	402.19	395.94	396.12	417.69	443.94	481.81	521.25	503.25	467.38	446.00	430.25	430.25	444.38	436.31	461.88	475.12	406.62	389.94	379.31	387.62	374.44	362.56	390.12	356.06	326.44	354.62	343.38	345.19	354.44	406.56	429.88	402.44	387.19	385.56	379.12	372.12	377.94	366.00	352.12	367.50	393.38	432.69	388.38	377.44	350.44	366.19	409.50	443.44	439.38	425.12	423.38	447.00	399.75	398.12	415.94	427.00	426.31	431.31	454.19	402.12	377.88	374.06	382.88	368.25	355.00	340.75	315.12	305.44	300.88	327.12	315.94	331.94	321.94	355.31	359.75	354.19	357.12	341.06	336.25	334.88	369.25	373.62	354.44	335.56	329.94	328.75	358.88	379.94	343.44	321.44	343.19	353.75	341.88	344.81	360.62	349.75	345.31	350.00	374.62	397.19	395.94	380.75	377.44	385.38	412.00	428.44	421.62	418.31	399.69	394.25	395.38	398.44	390.88	395.69	398.94	402.81	404.44	406.56	398.94	384.06	377.88	382.88	385.06	389.81	391.44	399.25	398.19	406.94	414.62	406.75	397.94	405.44
378.12	327.94	431.69	475.06	482.94	455.06	455.31	507.25	532.56	461.94	371.88	395.75	388.38	369.81	424.75	435.38	375.19	405.31	314.88	342.12	373.88	422.81	404.31	364.69	441.69	555.62	595.94	470.81	479.50	529.19	585.81	620.56	637.94	634.50	616.25	558.50	584.00	565.06	542.94	622.81	654.38	658.19	688.75	639.19	582.06	551.00	572.50	630.56	629.62	641.25	682.31	721.62	739.69	687.69	620.69	565.44	538.94	543.81	636.81	605.88	487.75	452.19	428.50	449.88	481.25	478.75	475.56	519.56	549.62	530.38	484.56	424.44	356.75	364.56	338.25	329.75	307.38	377.31	345.31	334.19	309.12	317.75	342.62	379.31	394.75	405.12	430.56	462.62	464.12	443.69	450.94	435.94	452.75	489.50	377.38	335.00	392.50	399.81	375.94	346.25	382.06	436.81	471.75	467.06	469.75	466.38	472.69	450.44	429.44	425.31	436.75	446.00	440.38	446.69	433.38	456.75	448.06	424.94	417.56	405.31	420.75	434.69	414.44	393.88	387.62	397.88	408.81	421.75	451.12	485.19	503.44	480.44	449.19	436.56	446.12	439.44	472.25	467.88	492.56	487.44	409.56	389.94	405.81	416.00	410.56	351.62	400.56	368.62	332.88	359.12	362.69	354.56	371.69	398.75	425.12	414.12	388.19	385.62	373.69	369.50	361.69	354.56	351.88	352.25	379.50	430.88	397.06	365.31	381.56	405.00	407.38	455.69	475.44	513.19	520.50	545.12	426.12	405.56	399.94	392.94	399.94	417.62	389.44	373.88	368.00	356.06	379.44	373.38	373.06	348.12	330.94	319.50	301.31	310.12	302.19	292.44	289.62	342.38	359.25	349.56	348.75	362.81	332.31	333.31	348.69	371.69	368.19	344.50	333.44	338.19	383.75	348.31	319.25	317.44	334.38	354.06	356.19	366.25	377.38	374.62	368.00	369.19	397.69	394.12	393.19	378.06	386.69	412.88	423.44	414.81	408.44	427.00	413.81	399.25	393.75	402.31	396.12	390.94	385.31	393.38	398.75	396.19	399.25	390.38	381.44	375.25	383.88	391.31	389.56	388.50	396.81	404.00	408.25	405.19	403.25	419.00
302.88	444.25	453.62	364.88	326.75	340.12	420.19	476.69	471.12	339.81	313.50	318.25	346.44	410.56	444.44	443.62	399.88	330.69	325.12	383.19	363.25	384.75	401.50	377.69	424.94	524.06	550.44	474.00	490.00	537.25	582.19	609.69	616.81	607.75	593.69	548.31	548.25	540.56	574.38	616.62	596.12	614.00	653.75	643.31	599.38	548.44	546.12	608.31	587.19	605.25	665.25	671.00	670.25	667.12	664.94	648.69	606.50	592.62	618.75	603.38	496.06	434.81	458.62	501.19	514.75	516.06	505.12	552.12	552.50	492.00	454.38	415.25	383.94	451.00	437.88	427.12	343.00	305.12	327.12	391.75	415.88	377.44	370.56	410.88	421.19	413.56	447.56	476.25	478.88	473.19	469.12	466.75	506.81	423.19	314.50	327.75	364.25	363.38	324.62	329.06	361.00	397.00	472.25	460.50	442.50	460.88	472.75	452.75	426.81	419.19	434.19	451.25	433.88	430.44	427.69	436.12	442.25	420.94	407.56	406.75	405.38	419.62	397.88	380.00	387.81	420.06	412.62	433.12	475.38	515.31	503.06	467.81	453.69	457.94	477.56	448.62	479.00	501.75	459.38	435.56	407.25	401.44	425.69	446.44	431.12	378.06	352.44	334.12	360.44	372.31	371.25	383.56	390.31	399.44	407.50	404.94	401.62	405.06	391.69	379.94	364.69	350.50	345.75	348.19	394.25	403.12	346.62	364.25	414.25	424.38	416.31	447.25	471.38	512.88	483.81	479.81	429.31	386.06	374.50	375.81	398.69	390.69	362.69	358.69	367.44	348.38	366.19	355.69	367.06	342.06	318.31	312.12	300.31	298.12	290.06	299.31	298.94	304.81	367.12	375.94	364.06	351.69	334.00	345.12	333.69	354.50	382.12	345.62	324.50	325.69	366.62	363.44	311.88	319.56	331.25	331.69	335.62	347.00	356.88	368.00	378.25	405.06	439.00	386.44	376.88	370.19	391.00	405.56	409.62	398.31	399.25	416.88	421.19	404.00	411.88	417.94	415.25	418.06	401.56	390.12	383.62	385.69	385.62	389.25	379.25	374.62	387.44	393.44	383.12	386.31	399.06	403.94	414.75	411.69	415.50	435.38
309.94	367.44	341.12	229.56	249.69	216.19	361.81	433.69	366.38	309.44	378.81	286.31	388.94	417.44	365.25	353.56	357.19	331.56	383.69	438.94	378.44	394.94	423.31	409.69	511.25	590.94	547.06	509.25	479.56	493.12	571.12	604.62	589.31	573.75	528.69	510.06	523.56	574.94	579.00	555.31	547.38	571.44	581.31	572.31	557.06	543.31	540.75	562.62	559.69	602.38	646.31	659.69	638.50	647.75	651.31	663.75	662.62	640.31	634.00	622.19	513.50	443.06	496.94	542.06	536.25	505.50	526.44	576.69	559.00	513.06	499.00	475.88	428.38	490.38	493.62	486.94	416.44	311.44	400.69	442.44	426.50	402.94	410.62	418.38	430.62	437.56	445.94	467.00	478.19	484.56	494.75	492.81	459.50	408.50	317.25	285.06	310.31	306.19	303.56	347.75	352.12	405.00	468.44	459.44	426.69	450.69	463.25	452.88	420.75	424.81	448.19	443.06	429.75	429.00	443.88	433.81	452.75	427.62	398.88	401.25	412.81	424.81	392.25	375.62	403.88	405.69	411.06	422.12	446.69	491.69	502.88	465.38	476.69	471.31	475.50	456.62	491.06	502.06	448.88	429.69	432.31	417.50	420.81	439.69	443.06	407.44	382.44	339.31	350.69	370.75	382.75	397.56	404.62	395.50	394.12	399.88	408.81	401.75	392.69	380.75	376.75	368.19	362.50	350.69	378.62	359.12	335.44	360.00	385.50	411.75	421.25	444.12	455.62	445.75	431.38	437.31	401.50	375.44	370.12	378.31	400.69	386.00	378.06	373.19	355.00	341.06	369.69	347.38	361.56	346.50	325.62	308.75	298.94	288.75	302.69	306.88	307.06	296.81	326.19	367.69	343.06	334.25	319.94	338.00	327.25	329.00	319.62	313.06	305.25	310.69	337.19	345.62	308.69	350.50	347.56	326.31	333.44	329.69	340.19	357.62	383.12	396.69	411.62	389.62	379.94	365.12	383.19	397.62	400.31	390.31	395.69	416.25	406.06	410.56	427.00	426.88	417.75	410.94	411.62	409.56	402.56	389.88	378.19	376.12	373.56	397.88	417.44	417.00	395.56	389.50	400.69	408.88	412.38	416.25	424.38	433.38
244.00	238.94	250.94	349.75	383.38	266.81	280.75	288.50	291.69	387.06	382.12	293.19	350.62	346.00	347.75	342.25	330.44	349.50	425.06	441.44	391.88	452.94	486.69	432.19	577.88	679.00	596.00	550.75	538.56	525.38	496.56	506.31	506.94	504.38	501.31	531.56	518.19	519.25	512.38	526.69	524.00	526.06	562.31	564.00	535.62	558.19	606.81	606.50	570.88	580.56	602.25	615.81	620.88	635.75	637.94	670.50	704.94	688.31	651.50	627.25	524.88	471.62	543.88	564.25	545.31	535.38	561.25	581.44	588.25	562.56	541.50	510.56	502.69	528.75	472.06	465.56	407.50	298.44	355.62	412.75	427.81	389.75	395.81	414.25	421.00	442.88	433.75	454.00	467.44	471.62	488.94	497.50	455.56	401.12	377.12	355.19	364.69	317.06	309.19	332.25	391.25	446.38	469.94	427.62	425.94	446.88	449.44	432.06	406.25	432.44	447.44	424.94	420.75	445.31	455.19	447.75	443.31	431.75	416.38	390.19	420.19	401.62	377.69	378.69	397.25	418.19	446.12	459.50	449.94	472.88	471.62	485.31	526.50	474.56	460.94	461.31	470.38	458.56	439.50	418.31	444.50	440.12	426.75	448.81	444.06	417.94	402.31	399.44	332.12	359.00	381.62	388.06	401.88	389.19	385.00	397.50	384.62	389.94	404.81	379.94	356.06	369.19	371.88	346.12	362.25	322.25	371.25	389.94	392.12	404.12	427.69	440.25	443.12	432.75	415.56	406.38	374.38	373.75	373.06	389.62	397.81	385.31	387.62	393.31	369.25	341.75	345.56	350.50	346.06	334.00	319.88	300.19	291.81	303.25	322.94	321.38	319.81	298.50	320.12	364.88	347.44	336.88	322.69	311.19	314.81	309.75	311.94	313.44	318.44	327.38	326.75	317.94	319.62	333.06	326.81	325.06	333.94	332.31	336.00	353.12	371.88	389.19	390.81	383.12	377.25	362.88	383.44	404.81	391.75	375.38	382.62	396.94	382.50	398.69	416.44	418.88	417.31	415.75	397.44	395.94	399.44	397.88	389.25	378.62	380.12	415.25	433.75	432.88	423.94	399.81	401.94	424.19	447.44	448.56	435.25	426.50
357.44	418.38	425.12	421.06	383.19	248.12	359.69	386.38	411.75	428.56	384.75	306.19	309.12	361.88	377.06	378.50	404.50	376.75	413.62	428.75	406.69	492.88	610.00	467.56	602.56	749.75	632.31	569.94	578.44	587.25	543.62	525.62	522.62	538.12	513.50	584.75	590.69	553.25	548.75	585.06	577.25	544.38	601.69	592.50	562.69	604.31	663.38	643.88	631.75	613.94	612.69	610.38	612.94	622.81	631.88	681.31	712.00	684.69	660.88	596.50	523.25	486.31	549.06	595.44	564.94	568.31	572.06	567.81	586.81	564.56	536.50	532.06	545.62	520.94	456.31	408.69	368.81	300.31	341.25	371.25	381.75	384.81	397.56	419.88	433.50	450.75	424.00	455.56	461.62	462.38	495.19	518.38	489.19	475.75	424.25	408.12	385.31	316.38	301.94	333.88	379.44	460.62	469.25	416.69	435.31	438.19	433.75	426.12	395.94	428.62	431.94	408.44	416.81	445.25	460.44	437.94	442.06	432.88	420.31	382.25	404.75	385.81	370.94	386.75	406.12	437.62	487.19	509.19	466.50	480.31	461.12	485.50	499.38	452.88	440.06	431.50	439.50	458.31	447.12	417.62	442.12	428.00	444.19	418.62	422.12	433.44	442.44	433.44	345.44	343.00	378.00	402.38	402.38	382.56	381.38	389.62	371.25	376.31	387.69	384.88	357.56	361.81	361.69	344.50	356.75	328.56	354.81	367.81	383.31	380.94	407.06	430.19	430.00	422.31	408.75	387.38	371.94	368.50	365.56	398.88	389.69	377.44	376.19	378.19	382.69	364.81	345.75	341.31	331.50	323.25	298.69	290.31	309.75	329.50	335.69	335.75	326.19	298.38	330.38	370.38	370.88	356.88	332.88	302.38	309.88	319.62	326.38	325.62	333.38	352.25	372.94	342.69	331.50	328.50	334.62	339.25	336.25	337.06	343.06	364.62	396.06	395.06	378.44	378.38	374.56	357.31	373.12	399.88	394.38	374.56	397.06	393.00	383.00	399.69	417.44	415.19	406.19	403.38	399.44	388.38	387.00	386.00	380.12	378.31	377.69	410.19	430.00	448.00	444.56	439.38	427.19	446.31	463.19	468.12	451.75	434.31
440.69	429.06	418.50	410.62	363.00	275.25	212.44	297.56	396.81	431.31	409.75	391.25	411.69	440.19	402.00	438.88	446.75	394.12	428.88	416.81	442.38	559.56	652.75	526.12	565.12	683.12	658.38	649.00	622.00	638.25	618.75	580.19	601.44	615.88	537.75	564.62	598.38	636.81	632.75	654.25	623.12	589.44	608.31	607.75	583.69	633.69	684.75	666.75	650.38	622.81	619.50	624.56	623.06	645.75	651.62	690.12	680.06	677.00	649.88	577.88	543.44	524.44	551.00	587.19	582.81	568.31	551.50	531.50	533.44	524.00	510.19	492.69	530.25	533.06	489.62	469.44	437.12	349.00	305.94	331.44	299.69	344.25	391.56	410.31	435.56	410.06	434.25	455.94	458.56	456.31	488.25	513.56	523.19	471.38	388.12	355.69	365.81	342.44	287.38	354.12	390.06	436.94	442.94	417.31	398.06	421.75	401.19	385.19	397.25	428.25	400.12	412.88	446.69	450.44	437.62	423.81	431.56	419.19	404.56	367.31	368.31	368.25	373.12	386.31	397.38	430.75	495.88	502.75	484.75	487.88	472.25	461.00	474.88	480.69	450.69	423.75	420.31	446.31	428.12	407.56	428.44	425.38	455.06	417.06	382.44	420.31	478.75	476.25	375.69	337.00	367.31	385.94	399.69	376.81	368.75	362.50	349.56	342.00	370.75	389.06	363.69	352.19	367.19	354.69	340.38	367.81	353.19	384.69	375.19	383.56	400.00	420.00	423.62	419.75	407.50	392.56	360.44	360.12	372.75	377.31	372.62	372.69	360.62	366.00	378.25	366.19	336.50	336.06	323.38	292.50	296.81	320.00	335.88	337.44	336.25	327.62	315.25	305.25	338.25	368.00	362.38	346.12	329.38	314.62	334.25	340.25	336.88	336.62	346.12	412.56	461.25	404.00	350.50	332.81	337.31	360.25	350.75	342.44	351.88	375.81	392.38	392.75	388.19	374.69	356.38	349.56	370.62	386.25	380.62	366.00	385.12	378.12	395.12	408.19	426.94	421.00	400.75	407.00	407.56	404.19	399.56	390.88	378.88	375.19	368.69	407.25	440.62	462.00	458.06	448.12	445.81	440.62	439.25	441.19	448.94	423.75
403.69	391.06	376.75	336.50	295.25	261.62	239.12	251.00	235.31	264.06	343.38	448.12	472.56	437.69	442.19	452.94	466.12	425.19	472.75	423.06	465.69	604.69	685.38	583.69	568.00	665.12	697.31	671.62	688.06	679.38	658.38	612.88	643.88	628.00	552.88	545.12	543.00	578.94	614.44	668.06	661.44	630.06	643.62	625.75	601.81	657.06	694.44	669.75	650.75	626.06	637.88	637.62	631.31	675.62	696.62	698.06	631.00	614.62	623.38	606.56	575.69	579.94	589.50	588.94	575.69	581.62	571.12	546.19	516.44	500.75	480.38	475.44	518.38	536.81	551.69	488.19	442.06	404.81	411.81	451.56	394.62	279.69	296.94	399.12	431.69	395.06	423.56	442.38	464.25	451.44	481.88	504.00	511.88	458.25	436.88	306.00	323.31	307.62	316.88	360.50	408.12	425.94	415.75	418.19	397.94	396.94	403.50	372.31	424.88	414.19	372.06	420.38	437.50	431.94	404.12	391.31	399.12	377.88	363.50	366.44	371.69	387.19	382.62	372.25	380.94	418.75	456.81	494.56	479.81	469.19	459.81	451.62	466.69	489.12	479.25	431.50	416.06	409.06	416.12	416.06	402.00	435.81	445.31	407.75	369.00	420.31	503.88	515.69	430.75	327.44	366.94	373.31	374.19	372.19	371.12	364.75	351.75	323.31	333.62	361.38	358.38	353.44	338.25	345.25	323.19	351.88	393.94	402.81	401.44	399.38	416.12	432.50	420.12	418.19	411.00	400.69	367.38	368.38	383.69	367.81	362.00	351.00	360.81	376.19	361.62	339.12	306.44	307.56	299.50	303.56	319.38	330.69	339.31	332.75	329.44	308.94	297.62	323.94	354.06	368.81	362.75	352.81	327.25	319.56	342.12	346.00	343.69	347.62	358.12	387.00	436.50	424.31	366.69	364.44	366.12	392.50	376.56	358.88	354.44	394.50	415.75	382.69	371.50	359.94	348.38	361.62	384.44	382.62	366.75	364.75	368.12	379.31	394.12	397.31	413.19	417.06	410.44	417.06	416.12	413.81	407.25	403.38	391.75	375.88	371.25	412.25	445.31	458.25	455.94	442.56	426.50	436.00	438.38	445.56	436.19	410.00
401.38	426.50	401.44	365.75	365.62	339.81	267.56	358.69	360.00	303.31	196.75	326.88	407.88	401.69	410.12	422.12	464.12	462.56	492.19	439.31	483.50	646.00	738.88	660.00	595.62	673.19	678.00	667.56	688.06	691.00	656.69	625.75	638.81	605.44	552.75	587.56	597.88	560.75	609.81	662.88	668.81	688.81	674.62	628.44	603.62	647.88	679.00	648.12	651.00	653.12	660.81	641.06	646.69	682.75	703.00	665.06	636.06	600.94	595.44	615.12	591.12	607.38	612.38	571.25	563.44	594.19	567.44	548.12	530.56	511.19	499.50	479.75	492.62	528.75	557.25	529.69	496.62	466.38	465.75	472.94	426.44	299.88	274.88	339.50	423.56	388.12	423.06	440.00	459.44	438.31	466.12	498.25	505.94	405.38	453.31	344.06	342.88	374.56	381.06	394.25	416.00	415.12	405.81	416.31	411.81	384.31	395.69	367.06	408.38	411.94	363.56	417.19	420.50	413.31	378.56	349.25	354.00	360.69	372.56	388.19	393.12	406.75	401.88	385.81	390.19	434.06	482.25	484.81	461.75	456.50	446.12	449.50	465.06	501.94	504.81	445.62	426.88	401.56	393.38	400.88	398.38	396.31	406.88	395.94	367.31	409.38	454.19	474.94	416.19	340.19	334.56	359.75	369.06	353.88	369.00	356.50	342.81	324.38	321.06	325.50	331.00	335.25	314.00	312.00	330.25	340.06	399.31	424.00	429.06	421.19	428.12	427.81	414.19	414.00	411.81	418.56	381.44	375.12	347.19	346.25	356.31	346.25	355.38	373.12	362.19	331.06	307.81	303.38	297.19	323.44	331.88	342.81	342.69	337.38	335.69	308.69	292.19	325.62	344.31	365.19	349.38	349.69	316.38	303.31	322.56	327.75	332.81	334.69	353.31	396.69	438.88	411.56	362.44	369.94	389.44	387.75	363.56	347.75	344.56	375.50	422.44	377.56	378.94	368.31	346.75	355.75	382.94	370.50	355.88	357.69	359.81	381.12	393.00	394.19	413.50	407.31	398.44	404.38	397.50	402.06	400.75	396.19	396.06	381.19	373.75	390.69	411.56	436.19	432.75	423.50	420.44	431.44	436.44	440.56	432.44	400.50
435.88	414.38	405.38	435.44	430.25	407.19	342.94	294.25	410.25	390.50	278.75	225.81	308.88	333.75	376.31	441.19	462.75	464.25	493.44	488.00	496.69	608.00	728.56	664.38	640.62	641.06	664.06	643.94	634.44	694.75	666.75	649.69	639.81	620.06	584.75	613.50	656.44	593.94	579.56	607.50	655.69	699.62	684.44	636.19	633.31	667.94	621.69	645.62	662.56	670.19	684.19	656.00	644.81	657.06	679.56	639.00	667.62	645.88	580.00	547.50	558.75	580.56	582.38	561.31	545.50	573.06	563.19	519.31	524.88	510.31	487.62	469.69	464.19	482.38	511.94	514.19	476.56	458.12	440.69	467.94	450.62	409.31	414.81	270.25	373.19	369.94	423.44	461.38	444.69	425.94	471.88	513.31	475.88	347.44	328.38	360.50	262.50	251.75	333.31	373.62	345.50	340.94	373.88	400.81	410.94	404.75	368.75	350.25	409.62	407.06	361.69	409.69	400.81	391.44	365.19	379.25	398.25	414.88	398.19	388.25	392.38	398.06	396.56	389.56	393.31	426.00	464.94	466.94	445.94	454.00	438.50	451.06	468.06	494.38	500.38	469.00	452.75	423.19	429.38	433.81	388.75	373.44	374.50	383.81	380.00	374.69	375.19	369.88	346.62	433.81	419.69	361.38	347.06	340.88	356.81	348.75	361.25	348.50	317.81	297.38	306.56	310.94	305.50	318.38	346.50	370.56	381.69	407.12	422.62	413.38	410.69	420.19	408.38	408.25	412.88	420.06	402.00	404.81	346.38	338.31	333.69	341.00	361.94	384.00	382.12	403.06	380.94	333.38	289.75	320.56	331.06	331.75	338.00	341.62	333.56	303.94	304.00	328.12	338.94	346.12	342.62	329.75	303.94	316.19	328.44	331.69	336.31	348.50	364.75	396.94	428.12	398.94	371.12	361.88	384.19	362.00	341.69	339.06	339.62	383.25	423.50	376.62	373.75	365.94	345.25	365.56	374.62	358.69	354.19	365.69	376.75	387.69	381.31	396.69	396.12	385.69	401.81	403.38	391.62	396.38	389.19	384.19	387.69	381.38	372.00	386.12	411.62	422.44	422.44	428.19	436.00	451.31	432.94	431.62	431.75	408.50
474.88	461.88	451.88	466.00	439.00	334.69	297.75	325.19	413.50	456.06	335.00	195.50	293.88	338.69	402.06	428.75	407.88	449.50	463.38	488.44	475.56	563.31	703.81	675.56	673.75	645.38	650.88	643.88	568.56	640.06	692.44	663.75	666.38	682.44	627.38	606.50	644.88	651.31	601.44	606.19	650.81	682.31	660.44	648.75	631.62	626.44	597.12	654.19	648.00	659.31	685.25	656.06	630.50	630.44	630.06	618.44	675.38	645.38	558.12	516.00	520.50	531.12	559.81	572.25	538.94	524.69	526.81	502.81	519.81	511.75	488.88	477.69	448.62	447.56	468.50	474.25	430.50	432.56	415.06	451.69	447.19	422.94	440.81	267.56	324.31	376.62	460.00	450.62	399.50	427.50	462.88	484.12	385.81	265.56	267.50	277.31	245.38	230.69	323.00	352.94	266.31	278.12	319.69	319.62	378.56	397.00	397.56	352.38	383.19	398.19	356.44	386.88	357.31	357.94	379.75	424.12	449.50	448.44	429.38	400.06	397.81	399.25	403.69	399.25	399.75	432.62	466.44	485.25	450.94	441.50	435.25	443.19	463.81	464.06	488.12	490.69	449.75	453.44	441.12	440.69	413.12	386.50	372.12	373.94	389.69	364.06	369.00	340.44	364.56	470.12	485.44	439.00	350.69	314.88	319.19	335.62	349.88	342.19	317.81	296.69	300.62	321.56	332.44	334.38	344.25	375.56	392.75	409.31	421.69	411.25	403.44	399.12	394.12	397.00	399.81	409.38	416.38	408.81	375.56	359.56	330.62	326.62	355.88	418.44	398.19	400.44	386.88	336.31	298.38	312.88	313.75	307.00	317.25	330.19	330.25	292.56	303.38	326.88	338.19	339.25	329.50	313.81	300.12	324.19	341.31	347.12	338.19	347.12	369.19	404.44	411.62	391.88	384.00	367.38	382.38	349.81	336.19	331.88	346.44	403.12	401.69	379.75	361.81	349.06	386.50	379.88	364.94	349.12	369.38	384.69	390.38	380.94	368.44	373.50	375.44	380.38	397.44	406.19	398.69	402.19	391.94	391.75	379.88	374.38	372.00	403.94	428.69	413.06	437.19	447.12	455.81	473.69	446.50	419.44	412.19	399.75
536.56	518.00	509.31	496.88	367.06	389.75	435.75	413.25	416.25	514.56	433.06	218.00	267.06	309.62	361.62	388.44	388.31	424.69	450.62	459.62	457.56	557.19	670.31	653.12	675.31	653.69	631.56	587.56	544.19	499.06	580.94	643.19	706.62	694.69	633.25	656.81	643.00	647.19	638.38	598.69	631.38	663.88	675.19	657.88	606.62	560.00	572.56	615.75	610.50	631.25	656.25	662.25	648.62	624.38	600.06	587.19	667.38	651.00	575.94	533.25	506.56	508.88	535.12	553.56	561.62	529.81	504.31	484.69	496.06	506.38	489.69	506.62	451.12	428.94	463.81	459.44	408.25	401.19	390.50	441.56	443.94	404.75	431.31	288.81	258.00	351.56	473.06	419.00	406.12	437.81	493.62	469.62	321.06	302.94	339.94	244.81	225.31	257.44	282.38	312.38	243.62	316.62	297.69	313.75	315.25	330.69	320.25	304.12	286.94	331.56	320.62	344.25	361.69	364.00	381.75	425.88	417.38	413.00	422.19	418.12	408.75	409.81	426.38	421.75	411.31	431.00	463.62	475.75	452.12	435.50	441.19	467.56	457.06	449.12	481.44	499.00	470.94	455.44	431.06	443.31	422.88	384.88	367.62	367.19	389.25	354.19	360.56	348.75	357.44	438.56	500.19	486.38	381.31	316.31	307.50	327.31	343.06	327.31	304.38	299.19	309.12	314.44	331.44	340.00	350.31	379.06	387.88	380.81	394.88	391.06	396.56	390.56	402.81	400.25	380.69	398.50	401.69	398.81	386.81	382.56	313.50	309.62	367.88	428.81	346.69	317.75	321.19	319.50	288.25	300.12	297.38	293.50	305.88	318.19	320.25	288.31	292.19	307.62	321.88	327.44	318.19	297.50	299.31	340.44	343.12	355.12	351.50	355.31	385.75	451.62	430.44	388.50	386.75	378.06	388.50	356.12	340.19	330.69	355.50	398.94	373.75	377.12	348.38	348.94	387.56	381.31	353.62	363.62	387.19	385.44	374.19	367.00	381.81	381.25	378.25	376.69	385.94	410.06	410.12	403.88	397.75	396.94	384.38	377.12	382.56	400.50	388.94	406.25	411.56	402.00	418.88	474.56	476.31	421.88	397.88	390.12
519.06	483.25	481.56	427.25	326.19	478.56	533.12	462.31	501.62	565.88	487.50	240.12	215.56	287.06	333.25	352.50	387.06	430.56	467.06	406.19	462.88	542.94	561.19	593.81	660.31	659.56	631.44	564.00	480.62	394.00	447.31	569.00	694.88	691.19	667.00	669.56	689.94	656.81	663.12	622.38	663.06	685.62	695.00	690.44	625.69	526.31	571.06	630.50	592.56	596.50	610.62	638.75	671.69	641.50	566.56	553.06	594.19	669.12	646.88	538.56	515.25	506.50	528.44	537.69	546.75	545.06	503.56	459.44	454.69	457.88	489.56	510.31	418.44	441.94	485.88	483.44	444.69	418.12	347.19	376.25	327.75	314.31	380.00	391.25	261.62	393.06	404.25	379.31	443.56	470.50	499.38	441.19	341.69	231.19	326.94	268.44	246.56	320.94	331.56	258.31	246.12	285.88	367.06	389.44	327.88	333.94	373.19	359.38	296.25	342.75	374.56	401.38	417.25	418.19	405.81	400.50	378.50	401.19	404.69	409.00	414.50	419.25	431.69	432.62	428.31	460.81	477.00	452.50	433.69	425.06	443.88	467.56	433.44	458.38	486.25	475.81	476.81	445.12	431.12	407.81	389.75	372.94	379.25	358.94	351.06	343.88	344.38	347.44	356.56	440.19	532.62	501.06	370.06	305.44	310.75	327.38	350.31	309.94	324.69	332.94	332.00	324.19	322.56	333.69	355.19	383.12	377.88	386.69	392.62	397.81	392.44	403.94	417.06	399.06	369.44	345.81	373.50	361.94	330.12	339.94	368.56	337.69	371.88	349.56	332.94	352.94	339.88	293.06	287.00	294.75	308.25	312.00	307.75	308.69	316.19	289.19	296.12	307.81	313.12	318.62	310.94	291.38	302.62	318.25	318.44	334.50	355.44	392.56	440.81	463.50	437.56	376.12	371.44	389.44	389.94	382.94	369.50	341.19	349.50	365.00	371.38	353.50	328.81	369.75	390.19	360.44	354.19	375.94	378.94	373.69	362.62	376.12	382.94	383.12	402.19	405.62	403.81	403.50	408.56	403.38	401.50	395.69	380.62	385.38	375.81	362.94	369.25	375.88	383.81	386.75	396.50	416.94	435.62	424.06	404.81	388.56
477.38	461.50	402.38	346.69	319.19	449.19	517.62	509.31	516.25	553.69	429.19	216.88	309.81	342.50	295.12	386.19	450.88	413.00	403.50	405.69	442.19	498.69	529.81	600.56	653.00	633.69	580.31	589.88	468.88	360.88	406.00	532.75	653.56	715.56	692.19	669.25	688.88	687.12	675.69	636.81	647.25	687.12	698.81	720.69	667.94	527.00	493.31	542.94	568.56	593.31	614.75	622.06	631.69	623.75	570.06	543.62	565.25	635.31	653.69	527.25	494.81	490.62	519.44	536.38	524.44	517.38	490.88	468.31	459.94	419.00	474.56	527.00	396.75	448.62	472.69	464.06	451.00	436.88	291.00	265.38	265.06	287.56	283.44	329.69	244.38	361.62	345.88	387.94	425.75	460.44	415.31	366.44	322.69	236.25	303.12	329.56	324.94	365.25	396.38	355.19	321.38	280.69	341.81	399.44	390.38	367.94	386.81	379.19	302.94	356.62	391.94	405.81	411.94	398.12	391.62	363.12	390.75	412.12	398.75	406.94	416.19	427.19	432.81	446.00	448.06	476.75	480.19	463.88	443.19	422.38	446.00	460.94	429.88	470.88	472.38	474.31	497.00	452.62	466.94	418.00	387.00	381.31	376.81	360.94	364.94	341.81	340.62	344.06	364.44	446.56	528.69	420.94	340.44	297.50	313.88	322.31	339.50	321.56	306.88	328.12	350.50	351.75	350.25	345.38	353.81	370.62	368.69	400.00	416.62	422.88	411.88	420.62	418.38	402.31	343.06	339.25	368.56	326.56	336.88	378.81	401.56	366.25	311.81	332.81	365.62	372.75	339.31	297.94	292.75	291.69	297.06	301.25	317.44	312.56	308.81	288.31	300.12	306.00	307.06	306.81	292.94	289.25	303.31	330.56	336.81	349.69	350.62	373.12	433.31	441.19	436.56	367.31	351.62	356.62	354.62	347.06	344.56	354.88	340.19	339.00	374.88	353.75	319.88	357.12	383.00	355.31	353.81	365.56	367.12	367.62	353.56	366.00	363.50	372.25	381.94	405.44	418.06	404.25	407.06	394.69	389.19	385.00	387.94	427.12	388.94	361.94	365.56	369.44	377.81	383.94	390.38	389.56	393.31	395.31	383.94	377.88
546.50	510.25	498.56	446.88	340.88	450.31	495.06	549.62	574.75	508.75	349.75	209.81	360.06	484.88	433.88	335.44	345.06	352.25	428.50	490.38	508.56	521.44	554.62	600.12	649.94	602.69	551.94	487.81	396.25	346.56	334.12	409.69	530.81	632.38	694.19	698.06	698.38	671.38	660.69	656.69	645.44	672.81	695.94	694.88	625.50	507.06	447.88	478.38	551.50	600.38	621.56	611.25	616.75	614.62	584.38	534.44	559.25	625.88	652.25	531.75	487.69	480.94	516.06	528.19	495.69	497.75	476.50	470.12	461.56	446.12	407.38	406.88	364.75	442.56	468.00	438.06	420.31	387.62	284.75	376.25	425.88	433.62	376.69	281.75	267.81	263.12	285.44	296.12	335.44	381.06	354.19	350.19	313.25	217.44	250.12	369.25	413.06	398.56	406.19	364.44	302.19	347.75	372.75	417.00	421.25	418.00	409.69	392.88	379.38	319.50	324.56	315.00	320.94	344.56	360.69	381.12	410.00	389.69	381.12	401.44	413.81	443.31	442.44	451.38	465.19	480.50	462.06	454.50	443.12	424.00	429.19	442.69	429.88	461.94	456.56	461.69	457.94	447.81	443.62	426.44	431.88	433.31	402.62	371.12	370.44	386.44	381.00	392.75	403.44	377.31	415.00	357.38	317.00	297.69	288.56	289.69	313.94	329.62	312.69	331.69	370.44	378.50	377.69	362.44	356.94	386.06	423.69	444.75	441.06	429.62	437.56	436.50	421.38	402.12	389.06	378.31	352.12	314.81	365.62	388.75	401.00	392.56	341.62	338.06	345.25	335.44	320.38	299.69	294.75	299.38	302.88	303.25	309.00	326.94	303.38	295.19	291.75	299.88	298.12	302.88	295.50	287.19	287.81	316.88	338.00	367.06	403.50	418.69	468.12	427.12	385.75	355.00	338.50	327.88	363.00	374.12	341.00	317.44	314.56	338.81	359.75	328.00	314.88	338.50	342.31	333.25	347.56	347.06	350.50	345.50	358.00	387.38	370.88	378.56	392.62	399.38	411.44	407.38	403.00	396.12	394.94	386.38	383.44	406.81	393.88	389.69	388.88	376.31	384.06	384.50	382.44	374.44	378.25	390.94	381.12	375.38
553.38	522.06	529.31	475.94	349.12	389.31	484.94	582.75	591.62	443.94	316.88	226.56	366.88	498.38	540.50	463.12	377.94	430.38	488.06	533.50	556.44	552.88	549.62	589.62	637.81	649.75	637.06	524.75	469.69	420.50	324.44	330.06	411.88	451.81	616.25	660.81	627.62	569.06	594.50	632.19	661.50	679.38	691.94	638.62	580.62	539.69	470.38	446.44	474.94	507.88	551.75	542.19	586.88	594.44	548.38	559.56	568.81	639.31	660.56	542.19	487.88	474.50	480.81	503.88	483.69	487.31	480.62	481.12	475.50	453.12	450.50	386.81	351.94	402.00	457.81	422.69	366.38	288.06	283.94	422.50	453.94	482.62	424.50	382.38	391.00	228.31	214.38	224.38	237.31	267.50	313.25	321.19	289.31	210.19	275.00	411.06	433.94	409.69	415.62	368.12	339.94	420.62	413.00	440.88	446.38	429.62	413.62	400.62	403.44	373.88	332.38	259.81	261.50	286.62	326.94	386.25	385.12	361.25	373.62	407.19	416.94	430.81	426.81	452.69	473.50	471.31	447.88	446.50	455.94	425.31	412.19	414.88	438.56	453.56	426.62	437.44	423.81	462.25	439.94	450.56	433.94	447.44	410.94	374.44	410.38	427.19	432.56	411.00	365.50	319.56	317.75	291.81	289.25	289.25	291.00	303.25	291.00	296.38	348.81	357.25	380.69	387.50	388.94	376.12	389.44	413.06	408.06	395.38	398.06	413.56	428.12	439.19	436.75	425.31	420.56	392.31	351.62	312.44	336.69	387.06	399.00	399.38	371.62	347.50	337.75	330.25	319.44	294.44	297.31	306.38	316.12	309.31	297.56	322.81	314.56	307.69	286.19	297.06	309.75	306.88	298.50	290.06	285.62	302.06	313.69	340.38	387.31	424.50	465.00	414.12	356.44	349.56	338.19	329.62	416.12	409.31	362.56	298.00	301.06	362.00	352.56	307.75	321.88	356.69	349.19	346.31	350.69	353.06	369.06	368.62	365.00	380.50	383.56	382.44	409.00	415.31	398.06	389.81	392.19	389.50	388.69	387.44	387.25	416.19	394.06	394.88	380.94	374.81	379.75	386.00	379.94	365.12	385.38	391.25	374.69	369.06
502.75	485.06	529.25	467.25	345.69	388.69	469.94	579.69	571.50	436.88	364.81	205.25	214.56	240.94	345.56	503.38	469.75	464.06	424.69	476.81	527.19	524.12	522.56	557.38	598.06	624.88	652.12	711.12	732.25	678.62	429.12	298.75	293.31	301.00	407.56	473.69	406.25	401.00	434.25	536.12	619.56	616.50	646.88	602.69	604.00	581.00	555.19	455.56	402.19	380.81	405.56	417.12	478.75	553.19	483.75	548.56	613.69	632.88	633.00	530.06	490.81	482.81	473.50	481.38	485.38	499.44	516.50	514.94	473.56	444.12	446.62	409.31	340.44	316.81	393.62	427.94	294.50	323.69	412.88	439.56	447.75	469.25	457.44	451.50	445.88	329.06	279.62	328.75	308.62	248.38	273.00	297.06	230.12	312.56	382.88	424.88	439.69	423.75	432.88	400.94	367.50	394.00	423.31	440.19	490.75	492.00	446.31	395.56	371.50	362.50	343.88	294.19	282.81	275.38	329.06	367.75	367.62	343.12	375.38	398.06	407.75	432.44	459.56	482.50	502.56	470.31	432.31	435.06	450.50	438.50	416.69	405.00	442.06	423.19	411.69	413.31	432.62	484.12	436.50	434.06	440.44	431.56	432.88	417.31	439.31	458.94	440.56	391.50	307.31	303.75	296.88	288.06	301.50	332.00	335.75	349.56	332.00	330.88	326.62	373.81	397.50	398.19	407.94	419.50	406.44	374.62	370.31	375.06	384.62	407.31	416.12	421.00	447.38	436.25	447.38	395.12	375.25	336.75	304.19	381.31	396.81	406.19	391.25	382.88	351.19	335.19	326.00	306.00	315.81	325.69	329.62	315.62	313.44	333.44	320.88	327.75	317.62	291.75	281.38	287.19	291.62	283.56	285.25	286.56	286.00	287.19	304.56	358.81	431.31	401.69	346.88	366.62	354.44	323.81	367.38	359.38	328.75	289.50	311.62	323.12	307.06	310.25	347.75	376.75	373.88	366.69	372.94	363.19	365.81	368.62	383.50	376.31	378.69	397.75	422.81	406.56	387.06	385.81	394.25	398.50	391.19	388.44	403.81	430.81	378.75	373.19	366.69	371.00	376.44	385.50	370.12	359.62	373.06	381.44	370.44	370.38
488.75	469.31	494.31	398.81	341.50	408.94	475.75	557.19	590.94	508.88	374.69	276.62	244.88	230.50	185.69	325.81	411.06	397.94	345.62	461.38	480.06	485.81	573.38	641.19	668.94	701.00	695.81	733.12	722.12	730.75	495.25	319.06	238.69	241.69	319.19	332.50	308.25	340.75	401.38	551.38	591.12	546.25	566.25	562.50	574.31	582.81	560.19	543.25	443.19	371.56	330.88	341.00	391.25	431.19	414.31	538.19	637.81	651.12	633.44	543.75	510.50	505.06	475.56	476.38	512.75	513.75	510.12	489.56	449.75	382.62	382.75	393.38	367.56	325.50	309.62	431.25	311.75	276.38	360.81	389.94	426.12	460.62	495.25	516.25	466.62	415.12	390.38	375.06	363.31	366.38	259.25	264.12	261.00	355.94	397.62	434.50	460.69	441.19	467.38	460.31	423.38	377.06	372.31	455.25	527.50	522.81	449.06	409.88	428.94	379.38	307.31	288.62	281.75	329.00	301.94	284.19	303.81	325.94	370.44	397.62	440.94	445.81	483.38	493.50	498.38	459.81	423.56	409.88	442.44	459.81	428.31	390.94	412.38	411.50	418.56	431.44	445.81	485.50	441.94	439.12	425.69	429.88	452.81	441.38	420.69	443.88	446.69	351.31	281.31	285.94	288.31	286.69	287.88	317.38	329.38	338.69	342.00	346.69	343.19	364.06	378.31	403.75	432.12	420.25	404.12	383.88	341.88	368.38	397.88	407.94	398.81	403.62	426.31	412.94	422.00	421.44	386.12	322.31	332.56	366.12	383.50	414.62	424.12	399.00	382.19	362.94	346.81	322.19	330.31	331.31	321.19	311.50	320.62	339.12	325.25	326.81	335.12	320.69	304.50	302.94	315.56	309.75	302.44	308.50	307.88	314.06	316.38	302.44	317.62	352.88	340.38	338.69	351.44	312.44	321.31	304.06	289.75	299.31	343.56	348.44	315.00	322.25	361.88	392.56	386.19	380.50	384.75	370.50	376.44	378.62	383.44	375.38	382.50	396.56	407.88	403.50	383.94	382.62	393.88	406.38	405.88	401.00	404.88	410.25	375.00	363.81	363.38	376.88	376.44	375.75	360.25	364.50	365.69	376.69	397.25	382.62
538.81	436.69	393.56	344.94	371.50	393.31	464.44	579.88	565.81	392.06	387.88	405.69	330.12	255.88	174.62	209.31	300.44	324.12	353.31	459.38	417.31	522.50	627.62	712.38	710.69	733.12	713.56	674.81	674.00	657.81	446.31	320.12	248.94	216.94	268.19	262.62	275.31	338.06	391.38	468.88	511.06	507.75	499.44	503.94	542.62	572.69	569.50	553.50	462.38	390.38	321.50	303.00	327.81	352.19	413.38	536.38	656.44	642.50	636.31	577.69	512.12	497.31	474.25	471.69	512.38	496.00	498.25	473.44	426.94	354.25	321.50	349.75	297.81	268.50	270.38	353.44	333.50	238.44	364.94	428.44	447.12	483.50	518.88	479.19	427.00	417.00	412.38	400.44	414.06	396.12	240.44	238.69	257.56	375.44	413.50	465.88	465.06	461.25	507.94	513.00	474.50	405.56	368.06	483.62	534.12	517.81	481.50	467.81	406.75	370.88	276.69	303.50	321.25	342.81	286.69	295.38	280.06	371.00	410.12	435.75	419.00	398.06	453.00	474.81	485.62	441.56	409.62	400.56	441.25	417.88	393.81	408.19	454.12	440.44	435.38	451.38	460.94	489.69	453.38	430.25	417.31	418.69	444.50	417.31	413.44	428.75	396.38	290.12	298.44	309.56	315.38	298.56	298.62	282.31	301.06	314.25	343.31	388.06	387.56	358.62	369.44	422.25	410.81	389.94	399.75	389.19	330.12	390.94	401.38	392.38	377.69	409.06	419.81	408.62	398.06	396.25	385.25	339.75	321.31	345.19	384.88	408.31	438.81	418.38	399.94	381.75	370.00	348.50	349.31	331.81	316.50	316.56	322.62	348.06	337.50	336.19	329.75	339.56	336.31	336.06	327.81	317.88	314.75	333.00	333.81	330.38	316.69	305.94	288.38	313.88	325.94	319.31	344.81	323.88	344.75	303.06	312.75	330.62	374.06	369.19	334.38	334.69	354.56	378.06	368.25	376.31	391.75	388.06	387.62	385.94	404.31	395.44	406.88	404.25	386.00	390.00	371.38	370.88	393.38	404.31	405.81	402.31	415.62	429.19	388.06	362.12	362.75	370.06	374.75	375.12	365.69	387.56	384.62	351.00	372.69	388.88
486.56	377.19	359.50	385.25	465.69	493.25	495.81	571.19	563.19	482.69	479.88	401.38	301.94	333.69	175.56	211.50	217.69	253.50	321.94	385.94	487.25	547.25	632.69	673.75	632.75	647.19	633.69	630.44	649.56	554.38	371.31	296.56	255.12	224.31	236.06	227.94	305.19	357.88	395.75	481.62	533.94	548.62	531.94	483.12	510.69	557.69	536.88	499.19	460.69	379.38	318.31	289.06	307.75	346.06	411.69	465.50	576.62	595.50	621.94	613.19	522.25	492.31	465.69	461.56	479.94	481.56	505.25	486.38	433.00	378.75	342.44	324.88	299.75	274.06	215.19	221.38	225.19	293.00	423.31	474.25	488.38	460.50	433.19	422.69	419.25	410.94	401.69	418.06	428.00	414.44	367.69	363.50	322.50	380.94	439.38	499.38	505.38	493.38	522.69	555.00	529.62	438.25	403.62	419.38	451.81	489.81	530.25	454.06	385.19	350.12	304.56	280.19	293.69	281.06	261.94	293.19	299.31	362.69	415.00	364.44	360.19	401.81	427.44	429.75	463.38	467.25	427.81	409.94	413.38	378.44	400.38	432.50	435.00	435.31	436.56	450.12	480.44	518.06	458.75	439.44	416.50	397.56	409.75	407.75	410.06	398.94	288.56	307.31	330.50	335.62	340.69	330.88	324.00	290.38	276.69	295.56	346.94	357.19	341.69	317.00	377.06	400.31	384.19	376.75	399.38	367.94	297.19	310.12	342.25	352.69	376.56	405.62	408.50	411.12	390.69	344.38	362.75	372.25	341.12	352.06	403.50	422.62	433.69	435.88	412.81	396.12	381.69	372.38	350.25	336.50	333.69	359.69	342.69	359.69	353.81	351.69	338.94	346.56	361.44	341.31	332.31	335.62	333.31	340.75	331.75	325.62	317.88	305.88	315.75	286.75	303.94	306.62	324.00	340.75	327.94	284.69	300.00	335.31	355.69	344.62	336.38	332.06	331.50	340.88	353.56	385.94	370.38	380.25	386.12	404.94	419.88	400.25	406.25	389.50	375.25	370.00	365.31	366.06	392.06	391.38	381.56	409.88	435.50	418.25	382.19	380.06	374.69	370.50	374.56	381.75	386.25	424.94	405.38	360.19	378.50	414.06
383.38	401.19	461.31	483.00	521.44	584.06	608.50	633.31	614.56	480.19	364.69	340.19	416.44	421.12	176.19	236.88	252.94	353.44	420.50	488.56	557.69	595.56	635.62	642.31	595.88	587.50	598.94	635.56	644.44	525.62	343.19	283.19	254.69	237.06	223.44	237.75	320.12	385.88	472.31	506.81	493.44	574.50	582.69	510.94	478.50	540.88	566.50	508.19	393.12	341.25	332.19	287.19	350.62	390.19	381.50	405.38	465.62	510.56	612.94	613.62	531.19	492.94	461.56	456.25	471.75	480.38	495.06	473.06	419.19	364.12	346.62	365.19	341.06	251.06	197.50	196.00	288.81	397.19	432.50	438.94	449.38	464.44	438.81	431.94	420.31	412.25	411.00	430.25	433.62	419.12	404.56	366.38	335.19	415.81	468.25	500.62	525.19	527.31	543.19	567.88	536.12	454.12	415.00	401.00	428.62	454.19	496.50	496.88	433.38	404.12	358.44	293.75	296.69	294.06	297.81	322.94	351.56	297.62	353.81	337.81	371.81	395.38	381.19	377.25	437.88	481.44	455.44	452.31	401.69	351.94	381.00	413.31	432.44	447.88	450.38	468.25	480.94	507.12	448.56	427.06	415.44	393.88	420.75	439.19	433.62	381.12	287.31	323.56	345.69	338.50	345.44	347.81	338.44	318.56	322.38	364.00	364.62	346.69	321.19	290.25	380.62	374.56	362.94	356.12	367.44	351.62	308.81	348.06	309.69	338.50	377.38	398.69	410.75	416.31	369.81	333.06	324.12	342.88	312.06	390.50	424.19	412.81	421.75	427.62	422.00	416.50	392.56	379.94	367.88	345.06	332.56	342.19	352.62	365.81	364.31	351.06	341.75	347.81	353.38	338.81	347.62	351.50	343.25	328.44	323.00	311.31	302.88	311.81	330.12	296.25	284.56	296.00	305.44	308.69	298.12	282.94	289.56	303.31	327.62	328.19	320.38	330.00	346.75	341.94	367.31	359.94	366.06	377.81	390.81	393.44	402.12	385.19	396.62	393.12	371.62	378.00	371.06	360.62	381.31	379.62	382.38	477.00	465.69	403.19	358.44	352.56	387.81	367.06	367.56	378.00	412.94	435.44	412.56	397.94	371.56	377.81
388.38	453.81	525.00	555.81	568.69	578.69	636.19	652.88	583.75	438.00	470.44	469.94	521.56	461.81	226.12	233.00	283.81	338.19	411.50	472.38	528.06	582.81	618.56	614.88	578.50	581.44	620.62	660.69	635.19	505.88	403.06	351.31	274.94	241.94	194.25	283.50	381.81	425.56	439.06	409.31	418.81	556.62	590.88	556.25	486.44	510.69	556.25	544.69	420.25	345.94	305.19	295.00	331.88	380.44	382.62	378.00	416.56	462.50	539.75	589.38	549.38	473.00	453.69	469.38	491.75	517.62	519.50	476.44	440.81	391.19	335.62	288.44	271.94	201.25	188.25	223.62	357.62	414.44	415.88	432.31	443.94	457.62	448.25	444.00	433.75	426.94	428.31	457.19	463.56	449.69	387.50	387.25	363.31	369.94	454.31	489.44	517.75	541.44	562.81	570.81	538.88	451.69	403.38	399.69	422.75	436.88	459.50	485.75	453.25	418.56	353.50	317.31	328.88	288.88	293.56	325.75	375.12	355.38	309.56	341.81	319.88	343.00	359.12	396.69	454.00	477.12	452.06	452.25	423.31	345.81	350.75	373.19	430.44	445.50	451.50	464.75	458.12	481.38	437.56	431.44	418.38	394.88	430.81	435.25	446.69	387.62	289.06	321.50	333.69	321.94	337.19	351.50	356.62	360.19	406.81	419.06	388.19	370.50	346.69	316.12	318.62	337.31	349.12	340.75	345.06	368.69	301.25	357.31	340.50	322.50	356.50	400.94	402.25	413.88	376.31	345.69	363.94	337.81	353.19	410.69	424.25	397.44	415.31	401.06	411.94	423.00	404.94	395.19	386.00	355.62	341.62	349.25	358.75	361.50	354.56	349.50	350.06	353.38	350.00	338.69	349.31	347.38	340.88	328.00	313.69	312.12	304.12	310.38	303.75	293.19	288.06	288.00	285.25	286.50	286.56	281.81	285.12	294.94	311.94	315.38	331.31	345.31	362.88	352.12	349.06	362.31	378.19	385.25	387.75	372.31	386.12	387.50	389.19	380.75	367.56	371.56	379.81	363.50	365.56	360.25	374.50	464.25	472.56	432.25	374.50	348.75	387.50	372.62	372.25	376.62	414.88	412.50	404.94	386.81	356.81	355.19
