3355.00	3354.75	3354.00	3353.25	3352.75	3352.00	3351.00	3350.00	3349.50	3349.00	3348.00	3348.00	3347.00	3346.00	3345.75	3345.00	3344.50	3344.00	3343.50	3343.00	3343.00	3343.00	3343.00	3343.00	3343.00	3342.00	3342.00	3342.00	3342.00	3342.00	3342.00	3342.00	3342.00	3342.00	3342.00	3342.00	3342.00	3342.00	3342.00	3341.25	3341.00	3341.00	3341.00	3341.00	3341.00	3340.75	3340.00	3340.00	3340.00	3340.00	3340.00	3339.25	3339.00	3339.00	3338.50	3338.00	3337.75	3337.00	3336.75	3336.00	3335.25	3334.25	3333.50	3332.50	3332.00	3331.50	3331.00	3330.00	3329.00	3328.25	3327.25	3327.00	3326.50	3326.00	3326.00	3325.25	3325.00	3324.25	3324.00	3324.00	3324.00	3323.50	3323.00	3323.00	3323.00	3323.00	3323.00	3323.00	3324.00	3324.00	3324.00	3324.00	3324.00	3324.00	3324.00	3324.00	3324.00	3324.00	3324.00	3324.00	3324.00	3324.00	3324.00	3324.00	3324.00	3324.00	3323.25	3323.00	3323.00	3323.00	3322.25	3322.00	3322.00	3321.75	3321.00	3321.00	3321.00	3320.25	3320.00	3320.00	3320.00	3319.25	3319.00	3319.00	3319.00	3318.00	3318.00	3317.50	3317.00	3316.75	3316.00	3315.50	3315.00	3314.25	3314.00	3313.00	3312.50	3312.00	3311.00	3310.00	3309.25	3308.75	3308.00	3307.00	3306.00	3305.25	3304.25	3303.50	3302.75	3302.00	3301.00	3300.50	3300.00	3299.25	3299.00	3298.00	3297.50	3297.00	3297.00	3296.50	3296.00	3296.00	3295.25	3295.00	3295.00	3294.25	3294.00	3294.00	3293.25	3293.00	3293.00	3292.25	3292.00	3291.25	3290.75	3290.00	3289.25	3289.00	3288.00	3287.75	3287.00	3286.25	3286.00	3285.00	3285.00	3285.00	3284.00	3284.00	3283.75	3283.00	3283.00	3283.00	3282.25	3282.00	3282.00	3282.00	3281.25	3281.00	3281.00	3280.00	3280.00	3279.25	3279.00	3279.00	3279.00	3279.00	3278.25	3278.00	3277.50	3277.00	3277.00	3276.75	3276.00	3276.00	3276.00	3276.00	3276.00	3276.00	3275.00	3275.00	3275.00	3274.00	3274.00	3273.25	3273.00	3272.00	3272.00	3271.25	3271.00	3271.00	3270.00	3270.00	3269.50	3269.00	3268.00	3267.75	3267.00	3267.00	3266.75	3266.00	3265.75	3265.00	3264.25	3263.75	3263.00	3262.00	3261.00	3260.25	3259.50	3259.00	3258.75	3258.00	3257.00	3256.50	3256.00	3255.50
3355.00	3354.75	3354.00	3353.25	3352.75	3352.00	3351.00	3350.00	3349.50	3349.00	3348.00	3348.00	3347.00	3346.00	3345.75	3345.00	3344.50	3344.00	3343.50	3343.00	3343.00	3343.00	3343.00	3343.00	3343.00	3342.00	3342.00	3342.00	3342.00	3342.00	3342.00	3342.00	3342.00	3342.00	3342.00	3342.00	3342.00	3342.00	3342.00	3341.25	3341.00	3341.00	3341.00	3341.00	3341.00	3340.75	3340.00	3340.00	3340.00	3340.00	3340.00	3339.25	3339.00	3339.00	3338.50	3338.00	3337.75	3337.00	3336.75	3336.00	3335.25	3334.25	3333.50	3332.50	3332.00	3331.50	3331.00	3330.00	3329.00	3328.25	3327.25	3327.00	3326.50	3326.00	3326.00	3325.25	3325.00	3324.25	3324.00	3324.00	3324.00	3323.50	3323.00	3323.00	3323.00	3323.00	3323.00	3323.00	3324.00	3324.00	3324.00	3324.00	3324.00	3324.00	3324.00	3324.00	3324.00	3324.00	3324.00	3324.00	3324.00	3324.00	3324.00	3324.00	3324.00	3324.00	3323.25	3323.00	3323.00	3323.00	3322.25	3322.00	3322.00	3321.75	3321.00	3321.00	3321.00	3320.25	3320.00	3320.00	3320.00	3319.25	3319.00	3319.00	3319.00	3318.00	3318.00	3317.50	3317.00	3316.75	3316.00	3315.50	3315.00	3314.25	3314.00	3313.00	3312.50	3312.00	3311.00	3310.00	3309.25	3308.75	3308.00	3307.00	3306.00	3305.25	3304.25	3303.50	3302.75	3302.00	3301.00	3300.50	3300.00	3299.25	3299.00	3298.00	3297.50	3297.00	3297.00	3296.50	3296.00	3296.00	3295.25	3295.00	3295.00	3294.25	3294.00	3294.00	3293.25	3293.00	3293.00	3292.25	3292.00	3291.25	3290.75	3290.00	3289.25	3289.00	3288.00	3287.75	3287.00	3286.25	3286.00	3285.00	3285.00	3285.00	3284.00	3284.00	3283.75	3283.00	3283.00	3283.00	3282.25	3282.00	3282.00	3282.00	3281.25	3281.00	3281.00	3280.00	3280.00	3279.25	3279.00	3279.00	3279.00	3279.00	3278.25	3278.00	3277.50	3277.00	3277.00	3276.75	3276.00	3276.00	3276.00	3276.00	3276.00	3276.00	3275.00	3275.00	3275.00	3274.00	3274.00	3273.25	3273.00	3272.00	3272.00	3271.25	3271.00	3271.00	3270.00	3270.00	3269.50	3269.00	3268.00	3267.75	3267.00	3267.00	3266.75	3266.00	3265.75	3265.00	3264.25	3263.75	3263.00	3262.00	3261.00	3260.25	3259.50	3259.00	3258.75	3258.00	3257.00	3256.50	3256.00	3255.50
3355.00	3354.75	3354.00	3353.25	3352.75	3352.00	3351.00	3350.00	3349.50	3349.00	3348.00	3348.00	3347.00	3346.00	3345.75	3345.00	3344.50	3344.00	3343.50	3343.00	3343.00	3343.00	3343.00	3343.00	3343.00	3342.00	3342.00	3342.00	3342.00	3342.00	3342.00	3342.00	3342.00	3342.00	3342.00	3342.00	3342.00	3342.00	3342.00	3341.25	3341.00	3341.00	3341.00	3341.00	3341.00	3340.75	3340.00	3340.00	3340.00	3340.00	3340.00	3339.25	3339.00	3339.00	3338.50	3338.00	3337.75	3337.00	3336.75	3336.00	3335.25	3334.25	3333.50	3332.50	3332.00	3331.50	3331.00	3330.00	3329.00	3328.25	3327.25	3327.00	3326.50	3326.00	3326.00	3325.25	3325.00	3324.25	3324.00	3324.00	3324.00	3323.50	3323.00	3323.00	3323.00	3323.00	3323.00	3323.00	3324.00	3324.00	3324.00	3324.00	3324.00	3324.00	3324.00	3324.00	3324.00	3324.00	3324.00	3324.00	3324.00	3324.00	3324.00	3324.00	3324.00	3324.00	3323.25	3323.00	3323.00	3323.00	3322.25	3322.00	3322.00	3321.75	3321.00	3321.00	3321.00	3320.25	3320.00	3320.00	3320.00	3319.25	3319.00	3319.00	3319.00	3318.00	3318.00	3317.50	3317.00	3316.75	3316.00	3315.50	3315.00	3314.25	3314.00	3313.00	3312.50	3312.00	3311.00	3310.00	3309.25	3308.75	3308.00	3307.00	3306.00	3305.25	3304.25	3303.50	3302.75	3302.00	3301.00	3300.50	3300.00	3299.25	3299.00	3298.00	3297.50	3297.00	3297.00	3296.50	3296.00	3296.00	3295.25	3295.00	3295.00	3294.25	3294.00	3294.00	3293.25	3293.00	3293.00	3292.25	3292.00	3291.25	3290.75	3290.00	3289.25	3289.00	3288.00	3287.75	3287.00	3286.25	3286.00	3285.00	3285.00	3285.00	3284.00	3284.00	3283.75	3283.00	3283.00	3283.00	3282.25	3282.00	3282.00	3282.00	3281.25	3281.00	3281.00	3280.00	3280.00	3279.25	3279.00	3279.00	3279.00	3279.00	3278.25	3278.00	3277.50	3277.00	3277.00	3276.75	3276.00	3276.00	3276.00	3276.00	3276.00	3276.00	3275.00	3275.00	3275.00	3274.00	3274.00	3273.25	3273.00	3272.00	3272.00	3271.25	3271.00	3271.00	3270.00	3270.00	3269.50	3269.00	3268.00	3267.75	3267.00	3267.00	3266.75	3266.00	3265.75	3265.00	3264.25	3263.75	3263.00	3262.00	3261.00	3260.25	3259.50	3259.00	3258.75	3258.00	3257.00	3256.50	3256.00	3255.50
3355.00	3354.38	3353.75	3353.12	3352.50	3351.75	3351.00	3350.00	3349.38	3348.88	3348.00	3347.62	3346.88	3346.00	3345.50	3345.00	3344.38	3344.00	3343.50	3343.00	3343.00	3343.00	3343.00	3343.00	3343.00	3342.50	3342.00	3342.00	3342.00	3342.00	3342.00	3342.00	3342.00	3342.00	3342.00	3342.00	3342.00	3341.50	3341.50	3341.12	3341.00	3341.00	3341.00	3340.75	3340.50	3340.38	3340.00	3340.00	3340.00	3339.50	3339.50	3339.12	3338.75	3338.50	3338.00	3337.50	3337.12	3336.50	3336.00	3335.50	3335.12	3334.12	3333.25	3332.38	3331.75	3331.25	3330.62	3329.88	3329.00	3328.25	3327.50	3327.00	3326.50	3326.00	3325.88	3325.12	3325.00	3324.25	3324.00	3324.00	3323.50	3323.25	3323.00	3323.00	3323.00	3323.00	3323.00	3323.00	3323.50	3323.50	3323.50	3323.50	3323.62	3324.00	3324.00	3324.00	3324.00	3323.88	3323.50	3323.50	3323.50	3323.50	3323.50	3323.50	3323.50	3323.50	3323.12	3323.00	3323.00	3323.00	3322.62	3322.00	3322.00	3321.88	3321.50	3321.50	3321.50	3320.75	3320.50	3320.25	3320.00	3319.62	3319.00	3319.00	3319.00	3318.12	3318.00	3317.50	3317.00	3316.50	3316.00	3315.25	3314.88	3314.12	3313.75	3312.75	3312.12	3311.50	3310.50	3309.75	3309.00	3308.38	3307.50	3306.62	3305.62	3304.75	3303.75	3303.12	3302.38	3301.62	3301.00	3300.25	3299.62	3299.12	3298.62	3297.88	3297.25	3296.88	3296.50	3296.25	3295.62	3295.50	3295.12	3294.62	3294.50	3294.12	3293.75	3293.50	3293.12	3292.75	3292.50	3291.75	3291.50	3290.75	3290.38	3289.75	3289.12	3288.75	3288.00	3287.38	3286.88	3286.12	3285.75	3285.00	3285.00	3284.50	3284.00	3283.62	3283.38	3283.00	3282.50	3282.50	3282.12	3282.00	3282.00	3281.62	3281.00	3280.50	3280.50	3279.50	3279.50	3278.88	3278.50	3278.50	3278.38	3278.00	3277.62	3277.12	3276.75	3276.50	3276.50	3276.38	3275.62	3275.50	3275.50	3275.50	3275.38	3275.00	3274.50	3274.50	3274.50	3273.75	3273.50	3272.75	3272.50	3271.50	3271.50	3271.12	3270.62	3270.50	3269.88	3269.50	3269.25	3268.50	3268.00	3267.38	3267.00	3266.50	3266.38	3266.00	3265.38	3264.75	3264.12	3263.50	3262.75	3261.75	3260.88	3260.12	3259.38	3258.88	3258.38	3257.62	3257.00	3256.38	3255.88	3255.25
3355.00	3354.00	3353.50	3353.00	3352.25	3351.50	3351.00	3350.00	3349.25	3348.75	3348.00	3347.25	3346.75	3346.00	3345.25	3345.00	3344.25	3344.00	3343.50	3343.00	3343.00	3343.00	3343.00	3343.00	3343.00	3343.00	3342.00	3342.00	3342.00	3342.00	3342.00	3342.00	3342.00	3342.00	3342.00	3342.00	3342.00	3341.00	3341.00	3341.00	3341.00	3341.00	3341.00	3340.50	3340.00	3340.00	3340.00	3340.00	3340.00	3339.00	3339.00	3339.00	3338.50	3338.00	3337.50	3337.00	3336.50	3336.00	3335.25	3335.00	3335.00	3334.00	3333.00	3332.25	3331.50	3331.00	3330.25	3329.75	3329.00	3328.25	3327.75	3327.00	3326.50	3326.00	3325.75	3325.00	3325.00	3324.25	3324.00	3324.00	3323.00	3323.00	3323.00	3323.00	3323.00	3323.00	3323.00	3323.00	3323.00	3323.00	3323.00	3323.00	3323.25	3324.00	3324.00	3324.00	3324.00	3323.75	3323.00	3323.00	3323.00	3323.00	3323.00	3323.00	3323.00	3323.00	3323.00	3323.00	3323.00	3323.00	3323.00	3322.00	3322.00	3322.00	3322.00	3322.00	3322.00	3321.25	3321.00	3320.50	3320.00	3320.00	3319.00	3319.00	3319.00	3318.25	3318.00	3317.50	3317.00	3316.25	3316.00	3315.00	3314.75	3314.00	3313.50	3312.50	3311.75	3311.00	3310.00	3309.50	3308.75	3308.00	3307.00	3306.25	3305.25	3304.25	3303.25	3302.75	3302.00	3301.25	3301.00	3300.00	3299.25	3299.00	3298.25	3297.75	3297.00	3296.75	3296.00	3296.00	3295.25	3295.00	3295.00	3294.25	3294.00	3294.00	3293.50	3293.00	3293.00	3292.50	3292.00	3291.25	3291.00	3290.25	3290.00	3289.50	3289.00	3288.50	3288.00	3287.00	3286.75	3286.00	3285.50	3285.00	3285.00	3284.00	3284.00	3283.25	3283.00	3283.00	3282.00	3282.00	3282.00	3282.00	3282.00	3281.25	3280.75	3280.00	3280.00	3279.00	3279.00	3278.50	3278.00	3278.00	3277.75	3277.00	3277.00	3276.25	3276.00	3276.00	3276.00	3276.00	3275.25	3275.00	3275.00	3275.00	3274.75	3274.00	3274.00	3274.00	3274.00	3273.50	3273.00	3272.25	3272.00	3271.00	3271.00	3271.00	3270.25	3270.00	3269.75	3269.00	3269.00	3268.00	3268.00	3267.00	3267.00	3266.00	3266.00	3266.00	3265.00	3264.50	3264.00	3263.25	3262.50	3261.50	3260.75	3260.00	3259.25	3258.75	3258.00	3257.25	3257.00	3256.25	3255.75	3255.00
3355.00	3354.00	3353.50	3353.00	3352.25	3351.50	3351.00	3350.00	3349.25	3348.75	3348.00	3347.25	3346.75	3346.00	3345.25	3345.00	3344.25	3344.00	3343.50	3343.00	3343.00	3343.00	3343.00	3343.00	3343.00	3343.00	3342.00	3342.00	3342.00	3342.00	3342.00	3342.00	3342.00	3342.00	3342.00	3342.00	3342.00	3341.00	3341.00	3341.00	3341.00	3341.00	3341.00	3340.50	3340.00	3340.00	3340.00	3340.00	3340.00	3339.00	3339.00	3339.00	3338.50	3338.00	3337.50	3337.00	3336.50	3336.00	3335.25	3335.00	3335.00	3334.00	3333.00	3332.25	3331.50	3331.00	3330.25	3329.75	3329.00	3328.25	3327.75	3327.00	3326.50	3326.00	3325.75	3325.00	3325.00	3324.25	3324.00	3324.00	3323.00	3323.00	3323.00	3323.00	3323.00	3323.00	3323.00	3323.00	3323.00	3323.00	3323.00	3323.00	3323.25	3324.00	3324.00	3324.00	3324.00	3323.75	3323.00	3323.00	3323.00	3323.00	3323.00	3323.00	3323.00	3323.00	3323.00	3323.00	3323.00	3323.00	3323.00	3322.00	3322.00	3322.00	3322.00	3322.00	3322.00	3321.25	3321.00	3320.50	3320.00	3320.00	3319.00	3319.00	3319.00	3318.25	3318.00	3317.50	3317.00	3316.25	3316.00	3315.00	3314.75	3314.00	3313.50	3312.50	3311.75	3311.00	3310.00	3309.50	3308.75	3308.00	3307.00	3306.25	3305.25	3304.25	3303.25	3302.75	3302.00	3301.25	3301.00	3300.00	3299.25	3299.00	3298.25	3297.75	3297.00	3296.75	3296.00	3296.00	3295.25	3295.00	3295.00	3294.25	3294.00	3294.00	3293.50	3293.00	3293.00	3292.50	3292.00	3291.25	3291.00	3290.25	3290.00	3289.50	3289.00	3288.50	3288.00	3287.00	3286.75	3286.00	3285.50	3285.00	3285.00	3284.00	3284.00	3283.25	3283.00	3283.00	3282.00	3282.00	3282.00	3282.00	3282.00	3281.25	3280.75	3280.00	3280.00	3279.00	3279.00	3278.50	3278.00	3278.00	3277.75	3277.00	3277.00	3276.25	3276.00	3276.00	3276.00	3276.00	3275.25	3275.00	3275.00	3275.00	3274.75	3274.00	3274.00	3274.00	3274.00	3273.50	3273.00	3272.25	3272.00	3271.00	3271.00	3271.00	3270.25	3270.00	3269.75	3269.00	3269.00	3268.00	3268.00	3267.00	3267.00	3266.00	3266.00	3266.00	3265.00	3264.50	3264.00	3263.25	3262.50	3261.50	3260.75	3260.00	3259.25	3258.75	3258.00	3257.25	3257.00	3256.25	3255.75	3255.00
3354.94	3353.94	3353.38	3352.81	3352.19	3351.44	3350.94	3350.00	3349.25	3348.81	3348.00	3347.25	3346.62	3346.00	3345.25	3344.94	3344.19	3344.00	3343.56	3343.00	3343.00	3343.00	3343.00	3343.00	3343.00	3343.00	3342.25	3342.25	3342.25	3342.25	3342.00	3342.00	3342.00	3342.00	3342.00	3342.00	3342.00	3341.12	3341.00	3341.00	3341.00	3340.75	3340.75	3340.38	3339.88	3339.75	3339.75	3339.75	3339.75	3339.00	3338.81	3338.75	3338.19	3337.75	3337.19	3336.75	3336.25	3335.75	3335.12	3334.75	3334.56	3333.75	3332.75	3332.06	3331.38	3330.88	3330.19	3329.56	3328.88	3328.19	3327.62	3327.00	3326.38	3326.00	3325.75	3325.00	3325.00	3324.25	3324.00	3323.81	3323.00	3323.00	3323.00	3323.00	3323.00	3323.00	3323.00	3323.00	3323.00	3323.00	3323.00	3323.00	3323.19	3323.75	3323.75	3323.75	3323.75	3323.56	3323.00	3323.00	3323.00	3323.00	3323.00	3323.00	3323.00	3323.00	3323.00	3323.00	3323.00	3323.00	3323.00	3322.19	3322.00	3322.00	3322.00	3322.00	3322.00	3321.44	3321.06	3320.62	3320.00	3320.00	3319.19	3319.00	3319.00	3318.25	3318.00	3317.38	3316.94	3316.19	3315.81	3315.00	3314.56	3313.94	3313.38	3312.44	3311.75	3311.00	3309.94	3309.31	3308.56	3307.75	3306.75	3306.00	3305.00	3304.06	3303.19	3302.56	3301.81	3301.00	3300.62	3299.75	3299.12	3298.75	3298.19	3297.56	3296.88	3296.56	3295.88	3295.75	3295.19	3294.88	3294.75	3294.19	3293.88	3293.75	3293.38	3292.88	3292.75	3292.38	3291.75	3291.12	3290.75	3290.06	3289.75	3289.25	3288.75	3288.12	3287.75	3286.81	3286.56	3286.00	3285.44	3285.00	3285.00	3284.00	3284.00	3283.25	3283.00	3282.88	3282.00	3281.81	3281.75	3281.75	3281.50	3280.94	3280.50	3279.75	3279.75	3278.75	3278.75	3278.19	3277.75	3277.69	3277.31	3276.75	3276.56	3275.94	3275.75	3275.75	3275.69	3275.50	3274.94	3274.75	3274.75	3274.69	3274.31	3273.75	3273.50	3273.50	3273.50	3273.12	3272.69	3271.94	3271.75	3270.75	3270.75	3270.56	3269.94	3269.75	3269.31	3268.75	3268.62	3267.75	3267.75	3266.75	3266.75	3266.00	3265.75	3265.75	3265.00	3264.38	3263.81	3263.12	3262.25	3261.38	3260.56	3259.88	3259.19	3258.69	3257.94	3257.19	3256.88	3256.19	3255.81	3255.06
3354.75	3353.75	3353.00	3352.25	3352.00	3351.25	3350.75	3350.00	3349.25	3349.00	3348.00	3347.25	3346.25	3346.00	3345.25	3344.75	3344.00	3344.00	3343.75	3343.00	3343.00	3343.00	3343.00	3343.00	3343.00	3343.00	3343.00	3343.00	3343.00	3343.00	3342.00	3342.00	3342.00	3342.00	3342.00	3342.00	3342.00	3341.50	3341.00	3341.00	3341.00	3340.00	3340.00	3340.00	3339.50	3339.00	3339.00	3339.00	3339.00	3339.00	3338.25	3338.00	3337.25	3337.00	3336.25	3336.00	3335.50	3335.00	3334.75	3334.00	3333.25	3333.00	3332.00	3331.50	3331.00	3330.50	3330.00	3329.00	3328.50	3328.00	3327.25	3327.00	3326.00	3326.00	3325.75	3325.00	3325.00	3324.25	3324.00	3323.25	3323.00	3323.00	3323.00	3323.00	3323.00	3323.00	3323.00	3323.00	3323.00	3323.00	3323.00	3323.00	3323.00	3323.00	3323.00	3323.00	3323.00	3323.00	3323.00	3323.00	3323.00	3323.00	3323.00	3323.00	3323.00	3323.00	3323.00	3323.00	3323.00	3323.00	3323.00	3322.75	3322.00	3322.00	3322.00	3322.00	3322.00	3322.00	3321.25	3321.00	3320.00	3320.00	3319.75	3319.00	3319.00	3318.25	3318.00	3317.00	3316.75	3316.00	3315.25	3315.00	3314.00	3313.75	3313.00	3312.25	3311.75	3311.00	3309.75	3308.75	3308.00	3307.00	3306.00	3305.25	3304.25	3303.50	3303.00	3302.00	3301.25	3300.25	3299.50	3299.00	3298.75	3298.00	3298.00	3297.00	3296.50	3296.00	3295.50	3295.00	3295.00	3294.50	3294.00	3294.00	3293.50	3293.00	3293.00	3292.50	3292.00	3292.00	3291.00	3290.75	3290.00	3289.50	3289.00	3288.50	3288.00	3287.00	3287.00	3286.25	3286.00	3286.00	3285.25	3285.00	3285.00	3284.00	3284.00	3283.25	3283.00	3282.50	3282.00	3281.25	3281.00	3281.00	3280.00	3280.00	3279.75	3279.00	3279.00	3278.00	3278.00	3277.25	3277.00	3276.75	3276.00	3276.00	3275.25	3275.00	3275.00	3275.00	3274.75	3274.00	3274.00	3274.00	3274.00	3273.75	3273.00	3273.00	3272.00	3272.00	3272.00	3272.00	3271.75	3271.00	3271.00	3270.00	3270.00	3269.25	3269.00	3269.00	3268.00	3268.00	3267.50	3267.00	3267.00	3266.00	3266.00	3266.00	3265.00	3265.00	3265.00	3264.00	3263.25	3262.75	3261.50	3261.00	3260.00	3259.50	3259.00	3258.50	3257.75	3257.00	3256.50	3256.00	3256.00	3255.25
3354.75	3353.75	3353.00	3352.25	3352.00	3351.25	3350.75	3350.00	3349.25	3349.00	3348.00	3347.25	3346.25	3346.00	3345.25	3344.75	3344.00	3344.00	3343.75	3343.00	3343.00	3343.00	3343.00	3343.00	3343.00	3343.00	3343.00	3343.00	3343.00	3343.00	3342.00	3342.00	3342.00	3342.00	3342.00	3342.00	3342.00	3341.50	3341.00	3341.00	3341.00	3340.00	3340.00	3340.00	3339.50	3339.00	3339.00	3339.00	3339.00	3339.00	3338.25	3338.00	3337.25	3337.00	3336.25	3336.00	3335.50	3335.00	3334.75	3334.00	3333.25	3333.00	3332.00	3331.50	3331.00	3330.50	3330.00	3329.00	3328.50	3328.00	3327.25	3327.00	3326.00	3326.00	3325.75	3325.00	3325.00	3324.25	3324.00	3323.25	3323.00	3323.00	3323.00	3323.00	3323.00	3323.00	3323.00	3323.00	3323.00	3323.00	3323.00	3323.00	3323.00	3323.00	3323.00	3323.00	3323.00	3323.00	3323.00	3323.00	3323.00	3323.00	3323.00	3323.00	3323.00	3323.00	3323.00	3323.00	3323.00	3323.00	3323.00	3322.75	3322.00	3322.00	3322.00	3322.00	3322.00	3322.00	3321.25	3321.00	3320.00	3320.00	3319.75	3319.00	3319.00	3318.25	3318.00	3317.00	3316.75	3316.00	3315.25	3315.00	3314.00	3313.75	3313.00	3312.25	3311.75	3311.00	3309.75	3308.75	3308.00	3307.00	3306.00	3305.25	3304.25	3303.50	3303.00	3302.00	3301.25	3300.25	3299.50	3299.00	3298.75	3298.00	3298.00	3297.00	3296.50	3296.00	3295.50	3295.00	3295.00	3294.50	3294.00	3294.00	3293.50	3293.00	3293.00	3292.50	3292.00	3292.00	3291.00	3290.75	3290.00	3289.50	3289.00	3288.50	3288.00	3287.00	3287.00	3286.25	3286.00	3286.00	3285.25	3285.00	3285.00	3284.00	3284.00	3283.25	3283.00	3282.50	3282.00	3281.25	3281.00	3281.00	3280.00	3280.00	3279.75	3279.00	3279.00	3278.00	3278.00	3277.25	3277.00	3276.75	3276.00	3276.00	3275.25	3275.00	3275.00	3275.00	3274.75	3274.00	3274.00	3274.00	3274.00	3273.75	3273.00	3273.00	3272.00	3272.00	3272.00	3272.00	3271.75	3271.00	3271.00	3270.00	3270.00	3269.25	3269.00	3269.00	3268.00	3268.00	3267.50	3267.00	3267.00	3266.00	3266.00	3266.00	3265.00	3265.00	3265.00	3264.00	3263.25	3262.75	3261.50	3261.00	3260.00	3259.50	3259.00	3258.50	3257.75	3257.00	3256.50	3256.00	3256.00	3255.25
3354.62	3353.69	3352.88	3352.19	3351.75	3351.19	3350.56	3349.88	3349.19	3348.88	3347.94	3347.19	3346.25	3346.00	3345.25	3344.81	3344.12	3344.00	3343.81	3343.25	3343.25	3343.25	3343.19	3343.00	3343.00	3343.00	3343.00	3343.00	3343.00	3343.00	3342.12	3342.00	3342.00	3342.00	3342.00	3341.94	3341.75	3341.38	3341.00	3341.00	3341.00	3340.12	3340.00	3340.00	3339.62	3339.00	3339.00	3339.00	3338.75	3338.75	3338.00	3337.75	3337.00	3336.75	3336.06	3335.75	3335.38	3334.88	3334.56	3333.81	3333.19	3332.81	3331.94	3331.38	3330.88	3330.38	3329.81	3328.94	3328.38	3327.94	3327.19	3327.00	3326.00	3326.00	3325.62	3325.00	3324.75	3324.19	3323.94	3323.19	3323.00	3323.00	3323.00	3323.00	3323.00	3323.00	3323.00	3322.88	3322.75	3322.94	3323.00	3323.00	3323.00	3323.00	3323.00	3323.00	3323.00	3323.00	3323.00	3323.00	3323.00	3323.00	3323.06	3323.25	3323.00	3323.00	3323.00	3323.00	3323.00	3323.00	3323.00	3322.81	3322.12	3322.00	3322.00	3322.00	3322.00	3321.94	3321.19	3321.00	3320.12	3320.00	3319.75	3319.00	3318.94	3318.19	3317.81	3317.00	3316.56	3315.94	3315.19	3314.75	3314.00	3313.56	3312.81	3312.00	3311.44	3310.62	3309.50	3308.50	3307.75	3306.75	3305.75	3304.94	3303.94	3303.25	3302.75	3301.75	3301.12	3300.12	3299.38	3298.75	3298.50	3297.75	3297.62	3296.75	3296.25	3295.75	3295.38	3294.88	3294.75	3294.38	3293.88	3293.75	3293.38	3292.88	3292.75	3292.38	3291.81	3291.75	3291.00	3290.56	3289.81	3289.38	3288.88	3288.31	3287.75	3286.94	3286.75	3286.19	3285.81	3285.75	3285.19	3284.88	3284.75	3284.00	3283.75	3283.19	3283.00	3282.38	3282.00	3281.19	3280.88	3280.75	3280.00	3279.81	3279.56	3278.88	3278.75	3277.75	3277.75	3276.94	3276.69	3276.31	3275.75	3275.50	3274.94	3274.75	3274.75	3274.62	3274.31	3273.75	3273.75	3273.62	3273.50	3273.31	3272.69	3272.50	3271.75	3271.56	3271.50	3271.50	3271.31	3270.75	3270.50	3269.75	3269.56	3268.94	3268.75	3268.50	3267.75	3267.69	3267.12	3266.75	3266.75	3266.00	3265.81	3265.75	3265.00	3264.81	3264.75	3264.00	3263.25	3262.62	3261.50	3260.88	3260.00	3259.44	3259.00	3258.38	3257.75	3257.00	3256.62	3256.00	3256.00	3255.31
3354.25	3353.50	3352.50	3352.00	3351.00	3351.00	3350.00	3349.50	3349.00	3348.50	3347.75	3347.00	3346.25	3346.00	3345.25	3345.00	3344.50	3344.00	3344.00	3344.00	3344.00	3344.00	3343.75	3343.00	3343.00	3343.00	3343.00	3343.00	3343.00	3343.00	3342.50	3342.00	3342.00	3342.00	3342.00	3341.75	3341.00	3341.00	3341.00	3341.00	3341.00	3340.50	3340.00	3340.00	3340.00	3339.00	3339.00	3339.00	3338.00	3338.00	3337.25	3337.00	3336.25	3336.00	3335.50	3335.00	3335.00	3334.50	3334.00	3333.25	3333.00	3332.25	3331.75	3331.00	3330.50	3330.00	3329.25	3328.75	3328.00	3327.75	3327.00	3327.00	3326.00	3326.00	3325.25	3325.00	3324.00	3324.00	3323.75	3323.00	3323.00	3323.00	3323.00	3323.00	3323.00	3323.00	3323.00	3322.50	3322.00	3322.75	3323.00	3323.00	3323.00	3323.00	3323.00	3323.00	3323.00	3323.00	3323.00	3323.00	3323.00	3323.00	3323.25	3324.00	3323.00	3323.00	3323.00	3323.00	3323.00	3323.00	3323.00	3323.00	3322.50	3322.00	3322.00	3322.00	3322.00	3321.75	3321.00	3321.00	3320.50	3320.00	3319.75	3319.00	3318.75	3318.00	3317.25	3317.00	3316.00	3315.75	3315.00	3314.00	3314.00	3313.00	3312.25	3311.25	3310.50	3309.50	3308.75	3307.75	3307.00	3306.00	3305.00	3304.00	3303.00	3302.50	3302.00	3301.00	3300.75	3299.75	3299.00	3298.00	3297.75	3297.00	3296.50	3296.00	3295.50	3295.00	3295.00	3294.50	3294.00	3294.00	3293.50	3293.00	3293.00	3292.50	3292.00	3292.00	3291.25	3291.00	3291.00	3290.00	3289.25	3289.00	3288.50	3287.75	3287.00	3286.75	3286.00	3286.00	3285.25	3285.00	3285.00	3284.50	3284.00	3284.00	3283.00	3283.00	3283.00	3282.00	3282.00	3281.00	3280.50	3280.00	3280.00	3279.25	3279.00	3278.50	3278.00	3277.00	3277.00	3276.00	3275.75	3275.00	3275.00	3274.00	3274.00	3274.00	3274.00	3273.50	3273.00	3273.00	3273.00	3272.50	3272.00	3272.00	3271.75	3271.00	3271.00	3270.25	3270.00	3270.00	3270.00	3270.00	3269.00	3269.00	3268.25	3268.00	3268.00	3267.00	3267.00	3266.75	3266.00	3266.00	3266.00	3266.00	3265.25	3265.00	3265.00	3264.25	3264.00	3264.00	3263.25	3262.25	3261.50	3260.50	3260.00	3259.25	3259.00	3258.00	3257.75	3257.00	3257.00	3256.00	3256.00	3255.50
3354.25	3353.50	3352.50	3352.00	3351.00	3351.00	3350.00	3349.50	3349.00	3348.50	3347.75	3347.00	3346.25	3346.00	3345.25	3345.00	3344.50	3344.00	3344.00	3344.00	3344.00	3344.00	3343.75	3343.00	3343.00	3343.00	3343.00	3343.00	3343.00	3343.00	3342.50	3342.00	3342.00	3342.00	3342.00	3341.75	3341.00	3341.00	3341.00	3341.00	3341.00	3340.50	3340.00	3340.00	3340.00	3339.00	3339.00	3339.00	3338.00	3338.00	3337.25	3337.00	3336.25	3336.00	3335.50	3335.00	3335.00	3334.50	3334.00	3333.25	3333.00	3332.25	3331.75	3331.00	3330.50	3330.00	3329.25	3328.75	3328.00	3327.75	3327.00	3327.00	3326.00	3326.00	3325.25	3325.00	3324.00	3324.00	3323.75	3323.00	3323.00	3323.00	3323.00	3323.00	3323.00	3323.00	3323.00	3322.50	3322.00	3322.75	3323.00	3323.00	3323.00	3323.00	3323.00	3323.00	3323.00	3323.00	3323.00	3323.00	3323.00	3323.00	3323.25	3324.00	3323.00	3323.00	3323.00	3323.00	3323.00	3323.00	3323.00	3323.00	3322.50	3322.00	3322.00	3322.00	3322.00	3321.75	3321.00	3321.00	3320.50	3320.00	3319.75	3319.00	3318.75	3318.00	3317.25	3317.00	3316.00	3315.75	3315.00	3314.00	3314.00	3313.00	3312.25	3311.25	3310.50	3309.50	3308.75	3307.75	3307.00	3306.00	3305.00	3304.00	3303.00	3302.50	3302.00	3301.00	3300.75	3299.75	3299.00	3298.00	3297.75	3297.00	3296.50	3296.00	3295.50	3295.00	3295.00	3294.50	3294.00	3294.00	3293.50	3293.00	3293.00	3292.50	3292.00	3292.00	3291.25	3291.00	3291.00	3290.00	3289.25	3289.00	3288.50	3287.75	3287.00	3286.75	3286.00	3286.00	3285.25	3285.00	3285.00	3284.50	3284.00	3284.00	3283.00	3283.00	3283.00	3282.00	3282.00	3281.00	3280.50	3280.00	3280.00	3279.25	3279.00	3278.50	3278.00	3277.00	3277.00	3276.00	3275.75	3275.00	3275.00	3274.00	3274.00	3274.00	3274.00	3273.50	3273.00	3273.00	3273.00	3272.50	3272.00	3272.00	3271.75	3271.00	3271.00	3270.25	3270.00	3270.00	3270.00	3270.00	3269.00	3269.00	3268.25	3268.00	3268.00	3267.00	3267.00	3266.75	3266.00	3266.00	3266.00	3266.00	3265.25	3265.00	3265.00	3264.25	3264.00	3264.00	3263.25	3262.25	3261.50	3260.50	3260.00	3259.25	3259.00	3258.00	3257.75	3257.00	3257.00	3256.00	3256.00	3255.50
3354.25	3353.50	3352.50	3352.00	3351.00	3351.00	3350.00	3349.50	3349.00	3348.50	3347.75	3347.00	3346.25	3346.00	3345.25	3345.00	3344.50	3344.00	3344.00	3344.00	3344.00	3344.00	3343.75	3343.00	3343.00	3343.00	3343.00	3343.00	3343.00	3343.00	3342.50	3342.00	3342.00	3342.00	3342.00	3341.75	3341.00	3341.00	3341.00	3341.00	3341.00	3340.50	3340.00	3340.00	3340.00	3339.00	3339.00	3339.00	3338.00	3338.00	3337.25	3337.00	3336.25	3336.00	3335.50	3335.00	3335.00	3334.50	3334.00	3333.25	3333.00	3332.25	3331.75	3331.00	3330.50	3330.00	3329.25	3328.75	3328.00	3327.75	3327.00	3327.00	3326.00	3326.00	3325.25	3325.00	3324.00	3324.00	3323.75	3323.00	3323.00	3323.00	3323.00	3323.00	3323.00	3323.00	3323.00	3322.50	3322.00	3322.75	3323.00	3323.00	3323.00	3323.00	3323.00	3323.00	3323.00	3323.00	3323.00	3323.00	3323.00	3323.00	3323.25	3324.00	3323.00	3323.00	3323.00	3323.00	3323.00	3323.00	3323.00	3323.00	3322.50	3322.00	3322.00	3322.00	3322.00	3321.75	3321.00	3321.00	3320.50	3320.00	3319.75	3319.00	3318.75	3318.00	3317.25	3317.00	3316.00	3315.75	3315.00	3314.00	3314.00	3313.00	3312.25	3311.25	3310.50	3309.50	3308.75	3307.75	3307.00	3306.00	3305.00	3304.00	3303.00	3302.50	3302.00	3301.00	3300.75	3299.75	3299.00	3298.00	3297.75	3297.00	3296.50	3296.00	3295.50	3295.00	3295.00	3294.50	3294.00	3294.00	3293.50	3293.00	3293.00	3292.50	3292.00	3292.00	3291.25	3291.00	3291.00	3290.00	3289.25	3289.00	3288.50	3287.75	3287.00	3286.75	3286.00	3286.00	3285.25	3285.00	3285.00	3284.50	3284.00	3284.00	3283.00	3283.00	3283.00	3282.00	3282.00	3281.00	3280.50	3280.00	3280.00	3279.25	3279.00	3278.50	3278.00	3277.00	3277.00	3276.00	3275.75	3275.00	3275.00	3274.00	3274.00	3274.00	3274.00	3273.50	3273.00	3273.00	3273.00	3272.50	3272.00	3272.00	3271.75	3271.00	3271.00	3270.25	3270.00	3270.00	3270.00	3270.00	3269.00	3269.00	3268.25	3268.00	3268.00	3267.00	3267.00	3266.75	3266.00	3266.00	3266.00	3266.00	3265.25	3265.00	3265.00	3264.25	3264.00	3264.00	3263.25	3262.25	3261.50	3260.50	3260.00	3259.25	3259.00	3258.00	3257.75	3257.00	3257.00	3256.00	3256.00	3255.50
3353.88	3352.94	3352.12	3351.44	3350.81	3350.25	3349.81	3349.12	3348.44	3348.12	3347.19	3346.81	3346.06	3345.62	3345.06	3345.00	3344.50	3344.00	3344.00	3344.00	3344.00	3344.00	3343.94	3343.56	3343.00	3343.00	3343.00	3343.00	3343.00	3343.00	3342.88	3342.19	3342.00	3342.00	3342.00	3341.38	3341.00	3341.00	3341.00	3340.81	3340.25	3340.12	3340.00	3339.44	3339.25	3339.00	3338.44	3338.25	3337.62	3337.25	3336.50	3336.25	3335.50	3335.25	3334.56	3334.25	3333.88	3333.38	3333.25	3332.31	3332.25	3331.50	3331.19	3330.62	3330.12	3329.62	3329.06	3328.19	3328.00	3327.38	3327.00	3326.62	3326.00	3325.81	3325.06	3325.00	3324.00	3324.00	3323.94	3323.38	3323.00	3323.00	3323.00	3323.00	3323.00	3323.00	3323.00	3322.88	3322.75	3322.94	3323.00	3323.00	3323.00	3323.00	3323.00	3323.00	3323.00	3323.00	3323.00	3323.00	3323.00	3323.56	3323.81	3324.00	3323.75	3323.56	3323.00	3323.00	3323.00	3323.00	3323.00	3323.00	3322.69	3322.00	3322.00	3322.00	3321.25	3321.19	3321.00	3320.25	3320.12	3319.81	3319.19	3319.00	3318.19	3317.44	3317.06	3316.25	3315.81	3315.19	3314.44	3314.00	3313.25	3312.25	3311.69	3310.50	3309.75	3308.75	3308.00	3307.00	3306.06	3305.06	3304.25	3303.25	3302.25	3301.56	3300.88	3300.25	3299.62	3298.62	3298.25	3297.25	3296.62	3296.25	3295.75	3295.25	3295.12	3294.44	3294.25	3293.75	3293.25	3293.25	3292.56	3292.25	3291.88	3291.38	3291.25	3290.50	3290.31	3289.88	3289.50	3289.25	3288.50	3288.25	3288.12	3287.56	3287.00	3286.19	3285.62	3285.25	3285.06	3284.62	3284.25	3284.12	3283.44	3283.25	3283.00	3282.44	3282.25	3281.62	3281.25	3280.25	3279.75	3279.25	3278.50	3278.31	3277.69	3277.38	3276.88	3276.25	3276.25	3275.44	3275.00	3274.25	3273.69	3273.25	3273.25	3272.69	3272.50	3272.38	3272.25	3272.25	3272.25	3271.75	3271.25	3271.06	3270.44	3270.25	3269.50	3269.31	3268.88	3268.50	3268.50	3268.50	3268.25	3267.50	3267.31	3267.06	3266.50	3266.25	3266.25	3265.62	3265.25	3265.25	3265.25	3265.25	3265.06	3264.44	3264.25	3264.06	3263.81	3263.25	3263.06	3262.25	3261.50	3260.88	3260.00	3259.81	3259.00	3258.56	3257.94	3257.56	3257.00	3256.38	3256.00	3255.88
3353.75	3352.75	3352.00	3351.25	3350.75	3350.00	3349.75	3349.00	3348.25	3348.00	3347.00	3346.75	3346.00	3345.50	3345.00	3345.00	3344.50	3344.00	3344.00	3344.00	3344.00	3344.00	3344.00	3343.75	3343.00	3343.00	3343.00	3343.00	3343.00	3343.00	3343.00	3342.25	3342.00	3342.00	3342.00	3341.25	3341.00	3341.00	3341.00	3340.75	3340.00	3340.00	3340.00	3339.25	3339.00	3339.00	3338.25	3338.00	3337.50	3337.00	3336.25	3336.00	3335.25	3335.00	3334.25	3334.00	3333.50	3333.00	3333.00	3332.00	3332.00	3331.25	3331.00	3330.50	3330.00	3329.50	3329.00	3328.00	3328.00	3327.25	3327.00	3326.50	3326.00	3325.75	3325.00	3325.00	3324.00	3324.00	3324.00	3323.50	3323.00	3323.00	3323.00	3323.00	3323.00	3323.00	3323.00	3323.00	3323.00	3323.00	3323.00	3323.00	3323.00	3323.00	3323.00	3323.00	3323.00	3323.00	3323.00	3323.00	3323.00	3323.75	3324.00	3324.00	3324.00	3323.75	3323.00	3323.00	3323.00	3323.00	3323.00	3323.00	3322.75	3322.00	3322.00	3322.00	3321.00	3321.00	3321.00	3320.00	3320.00	3319.75	3319.00	3319.00	3318.00	3317.25	3317.00	3316.00	3315.75	3315.00	3314.25	3314.00	3313.00	3312.00	3311.50	3310.25	3309.50	3308.50	3307.75	3306.75	3305.75	3304.75	3304.00	3303.00	3302.00	3301.25	3300.50	3300.00	3299.25	3298.25	3298.00	3297.00	3296.25	3296.00	3295.50	3295.00	3295.00	3294.25	3294.00	3293.50	3293.00	3293.00	3292.25	3292.00	3291.50	3291.00	3291.00	3290.00	3290.00	3289.50	3289.00	3289.00	3288.25	3288.00	3288.00	3287.50	3287.00	3286.00	3285.50	3285.00	3285.00	3284.50	3284.00	3284.00	3283.25	3283.00	3283.00	3282.25	3282.00	3281.50	3281.00	3280.00	3279.50	3279.00	3278.00	3278.00	3277.25	3277.00	3276.50	3276.00	3276.00	3275.25	3274.75	3274.00	3273.25	3273.00	3273.00	3272.25	3272.00	3272.00	3272.00	3272.00	3272.00	3271.50	3271.00	3270.75	3270.00	3270.00	3269.00	3269.00	3268.50	3268.00	3268.00	3268.00	3268.00	3267.00	3267.00	3266.75	3266.00	3266.00	3266.00	3265.25	3265.00	3265.00	3265.00	3265.00	3265.00	3264.25	3264.00	3264.00	3263.75	3263.00	3263.00	3262.25	3261.50	3261.00	3260.00	3260.00	3259.00	3258.75	3258.00	3257.75	3257.00	3256.50	3256.00	3256.00
3353.75	3352.75	3352.00	3351.25	3350.75	3350.00	3349.75	3349.00	3348.25	3348.00	3347.00	3346.75	3346.00	3345.50	3345.00	3345.00	3344.50	3344.00	3344.00	3344.00	3344.00	3344.00	3344.00	3343.75	3343.00	3343.00	3343.00	3343.00	3343.00	3343.00	3343.00	3342.25	3342.00	3342.00	3342.00	3341.25	3341.00	3341.00	3341.00	3340.75	3340.00	3340.00	3340.00	3339.25	3339.00	3339.00	3338.25	3338.00	3337.50	3337.00	3336.25	3336.00	3335.25	3335.00	3334.25	3334.00	3333.50	3333.00	3333.00	3332.00	3332.00	3331.25	3331.00	3330.50	3330.00	3329.50	3329.00	3328.00	3328.00	3327.25	3327.00	3326.50	3326.00	3325.75	3325.00	3325.00	3324.00	3324.00	3324.00	3323.50	3323.00	3323.00	3323.00	3323.00	3323.00	3323.00	3323.00	3323.00	3323.00	3323.00	3323.00	3323.00	3323.00	3323.00	3323.00	3323.00	3323.00	3323.00	3323.00	3323.00	3323.00	3323.75	3324.00	3324.00	3324.00	3323.75	3323.00	3323.00	3323.00	3323.00	3323.00	3323.00	3322.75	3322.00	3322.00	3322.00	3321.00	3321.00	3321.00	3320.00	3320.00	3319.75	3319.00	3319.00	3318.00	3317.25	3317.00	3316.00	3315.75	3315.00	3314.25	3314.00	3313.00	3312.00	3311.50	3310.25	3309.50	3308.50	3307.75	3306.75	3305.75	3304.75	3304.00	3303.00	3302.00	3301.25	3300.50	3300.00	3299.25	3298.25	3298.00	3297.00	3296.25	3296.00	3295.50	3295.00	3295.00	3294.25	3294.00	3293.50	3293.00	3293.00	3292.25	3292.00	3291.50	3291.00	3291.00	3290.00	3290.00	3289.50	3289.00	3289.00	3288.25	3288.00	3288.00	3287.50	3287.00	3286.00	3285.50	3285.00	3285.00	3284.50	3284.00	3284.00	3283.25	3283.00	3283.00	3282.25	3282.00	3281.50	3281.00	3280.00	3279.50	3279.00	3278.00	3278.00	3277.25	3277.00	3276.50	3276.00	3276.00	3275.25	3274.75	3274.00	3273.25	3273.00	3273.00	3272.25	3272.00	3272.00	3272.00	3272.00	3272.00	3271.50	3271.00	3270.75	3270.00	3270.00	3269.00	3269.00	3268.50	3268.00	3268.00	3268.00	3268.00	3267.00	3267.00	3266.75	3266.00	3266.00	3266.00	3265.25	3265.00	3265.00	3265.00	3265.00	3265.00	3264.25	3264.00	3264.00	3263.75	3263.00	3263.00	3262.25	3261.50	3261.00	3260.00	3260.00	3259.00	3258.75	3258.00	3257.75	3257.00	3256.50	3256.00	3256.00
3352.88	3352.12	3351.50	3350.62	3350.25	3349.50	3349.38	3348.50	3348.12	3347.50	3346.88	3346.38	3346.00	3345.50	3345.00	3345.00	3344.75	3344.25	3344.00	3344.00	3344.00	3344.00	3344.00	3343.88	3343.50	3343.50	3343.50	3343.50	3343.00	3343.00	3343.00	3342.62	3342.12	3342.00	3342.00	3341.38	3341.00	3341.00	3340.88	3340.38	3340.00	3339.50	3339.50	3339.00	3338.50	3338.50	3337.75	3337.38	3336.75	3336.50	3335.62	3335.50	3334.75	3334.50	3333.75	3333.50	3333.00	3332.50	3332.50	3331.62	3331.50	3330.75	3330.50	3329.88	3329.50	3329.00	3328.50	3328.00	3327.75	3327.12	3327.00	3326.38	3326.00	3325.62	3325.00	3325.00	3324.50	3324.00	3324.00	3323.75	3323.12	3323.00	3323.00	3323.00	3323.00	3323.00	3323.00	3323.00	3323.00	3323.00	3323.00	3323.00	3323.00	3323.00	3323.00	3323.00	3323.00	3323.00	3323.00	3323.25	3323.50	3323.88	3324.00	3324.00	3324.00	3323.38	3323.00	3323.00	3323.00	3323.00	3322.75	3322.50	3322.38	3321.88	3321.50	3321.50	3320.88	3320.50	3320.50	3319.50	3319.50	3319.00	3318.50	3318.25	3317.50	3316.62	3316.25	3315.50	3315.25	3314.50	3314.12	3313.50	3312.62	3311.50	3310.88	3309.75	3309.00	3308.00	3307.25	3306.12	3305.25	3304.25	3303.50	3302.50	3301.50	3300.75	3299.88	3299.50	3298.75	3298.00	3297.50	3296.75	3296.12	3295.62	3295.25	3294.50	3294.25	3293.62	3293.38	3292.75	3292.50	3292.38	3291.62	3291.50	3291.12	3290.50	3290.50	3289.75	3289.50	3289.25	3288.75	3288.50	3288.12	3287.75	3287.50	3287.25	3286.62	3286.00	3285.50	3285.00	3285.00	3284.38	3284.00	3283.50	3283.12	3282.62	3282.50	3282.00	3281.50	3280.75	3280.25	3279.50	3278.88	3278.50	3277.75	3277.50	3276.75	3276.50	3275.75	3275.50	3275.12	3274.62	3274.12	3273.50	3272.75	3272.50	3272.12	3271.62	3271.50	3271.25	3271.00	3271.00	3271.00	3270.75	3270.25	3269.88	3269.38	3269.00	3268.50	3268.50	3267.88	3267.50	3267.50	3267.50	3267.00	3266.50	3266.38	3265.88	3265.50	3265.50	3265.50	3265.12	3264.50	3264.50	3264.50	3264.50	3264.50	3264.12	3264.00	3264.00	3263.88	3263.00	3263.00	3262.12	3261.75	3261.12	3260.50	3260.12	3259.50	3258.88	3258.38	3257.88	3257.25	3256.75	3256.12	3256.00
3352.00	3351.50	3351.00	3350.00	3349.75	3349.00	3349.00	3348.00	3348.00	3347.00	3346.75	3346.00	3346.00	3345.50	3345.00	3345.00	3345.00	3344.50	3344.00	3344.00	3344.00	3344.00	3344.00	3344.00	3344.00	3344.00	3344.00	3344.00	3343.00	3343.00	3343.00	3343.00	3342.25	3342.00	3342.00	3341.50	3341.00	3341.00	3340.75	3340.00	3340.00	3339.00	3339.00	3338.75	3338.00	3338.00	3337.25	3336.75	3336.00	3336.00	3335.00	3335.00	3334.25	3334.00	3333.25	3333.00	3332.50	3332.00	3332.00	3331.25	3331.00	3330.25	3330.00	3329.25	3329.00	3328.50	3328.00	3328.00	3327.50	3327.00	3327.00	3326.25	3326.00	3325.50	3325.00	3325.00	3325.00	3324.00	3324.00	3324.00	3323.25	3323.00	3323.00	3323.00	3323.00	3323.00	3323.00	3323.00	3323.00	3323.00	3323.00	3323.00	3323.00	3323.00	3323.00	3323.00	3323.00	3323.00	3323.00	3323.50	3324.00	3324.00	3324.00	3324.00	3324.00	3323.00	3323.00	3323.00	3323.00	3323.00	3322.50	3322.00	3322.00	3321.75	3321.00	3321.00	3320.75	3320.00	3320.00	3319.00	3319.00	3318.25	3318.00	3317.50	3317.00	3316.00	3315.50	3315.00	3314.75	3314.00	3314.00	3313.00	3312.25	3311.00	3310.25	3309.25	3308.50	3307.50	3306.75	3305.50	3304.75	3303.75	3303.00	3302.00	3301.00	3300.25	3299.25	3299.00	3298.25	3297.75	3297.00	3296.50	3296.00	3295.25	3295.00	3294.00	3293.50	3293.00	3292.75	3292.00	3292.00	3291.75	3291.00	3291.00	3290.75	3290.00	3290.00	3289.50	3289.00	3289.00	3288.50	3288.00	3288.00	3287.50	3287.00	3287.00	3286.25	3286.00	3285.50	3285.00	3285.00	3284.25	3284.00	3283.00	3283.00	3282.25	3282.00	3281.75	3281.00	3280.00	3279.50	3279.00	3278.25	3278.00	3277.50	3277.00	3276.25	3276.00	3275.00	3275.00	3274.25	3274.00	3273.50	3273.00	3272.25	3272.00	3271.25	3271.00	3271.00	3270.50	3270.00	3270.00	3270.00	3270.00	3269.50	3269.00	3268.75	3268.00	3268.00	3268.00	3267.25	3267.00	3267.00	3267.00	3266.00	3266.00	3265.75	3265.00	3265.00	3265.00	3265.00	3265.00	3264.00	3264.00	3264.00	3264.00	3264.00	3264.00	3264.00	3264.00	3264.00	3263.00	3263.00	3262.00	3262.00	3261.25	3261.00	3260.25	3260.00	3259.00	3258.75	3258.00	3257.50	3257.00	3256.25	3256.00
3352.00	3351.50	3351.00	3350.00	3349.75	3349.00	3349.00	3348.00	3348.00	3347.00	3346.75	3346.00	3346.00	3345.50	3345.00	3345.00	3345.00	3344.50	3344.00	3344.00	3344.00	3344.00	3344.00	3344.00	3344.00	3344.00	3344.00	3344.00	3343.00	3343.00	3343.00	3343.00	3342.25	3342.00	3342.00	3341.50	3341.00	3341.00	3340.75	3340.00	3340.00	3339.00	3339.00	3338.75	3338.00	3338.00	3337.25	3336.75	3336.00	3336.00	3335.00	3335.00	3334.25	3334.00	3333.25	3333.00	3332.50	3332.00	3332.00	3331.25	3331.00	3330.25	3330.00	3329.25	3329.00	3328.50	3328.00	3328.00	3327.50	3327.00	3327.00	3326.25	3326.00	3325.50	3325.00	3325.00	3325.00	3324.00	3324.00	3324.00	3323.25	3323.00	3323.00	3323.00	3323.00	3323.00	3323.00	3323.00	3323.00	3323.00	3323.00	3323.00	3323.00	3323.00	3323.00	3323.00	3323.00	3323.00	3323.00	3323.50	3324.00	3324.00	3324.00	3324.00	3324.00	3323.00	3323.00	3323.00	3323.00	3323.00	3322.50	3322.00	3322.00	3321.75	3321.00	3321.00	3320.75	3320.00	3320.00	3319.00	3319.00	3318.25	3318.00	3317.50	3317.00	3316.00	3315.50	3315.00	3314.75	3314.00	3314.00	3313.00	3312.25	3311.00	3310.25	3309.25	3308.50	3307.50	3306.75	3305.50	3304.75	3303.75	3303.00	3302.00	3301.00	3300.25	3299.25	3299.00	3298.25	3297.75	3297.00	3296.50	3296.00	3295.25	3295.00	3294.00	3293.50	3293.00	3292.75	3292.00	3292.00	3291.75	3291.00	3291.00	3290.75	3290.00	3290.00	3289.50	3289.00	3289.00	3288.50	3288.00	3288.00	3287.50	3287.00	3287.00	3286.25	3286.00	3285.50	3285.00	3285.00	3284.25	3284.00	3283.00	3283.00	3282.25	3282.00	3281.75	3281.00	3280.00	3279.50	3279.00	3278.25	3278.00	3277.50	3277.00	3276.25	3276.00	3275.00	3275.00	3274.25	3274.00	3273.50	3273.00	3272.25	3272.00	3271.25	3271.00	3271.00	3270.50	3270.00	3270.00	3270.00	3270.00	3269.50	3269.00	3268.75	3268.00	3268.00	3268.00	3267.25	3267.00	3267.00	3267.00	3266.00	3266.00	3265.75	3265.00	3265.00	3265.00	3265.00	3265.00	3264.00	3264.00	3264.00	3264.00	3264.00	3264.00	3264.00	3264.00	3264.00	3263.00	3263.00	3262.00	3262.00	3261.25	3261.00	3260.25	3260.00	3259.00	3258.75	3258.00	3257.50	3257.00	3256.25	3256.00
3351.50	3351.06	3350.50	3349.75	3349.50	3348.75	3348.75	3347.94	3347.75	3347.00	3346.69	3346.00	3346.00	3345.62	3345.00	3345.00	3345.00	3344.62	3344.25	3344.25	3344.25	3344.12	3344.00	3344.00	3344.00	3344.00	3343.88	3343.75	3343.00	3343.00	3343.00	3343.00	3342.31	3342.00	3342.00	3341.50	3341.00	3341.00	3340.69	3340.00	3339.75	3339.00	3338.75	3338.50	3337.75	3337.69	3336.94	3336.38	3335.75	3335.50	3334.69	3334.50	3333.94	3333.50	3332.94	3332.56	3332.12	3331.62	3331.50	3330.94	3330.75	3329.94	3329.75	3329.06	3328.75	3328.38	3327.81	3327.75	3327.38	3326.81	3326.75	3326.19	3325.88	3325.38	3325.00	3324.81	3324.75	3324.00	3323.81	3323.75	3323.19	3323.00	3323.00	3323.00	3323.00	3323.00	3323.00	3323.00	3323.00	3323.00	3323.00	3323.00	3323.00	3323.00	3323.00	3323.00	3323.00	3323.00	3323.00	3323.38	3323.75	3323.75	3323.75	3323.75	3323.75	3323.00	3322.94	3322.75	3322.75	3322.75	3322.38	3321.94	3321.75	3321.56	3320.94	3320.75	3320.56	3319.81	3319.75	3318.75	3318.69	3317.94	3317.69	3317.12	3316.69	3315.75	3315.19	3314.62	3314.31	3313.75	3313.50	3312.75	3311.94	3310.75	3310.00	3309.00	3308.25	3307.25	3306.38	3305.25	3304.50	3303.50	3302.75	3301.75	3300.75	3300.06	3299.19	3298.75	3298.12	3297.56	3296.75	3296.38	3295.75	3295.12	3294.75	3293.94	3293.38	3292.81	3292.56	3292.00	3291.75	3291.56	3291.00	3290.81	3290.56	3289.88	3289.75	3289.38	3288.94	3288.75	3288.38	3287.94	3287.75	3287.38	3286.94	3286.75	3286.19	3285.88	3285.38	3284.94	3284.75	3284.06	3283.75	3282.94	3282.75	3282.12	3281.75	3281.38	3280.69	3279.75	3279.19	3278.69	3277.94	3277.75	3277.12	3276.75	3276.00	3275.62	3274.75	3274.50	3273.94	3273.56	3273.12	3272.69	3271.94	3271.75	3271.00	3270.75	3270.62	3270.12	3269.69	3269.50	3269.50	3269.50	3269.12	3268.69	3268.31	3267.75	3267.75	3267.56	3266.94	3266.75	3266.69	3266.50	3265.75	3265.50	3265.31	3264.75	3264.75	3264.75	3264.75	3264.75	3264.00	3264.00	3264.00	3264.00	3264.00	3264.00	3264.00	3263.88	3263.75	3263.00	3263.00	3262.00	3262.00	3261.25	3261.00	3260.25	3259.88	3259.00	3258.62	3258.00	3257.38	3257.00	3256.25	3256.00
3350.00	3349.75	3349.00	3349.00	3348.75	3348.00	3348.00	3347.75	3347.00	3347.00	3346.50	3346.00	3346.00	3346.00	3345.00	3345.00	3345.00	3345.00	3345.00	3345.00	3345.00	3344.50	3344.00	3344.00	3344.00	3344.00	3343.50	3343.00	3343.00	3343.00	3343.00	3343.00	3342.50	3342.00	3342.00	3341.50	3341.00	3341.00	3340.50	3340.00	3339.00	3339.00	3338.00	3337.75	3337.00	3336.75	3336.00	3335.25	3335.00	3334.00	3333.75	3333.00	3333.00	3332.00	3332.00	3331.25	3331.00	3330.50	3330.00	3330.00	3330.00	3329.00	3329.00	3328.50	3328.00	3328.00	3327.25	3327.00	3327.00	3326.25	3326.00	3326.00	3325.50	3325.00	3325.00	3324.25	3324.00	3324.00	3323.25	3323.00	3323.00	3323.00	3323.00	3323.00	3323.00	3323.00	3323.00	3323.00	3323.00	3323.00	3323.00	3323.00	3323.00	3323.00	3323.00	3323.00	3323.00	3323.00	3323.00	3323.00	3323.00	3323.00	3323.00	3323.00	3323.00	3323.00	3322.75	3322.00	3322.00	3322.00	3322.00	3321.75	3321.00	3321.00	3320.75	3320.00	3320.00	3319.25	3319.00	3318.00	3317.75	3317.00	3316.75	3316.00	3315.75	3315.00	3314.25	3313.50	3313.00	3313.00	3312.00	3312.00	3311.00	3310.00	3309.25	3308.25	3307.50	3306.50	3305.25	3304.50	3303.75	3302.75	3302.00	3301.00	3300.00	3299.50	3299.00	3298.00	3297.75	3297.00	3296.00	3296.00	3295.00	3294.75	3294.00	3293.75	3293.00	3292.25	3292.00	3292.00	3291.00	3291.00	3291.00	3290.25	3290.00	3289.50	3289.00	3289.00	3288.75	3288.00	3288.00	3287.75	3287.00	3287.00	3286.75	3286.00	3286.00	3285.50	3285.00	3284.75	3284.00	3283.50	3283.00	3282.75	3282.00	3281.75	3281.00	3280.25	3279.75	3279.00	3278.25	3277.75	3277.00	3277.00	3276.00	3276.00	3275.25	3274.50	3274.00	3273.00	3273.00	3272.25	3272.00	3271.75	3271.00	3271.00	3270.25	3270.00	3269.50	3269.00	3268.75	3268.00	3268.00	3268.00	3268.00	3267.75	3267.00	3267.00	3267.00	3266.25	3266.00	3266.00	3265.75	3265.00	3265.00	3264.00	3264.00	3264.00	3264.00	3264.00	3264.00	3264.00	3264.00	3264.00	3264.00	3264.00	3264.00	3264.00	3264.00	3263.50	3263.00	3263.00	3263.00	3262.00	3262.00	3261.25	3261.00	3260.25	3259.50	3259.00	3258.25	3258.00	3257.00	3257.00	3256.25	3256.00
3350.00	3349.75	3349.00	3349.00	3348.75	3348.00	3348.00	3347.75	3347.00	3347.00	3346.50	3346.00	3346.00	3346.00	3345.00	3345.00	3345.00	3345.00	3345.00	3345.00	3345.00	3344.50	3344.00	3344.00	3344.00	3344.00	3343.50	3343.00	3343.00	3343.00	3343.00	3343.00	3342.50	3342.00	3342.00	3341.50	3341.00	3341.00	3340.50	3340.00	3339.00	3339.00	3338.00	3337.75	3337.00	3336.75	3336.00	3335.25	3335.00	3334.00	3333.75	3333.00	3333.00	3332.00	3332.00	3331.25	3331.00	3330.50	3330.00	3330.00	3330.00	3329.00	3329.00	3328.50	3328.00	3328.00	3327.25	3327.00	3327.00	3326.25	3326.00	3326.00	3325.50	3325.00	3325.00	3324.25	3324.00	3324.00	3323.25	3323.00	3323.00	3323.00	3323.00	3323.00	3323.00	3323.00	3323.00	3323.00	3323.00	3323.00	3323.00	3323.00	3323.00	3323.00	3323.00	3323.00	3323.00	3323.00	3323.00	3323.00	3323.00	3323.00	3323.00	3323.00	3323.00	3323.00	3322.75	3322.00	3322.00	3322.00	3322.00	3321.75	3321.00	3321.00	3320.75	3320.00	3320.00	3319.25	3319.00	3318.00	3317.75	3317.00	3316.75	3316.00	3315.75	3315.00	3314.25	3313.50	3313.00	3313.00	3312.00	3312.00	3311.00	3310.00	3309.25	3308.25	3307.50	3306.50	3305.25	3304.50	3303.75	3302.75	3302.00	3301.00	3300.00	3299.50	3299.00	3298.00	3297.75	3297.00	3296.00	3296.00	3295.00	3294.75	3294.00	3293.75	3293.00	3292.25	3292.00	3292.00	3291.00	3291.00	3291.00	3290.25	3290.00	3289.50	3289.00	3289.00	3288.75	3288.00	3288.00	3287.75	3287.00	3287.00	3286.75	3286.00	3286.00	3285.50	3285.00	3284.75	3284.00	3283.50	3283.00	3282.75	3282.00	3281.75	3281.00	3280.25	3279.75	3279.00	3278.25	3277.75	3277.00	3277.00	3276.00	3276.00	3275.25	3274.50	3274.00	3273.00	3273.00	3272.25	3272.00	3271.75	3271.00	3271.00	3270.25	3270.00	3269.50	3269.00	3268.75	3268.00	3268.00	3268.00	3268.00	3267.75	3267.00	3267.00	3267.00	3266.25	3266.00	3266.00	3265.75	3265.00	3265.00	3264.00	3264.00	3264.00	3264.00	3264.00	3264.00	3264.00	3264.00	3264.00	3264.00	3264.00	3264.00	3264.00	3264.00	3263.50	3263.00	3263.00	3263.00	3262.00	3262.00	3261.25	3261.00	3260.25	3259.50	3259.00	3258.25	3258.00	3257.00	3257.00	3256.25	3256.00
3350.00	3349.75	3349.00	3349.00	3348.75	3348.00	3348.00	3347.75	3347.00	3347.00	3346.50	3346.00	3346.00	3346.00	3345.00	3345.00	3345.00	3345.00	3345.00	3345.00	3345.00	3344.50	3344.00	3344.00	3344.00	3344.00	3343.50	3343.00	3343.00	3343.00	3343.00	3343.00	3342.50	3342.00	3342.00	3341.50	3341.00	3341.00	3340.50	3340.00	3339.00	3339.00	3338.00	3337.75	3337.00	3336.75	3336.00	3335.25	3335.00	3334.00	3333.75	3333.00	3333.00	3332.00	3332.00	3331.25	3331.00	3330.50	3330.00	3330.00	3330.00	3329.00	3329.00	3328.50	3328.00	3328.00	3327.25	3327.00	3327.00	3326.25	3326.00	3326.00	3325.50	3325.00	3325.00	3324.25	3324.00	3324.00	3323.25	3323.00	3323.00	3323.00	3323.00	3323.00	3323.00	3323.00	3323.00	3323.00	3323.00	3323.00	3323.00	3323.00	3323.00	3323.00	3323.00	3323.00	3323.00	3323.00	3323.00	3323.00	3323.00	3323.00	3323.00	3323.00	3323.00	3323.00	3322.75	3322.00	3322.00	3322.00	3322.00	3321.75	3321.00	3321.00	3320.75	3320.00	3320.00	3319.25	3319.00	3318.00	3317.75	3317.00	3316.75	3316.00	3315.75	3315.00	3314.25	3313.50	3313.00	3313.00	3312.00	3312.00	3311.00	3310.00	3309.25	3308.25	3307.50	3306.50	3305.25	3304.50	3303.75	3302.75	3302.00	3301.00	3300.00	3299.50	3299.00	3298.00	3297.75	3297.00	3296.00	3296.00	3295.00	3294.75	3294.00	3293.75	3293.00	3292.25	3292.00	3292.00	3291.00	3291.00	3291.00	3290.25	3290.00	3289.50	3289.00	3289.00	3288.75	3288.00	3288.00	3287.75	3287.00	3287.00	3286.75	3286.00	3286.00	3285.50	3285.00	3284.75	3284.00	3283.50	3283.00	3282.75	3282.00	3281.75	3281.00	3280.25	3279.75	3279.00	3278.25	3277.75	3277.00	3277.00	3276.00	3276.00	3275.25	3274.50	3274.00	3273.00	3273.00	3272.25	3272.00	3271.75	3271.00	3271.00	3270.25	3270.00	3269.50	3269.00	3268.75	3268.00	3268.00	3268.00	3268.00	3267.75	3267.00	3267.00	3267.00	3266.25	3266.00	3266.00	3265.75	3265.00	3265.00	3264.00	3264.00	3264.00	3264.00	3264.00	3264.00	3264.00	3264.00	3264.00	3264.00	3264.00	3264.00	3264.00	3264.00	3263.50	3263.00	3263.00	3263.00	3262.00	3262.00	3261.25	3261.00	3260.25	3259.50	3259.00	3258.25	3258.00	3257.00	3257.00	3256.25	3256.00
3349.25	3349.19	3348.62	3348.25	3348.19	3348.00	3347.25	3347.19	3347.00	3347.00	3346.69	3346.00	3346.00	3346.00	3345.56	3345.00	3345.00	3345.00	3345.00	3345.00	3345.00	3344.88	3344.19	3344.00	3344.00	3344.00	3343.12	3343.00	3343.00	3343.00	3342.44	3342.25	3342.12	3341.62	3341.25	3341.12	3340.62	3340.25	3339.94	3339.25	3338.62	3338.25	3337.25	3336.81	3336.25	3335.44	3334.88	3334.31	3333.50	3332.88	3332.44	3331.69	3331.12	3330.50	3330.12	3329.56	3329.50	3328.62	3328.50	3328.50	3328.50	3328.25	3327.88	3327.38	3327.06	3326.50	3326.31	3326.25	3326.25	3326.06	3325.44	3325.25	3325.12	3324.62	3324.25	3324.06	3324.00	3324.00	3323.25	3323.00	3323.00	3323.00	3323.00	3323.00	3323.00	3323.00	3323.00	3323.00	3323.00	3323.00	3323.00	3323.00	3323.00	3323.00	3323.00	3323.00	3323.00	3323.00	3323.00	3323.00	3323.00	3323.00	3323.00	3323.00	3322.25	3322.25	3322.19	3321.44	3321.25	3321.25	3321.25	3320.44	3320.25	3319.69	3319.44	3319.25	3318.50	3318.31	3317.69	3317.25	3317.00	3316.25	3316.00	3315.25	3315.19	3314.25	3313.69	3313.12	3312.62	3312.25	3311.25	3310.88	3310.25	3309.25	3308.50	3307.50	3306.38	3305.56	3304.50	3303.75	3303.00	3302.19	3301.25	3300.44	3299.81	3299.12	3298.25	3297.25	3296.62	3296.25	3295.25	3295.25	3294.25	3294.19	3294.00	3293.19	3293.00	3292.62	3292.00	3292.00	3291.56	3291.00	3291.00	3290.62	3290.00	3289.50	3289.00	3289.00	3288.38	3288.00	3288.00	3287.38	3287.00	3286.44	3286.19	3285.81	3285.25	3285.12	3284.62	3284.19	3283.25	3282.75	3282.25	3282.00	3281.25	3280.62	3280.06	3279.31	3278.62	3278.25	3277.31	3276.62	3276.25	3275.50	3275.25	3274.69	3274.31	3273.38	3272.88	3272.25	3271.69	3271.31	3270.88	3270.44	3270.25	3269.88	3269.31	3269.25	3268.75	3268.25	3268.19	3267.44	3267.25	3267.25	3266.88	3266.44	3266.25	3266.25	3266.25	3265.50	3265.25	3265.25	3265.00	3264.25	3264.25	3264.00	3263.25	3263.25	3263.25	3263.62	3264.00	3264.00	3264.00	3264.00	3264.00	3264.00	3264.00	3263.81	3263.25	3263.12	3263.00	3263.00	3263.00	3262.00	3262.00	3261.06	3260.44	3260.06	3259.12	3258.81	3258.06	3258.00	3257.00	3257.00	3256.62	3256.00
3349.00	3349.00	3348.50	3348.00	3348.00	3348.00	3347.00	3347.00	3347.00	3347.00	3346.75	3346.00	3346.00	3346.00	3345.75	3345.00	3345.00	3345.00	3345.00	3345.00	3345.00	3345.00	3344.25	3344.00	3344.00	3344.00	3343.00	3343.00	3343.00	3343.00	3342.25	3342.00	3342.00	3341.50	3341.00	3341.00	3340.50	3340.00	3339.75	3339.00	3338.50	3338.00	3337.00	3336.50	3336.00	3335.00	3334.50	3334.00	3333.00	3332.50	3332.00	3331.25	3330.50	3330.00	3329.50	3329.00	3329.00	3328.00	3328.00	3328.00	3328.00	3328.00	3327.50	3327.00	3326.75	3326.00	3326.00	3326.00	3326.00	3326.00	3325.25	3325.00	3325.00	3324.50	3324.00	3324.00	3324.00	3324.00	3323.25	3323.00	3323.00	3323.00	3323.00	3323.00	3323.00	3323.00	3323.00	3323.00	3323.00	3323.00	3323.00	3323.00	3323.00	3323.00	3323.00	3323.00	3323.00	3323.00	3323.00	3323.00	3323.00	3323.00	3323.00	3323.00	3322.00	3322.00	3322.00	3321.25	3321.00	3321.00	3321.00	3320.00	3320.00	3319.25	3319.00	3319.00	3318.00	3318.00	3317.25	3317.00	3316.75	3316.00	3315.75	3315.00	3315.00	3314.00	3313.50	3313.00	3312.50	3312.00	3311.00	3310.50	3310.00	3309.00	3308.25	3307.25	3306.00	3305.25	3304.25	3303.50	3302.75	3302.00	3301.00	3300.25	3299.75	3299.00	3298.00	3297.00	3296.25	3296.00	3295.00	3295.00	3294.00	3294.00	3294.00	3293.00	3293.00	3292.75	3292.00	3292.00	3291.75	3291.00	3291.00	3290.75	3290.00	3289.50	3289.00	3289.00	3288.25	3288.00	3288.00	3287.25	3287.00	3286.25	3286.00	3285.75	3285.00	3285.00	3284.50	3284.00	3283.00	3282.50	3282.00	3281.75	3281.00	3280.25	3279.75	3279.00	3278.25	3278.00	3277.00	3276.25	3276.00	3275.00	3275.00	3274.25	3274.00	3273.00	3272.50	3272.00	3271.25	3271.00	3270.50	3270.00	3270.00	3269.50	3269.00	3269.00	3268.50	3268.00	3268.00	3267.25	3267.00	3267.00	3266.50	3266.00	3266.00	3266.00	3266.00	3265.25	3265.00	3265.00	3264.75	3264.00	3264.00	3264.00	3263.00	3263.00	3263.00	3263.50	3264.00	3264.00	3264.00	3264.00	3264.00	3264.00	3264.00	3263.75	3263.00	3263.00	3263.00	3263.00	3263.00	3262.00	3262.00	3261.00	3260.25	3260.00	3259.00	3258.75	3258.00	3258.00	3257.00	3257.00	3256.75	3256.00
3349.00	3349.00	3348.50	3348.00	3348.00	3348.00	3347.00	3347.00	3347.00	3347.00	3346.75	3346.00	3346.00	3346.00	3345.75	3345.00	3345.00	3345.00	3345.00	3345.00	3345.00	3345.00	3344.25	3344.00	3344.00	3344.00	3343.00	3343.00	3343.00	3343.00	3342.25	3342.00	3342.00	3341.50	3341.00	3341.00	3340.50	3340.00	3339.75	3339.00	3338.50	3338.00	3337.00	3336.50	3336.00	3335.00	3334.50	3334.00	3333.00	3332.50	3332.00	3331.25	3330.50	3330.00	3329.50	3329.00	3329.00	3328.00	3328.00	3328.00	3328.00	3328.00	3327.50	3327.00	3326.75	3326.00	3326.00	3326.00	3326.00	3326.00	3325.25	3325.00	3325.00	3324.50	3324.00	3324.00	3324.00	3324.00	3323.25	3323.00	3323.00	3323.00	3323.00	3323.00	3323.00	3323.00	3323.00	3323.00	3323.00	3323.00	3323.00	3323.00	3323.00	3323.00	3323.00	3323.00	3323.00	3323.00	3323.00	3323.00	3323.00	3323.00	3323.00	3323.00	3322.00	3322.00	3322.00	3321.25	3321.00	3321.00	3321.00	3320.00	3320.00	3319.25	3319.00	3319.00	3318.00	3318.00	3317.25	3317.00	3316.75	3316.00	3315.75	3315.00	3315.00	3314.00	3313.50	3313.00	3312.50	3312.00	3311.00	3310.50	3310.00	3309.00	3308.25	3307.25	3306.00	3305.25	3304.25	3303.50	3302.75	3302.00	3301.00	3300.25	3299.75	3299.00	3298.00	3297.00	3296.25	3296.00	3295.00	3295.00	3294.00	3294.00	3294.00	3293.00	3293.00	3292.75	3292.00	3292.00	3291.75	3291.00	3291.00	3290.75	3290.00	3289.50	3289.00	3289.00	3288.25	3288.00	3288.00	3287.25	3287.00	3286.25	3286.00	3285.75	3285.00	3285.00	3284.50	3284.00	3283.00	3282.50	3282.00	3281.75	3281.00	3280.25	3279.75	3279.00	3278.25	3278.00	3277.00	3276.25	3276.00	3275.00	3275.00	3274.25	3274.00	3273.00	3272.50	3272.00	3271.25	3271.00	3270.50	3270.00	3270.00	3269.50	3269.00	3269.00	3268.50	3268.00	3268.00	3267.25	3267.00	3267.00	3266.50	3266.00	3266.00	3266.00	3266.00	3265.25	3265.00	3265.00	3264.75	3264.00	3264.00	3264.00	3263.00	3263.00	3263.00	3263.50	3264.00	3264.00	3264.00	3264.00	3264.00	3264.00	3264.00	3263.75	3263.00	3263.00	3263.00	3263.00	3263.00	3262.00	3262.00	3261.00	3260.25	3260.00	3259.00	3258.75	3258.00	3258.00	3257.00	3257.00	3256.75	3256.00
3348.88	3348.50	3348.25	3347.88	3347.50	3347.50	3347.00	3347.00	3347.00	3347.00	3346.88	3346.38	3346.00	3346.00	3345.88	3345.50	3345.50	3345.50	3345.50	3345.12	3345.00	3345.00	3344.25	3344.00	3344.00	3343.75	3343.00	3343.00	3342.62	3342.50	3342.12	3341.62	3341.50	3341.25	3340.75	3340.50	3340.00	3339.50	3339.00	3338.38	3337.75	3337.25	3336.50	3335.88	3335.12	3334.25	3333.62	3333.00	3332.00	3331.50	3330.88	3330.12	3329.75	3329.00	3328.75	3328.12	3328.00	3327.50	3327.12	3327.00	3327.00	3327.00	3326.75	3326.50	3326.12	3325.50	3325.50	3325.50	3325.50	3325.50	3325.12	3324.62	3324.50	3324.25	3324.00	3324.00	3324.00	3323.88	3323.12	3323.00	3323.00	3323.00	3323.00	3323.00	3323.00	3323.00	3323.00	3323.00	3323.00	3323.00	3323.00	3323.00	3323.00	3323.00	3323.00	3323.00	3323.00	3323.00	3322.75	3322.50	3322.50	3322.50	3322.50	3322.50	3321.75	3321.50	3321.50	3320.88	3320.50	3320.38	3320.00	3319.50	3319.00	3318.62	3318.25	3318.00	3317.50	3317.12	3316.62	3316.25	3315.88	3315.50	3314.88	3314.50	3314.38	3313.50	3313.00	3312.50	3311.75	3311.38	3310.50	3310.25	3309.50	3308.88	3308.12	3306.88	3305.75	3304.88	3304.00	3303.12	3302.38	3301.50	3300.50	3299.88	3299.25	3298.50	3297.62	3296.88	3296.12	3295.62	3295.00	3294.50	3294.00	3294.00	3293.62	3293.00	3293.00	3292.50	3292.00	3291.50	3291.38	3291.00	3291.00	3290.88	3290.25	3289.75	3289.25	3289.00	3288.62	3288.25	3288.00	3287.62	3287.12	3286.62	3286.00	3285.75	3285.00	3284.88	3284.25	3283.62	3282.88	3282.25	3281.50	3281.12	3280.50	3279.62	3279.12	3278.50	3277.62	3277.25	3276.50	3275.62	3275.25	3274.50	3274.25	3273.62	3273.38	3272.50	3272.00	3271.50	3271.12	3270.50	3270.25	3269.88	3269.50	3269.25	3268.75	3268.50	3268.25	3267.75	3267.50	3267.12	3266.62	3266.50	3266.25	3265.62	3265.50	3265.50	3265.12	3264.62	3264.50	3264.50	3264.38	3263.88	3263.50	3263.50	3263.00	3263.00	3263.00	3263.25	3263.50	3263.50	3263.50	3263.50	3263.50	3264.00	3263.62	3263.38	3263.00	3263.00	3263.00	3262.88	3262.50	3262.00	3261.50	3260.75	3260.12	3259.75	3259.00	3258.38	3257.88	3257.50	3257.00	3256.50	3256.00	3255.25
3348.75	3348.00	3348.00	3347.75	3347.00	3347.00	3347.00	3347.00	3347.00	3347.00	3347.00	3346.75	3346.00	3346.00	3346.00	3346.00	3346.00	3346.00	3346.00	3345.25	3345.00	3345.00	3344.25	3344.00	3344.00	3343.50	3343.00	3343.00	3342.25	3342.00	3342.00	3341.25	3341.00	3341.00	3340.50	3340.00	3339.50	3339.00	3338.25	3337.75	3337.00	3336.50	3336.00	3335.25	3334.25	3333.50	3332.75	3332.00	3331.00	3330.50	3329.75	3329.00	3329.00	3328.00	3328.00	3327.25	3327.00	3327.00	3326.25	3326.00	3326.00	3326.00	3326.00	3326.00	3325.50	3325.00	3325.00	3325.00	3325.00	3325.00	3325.00	3324.25	3324.00	3324.00	3324.00	3324.00	3324.00	3323.75	3323.00	3323.00	3323.00	3323.00	3323.00	3323.00	3323.00	3323.00	3323.00	3323.00	3323.00	3323.00	3323.00	3323.00	3323.00	3323.00	3323.00	3323.00	3323.00	3323.00	3322.50	3322.00	3322.00	3322.00	3322.00	3322.00	3321.50	3321.00	3321.00	3320.50	3320.00	3319.75	3319.00	3319.00	3318.00	3318.00	3317.50	3317.00	3317.00	3316.25	3316.00	3315.50	3315.00	3315.00	3314.00	3314.00	3313.75	3313.00	3312.50	3312.00	3311.00	3310.75	3310.00	3310.00	3309.00	3308.75	3308.00	3306.50	3305.50	3304.50	3303.75	3302.75	3302.00	3301.00	3300.00	3299.50	3298.75	3298.00	3297.25	3296.75	3296.00	3295.25	3295.00	3294.00	3294.00	3294.00	3293.25	3293.00	3293.00	3292.25	3292.00	3291.00	3291.00	3291.00	3291.00	3291.00	3290.50	3290.00	3289.50	3289.00	3289.00	3288.50	3288.00	3288.00	3287.25	3287.00	3286.00	3285.75	3285.00	3284.75	3284.00	3283.25	3282.75	3282.00	3281.00	3280.50	3280.00	3279.00	3278.50	3278.00	3277.00	3276.50	3276.00	3275.00	3274.50	3274.00	3273.50	3273.00	3272.75	3272.00	3271.50	3271.00	3271.00	3270.00	3270.00	3269.75	3269.00	3269.00	3268.50	3268.00	3268.00	3267.50	3267.00	3267.00	3266.25	3266.00	3266.00	3265.25	3265.00	3265.00	3264.25	3264.00	3264.00	3264.00	3264.00	3263.75	3263.00	3263.00	3263.00	3263.00	3263.00	3263.00	3263.00	3263.00	3263.00	3263.00	3263.00	3264.00	3263.25	3263.00	3263.00	3263.00	3263.00	3262.75	3262.00	3262.00	3261.00	3260.50	3260.00	3259.50	3259.00	3258.00	3257.75	3257.00	3257.00	3256.00	3255.25	3254.50
3348.75	3348.00	3348.00	3347.75	3347.00	3347.00	3347.00	3347.00	3347.00	3347.00	3347.00	3346.75	3346.00	3346.00	3346.00	3346.00	3346.00	3346.00	3346.00	3345.25	3345.00	3345.00	3344.25	3344.00	3344.00	3343.50	3343.00	3343.00	3342.25	3342.00	3342.00	3341.25	3341.00	3341.00	3340.50	3340.00	3339.50	3339.00	3338.25	3337.75	3337.00	3336.50	3336.00	3335.25	3334.25	3333.50	3332.75	3332.00	3331.00	3330.50	3329.75	3329.00	3329.00	3328.00	3328.00	3327.25	3327.00	3327.00	3326.25	3326.00	3326.00	3326.00	3326.00	3326.00	3325.50	3325.00	3325.00	3325.00	3325.00	3325.00	3325.00	3324.25	3324.00	3324.00	3324.00	3324.00	3324.00	3323.75	3323.00	3323.00	3323.00	3323.00	3323.00	3323.00	3323.00	3323.00	3323.00	3323.00	3323.00	3323.00	3323.00	3323.00	3323.00	3323.00	3323.00	3323.00	3323.00	3323.00	3322.50	3322.00	3322.00	3322.00	3322.00	3322.00	3321.50	3321.00	3321.00	3320.50	3320.00	3319.75	3319.00	3319.00	3318.00	3318.00	3317.50	3317.00	3317.00	3316.25	3316.00	3315.50	3315.00	3315.00	3314.00	3314.00	3313.75	3313.00	3312.50	3312.00	3311.00	3310.75	3310.00	3310.00	3309.00	3308.75	3308.00	3306.50	3305.50	3304.50	3303.75	3302.75	3302.00	3301.00	3300.00	3299.50	3298.75	3298.00	3297.25	3296.75	3296.00	3295.25	3295.00	3294.00	3294.00	3294.00	3293.25	3293.00	3293.00	3292.25	3292.00	3291.00	3291.00	3291.00	3291.00	3291.00	3290.50	3290.00	3289.50	3289.00	3289.00	3288.50	3288.00	3288.00	3287.25	3287.00	3286.00	3285.75	3285.00	3284.75	3284.00	3283.25	3282.75	3282.00	3281.00	3280.50	3280.00	3279.00	3278.50	3278.00	3277.00	3276.50	3276.00	3275.00	3274.50	3274.00	3273.50	3273.00	3272.75	3272.00	3271.50	3271.00	3271.00	3270.00	3270.00	3269.75	3269.00	3269.00	3268.50	3268.00	3268.00	3267.50	3267.00	3267.00	3266.25	3266.00	3266.00	3265.25	3265.00	3265.00	3264.25	3264.00	3264.00	3264.00	3264.00	3263.75	3263.00	3263.00	3263.00	3263.00	3263.00	3263.00	3263.00	3263.00	3263.00	3263.00	3263.00	3264.00	3263.25	3263.00	3263.00	3263.00	3263.00	3262.75	3262.00	3262.00	3261.00	3260.50	3260.00	3259.50	3259.00	3258.00	3257.75	3257.00	3257.00	3256.00	3255.25	3254.50
3348.75	3348.00	3348.00	3347.75	3347.00	3347.00	3347.00	3347.00	3347.00	3347.00	3347.00	3346.75	3346.00	3346.00	3346.00	3346.00	3346.00	3346.00	3346.00	3345.25	3345.00	3345.00	3344.25	3344.00	3344.00	3343.50	3343.00	3343.00	3342.25	3342.00	3342.00	3341.25	3341.00	3341.00	3340.50	3340.00	3339.50	3339.00	3338.25	3337.75	3337.00	3336.50	3336.00	3335.25	3334.25	3333.50	3332.75	3332.00	3331.00	3330.50	3329.75	3329.00	3329.00	3328.00	3328.00	3327.25	3327.00	3327.00	3326.25	3326.00	3326.00	3326.00	3326.00	3326.00	3325.50	3325.00	3325.00	3325.00	3325.00	3325.00	3325.00	3324.25	3324.00	3324.00	3324.00	3324.00	3324.00	3323.75	3323.00	3323.00	3323.00	3323.00	3323.00	3323.00	3323.00	3323.00	3323.00	3323.00	3323.00	3323.00	3323.00	3323.00	3323.00	3323.00	3323.00	3323.00	3323.00	3323.00	3322.50	3322.00	3322.00	3322.00	3322.00	3322.00	3321.50	3321.00	3321.00	3320.50	3320.00	3319.75	3319.00	3319.00	3318.00	3318.00	3317.50	3317.00	3317.00	3316.25	3316.00	3315.50	3315.00	3315.00	3314.00	3314.00	3313.75	3313.00	3312.50	3312.00	3311.00	3310.75	3310.00	3310.00	3309.00	3308.75	3308.00	3306.50	3305.50	3304.50	3303.75	3302.75	3302.00	3301.00	3300.00	3299.50	3298.75	3298.00	3297.25	3296.75	3296.00	3295.25	3295.00	3294.00	3294.00	3294.00	3293.25	3293.00	3293.00	3292.25	3292.00	3291.00	3291.00	3291.00	3291.00	3291.00	3290.50	3290.00	3289.50	3289.00	3289.00	3288.50	3288.00	3288.00	3287.25	3287.00	3286.00	3285.75	3285.00	3284.75	3284.00	3283.25	3282.75	3282.00	3281.00	3280.50	3280.00	3279.00	3278.50	3278.00	3277.00	3276.50	3276.00	3275.00	3274.50	3274.00	3273.50	3273.00	3272.75	3272.00	3271.50	3271.00	3271.00	3270.00	3270.00	3269.75	3269.00	3269.00	3268.50	3268.00	3268.00	3267.50	3267.00	3267.00	3266.25	3266.00	3266.00	3265.25	3265.00	3265.00	3264.25	3264.00	3264.00	3264.00	3264.00	3263.75	3263.00	3263.00	3263.00	3263.00	3263.00	3263.00	3263.00	3263.00	3263.00	3263.00	3263.00	3264.00	3263.25	3263.00	3263.00	3263.00	3263.00	3262.75	3262.00	3262.00	3261.00	3260.50	3260.00	3259.50	3259.00	3258.00	3257.75	3257.00	3257.00	3256.00	3255.25	3254.50
3348.75	3348.00	3348.00	3347.75	3347.00	3347.00	3347.00	3347.00	3347.00	3347.00	3347.00	3346.75	3346.00	3346.00	3346.00	3346.00	3346.00	3346.00	3346.00	3345.25	3345.00	3345.00	3344.25	3344.00	3344.00	3343.50	3343.00	3343.00	3342.25	3342.00	3342.00	3341.25	3341.00	3341.00	3340.50	3340.00	3339.50	3339.00	3338.25	3337.75	3337.00	3336.50	3336.00	3335.25	3334.25	3333.50	3332.75	3332.00	3331.00	3330.50	3329.75	3329.00	3329.00	3328.00	3328.00	3327.25	3327.00	3327.00	3326.25	3326.00	3326.00	3326.00	3326.00	3326.00	3325.50	3325.00	3325.00	3325.00	3325.00	3325.00	3325.00	3324.25	3324.00	3324.00	3324.00	3324.00	3324.00	3323.75	3323.00	3323.00	3323.00	3323.00	3323.00	3323.00	3323.00	3323.00	3323.00	3323.00	3323.00	3323.00	3323.00	3323.00	3323.00	3323.00	3323.00	3323.00	3323.00	3323.00	3322.50	3322.00	3322.00	3322.00	3322.00	3322.00	3321.50	3321.00	3321.00	3320.50	3320.00	3319.75	3319.00	3319.00	3318.00	3318.00	3317.50	3317.00	3317.00	3316.25	3316.00	3315.50	3315.00	3315.00	3314.00	3314.00	3313.75	3313.00	3312.50	3312.00	3311.00	3310.75	3310.00	3310.00	3309.00	3308.75	3308.00	3306.50	3305.50	3304.50	3303.75	3302.75	3302.00	3301.00	3300.00	3299.50	3298.75	3298.00	3297.25	3296.75	3296.00	3295.25	3295.00	3294.00	3294.00	3294.00	3293.25	3293.00	3293.00	3292.25	3292.00	3291.00	3291.00	3291.00	3291.00	3291.00	3290.50	3290.00	3289.50	3289.00	3289.00	3288.50	3288.00	3288.00	3287.25	3287.00	3286.00	3285.75	3285.00	3284.75	3284.00	3283.25	3282.75	3282.00	3281.00	3280.50	3280.00	3279.00	3278.50	3278.00	3277.00	3276.50	3276.00	3275.00	3274.50	3274.00	3273.50	3273.00	3272.75	3272.00	3271.50	3271.00	3271.00	3270.00	3270.00	3269.75	3269.00	3269.00	3268.50	3268.00	3268.00	3267.50	3267.00	3267.00	3266.25	3266.00	3266.00	3265.25	3265.00	3265.00	3264.25	3264.00	3264.00	3264.00	3264.00	3263.75	3263.00	3263.00	3263.00	3263.00	3263.00	3263.00	3263.00	3263.00	3263.00	3263.00	3263.00	3264.00	3263.25	3263.00	3263.00	3263.00	3263.00	3262.75	3262.00	3262.00	3261.00	3260.50	3260.00	3259.50	3259.00	3258.00	3257.75	3257.00	3257.00	3256.00	3255.25	3254.50
3348.75	3348.00	3348.00	3347.75	3347.00	3347.00	3347.00	3347.00	3347.00	3347.00	3347.00	3346.75	3346.00	3346.00	3346.00	3346.00	3346.00	3346.00	3346.00	3345.25	3345.00	3345.00	3344.25	3344.00	3344.00	3343.50	3343.00	3343.00	3342.25	3342.00	3342.00	3341.25	3341.00	3341.00	3340.50	3340.00	3339.50	3339.00	3338.25	3337.75	3337.00	3336.50	3336.00	3335.25	3334.25	3333.50	3332.75	3332.00	3331.00	3330.50	3329.75	3329.00	3329.00	3328.00	3328.00	3327.25	3327.00	3327.00	3326.25	3326.00	3326.00	3326.00	3326.00	3326.00	3325.50	3325.00	3325.00	3325.00	3325.00	3325.00	3325.00	3324.25	3324.00	3324.00	3324.00	3324.00	3324.00	3323.75	3323.00	3323.00	3323.00	3323.00	3323.00	3323.00	3323.00	3323.00	3323.00	3323.00	3323.00	3323.00	3323.00	3323.00	3323.00	3323.00	3323.00	3323.00	3323.00	3323.00	3322.50	3322.00	3322.00	3322.00	3322.00	3322.00	3321.50	3321.00	3321.00	3320.50	3320.00	3319.75	3319.00	3319.00	3318.00	3318.00	3317.50	3317.00	3317.00	3316.25	3316.00	3315.50	3315.00	3315.00	3314.00	3314.00	3313.75	3313.00	3312.50	3312.00	3311.00	3310.75	3310.00	3310.00	3309.00	3308.75	3308.00	3306.50	3305.50	3304.50	3303.75	3302.75	3302.00	3301.00	3300.00	3299.50	3298.75	3298.00	3297.25	3296.75	3296.00	3295.25	3295.00	3294.00	3294.00	3294.00	3293.25	3293.00	3293.00	3292.25	3292.00	3291.00	3291.00	3291.00	3291.00	3291.00	3290.50	3290.00	3289.50	3289.00	3289.00	3288.50	3288.00	3288.00	3287.25	3287.00	3286.00	3285.75	3285.00	3284.75	3284.00	3283.25	3282.75	3282.00	3281.00	3280.50	3280.00	3279.00	3278.50	3278.00	3277.00	3276.50	3276.00	3275.00	3274.50	3274.00	3273.50	3273.00	3272.75	3272.00	3271.50	3271.00	3271.00	3270.00	3270.00	3269.75	3269.00	3269.00	3268.50	3268.00	3268.00	3267.50	3267.00	3267.00	3266.25	3266.00	3266.00	3265.25	3265.00	3265.00	3264.25	3264.00	3264.00	3264.00	3264.00	3263.75	3263.00	3263.00	3263.00	3263.00	3263.00	3263.00	3263.00	3263.00	3263.00	3263.00	3263.00	3264.00	3263.25	3263.00	3263.00	3263.00	3263.00	3262.75	3262.00	3262.00	3261.00	3260.50	3260.00	3259.50	3259.00	3258.00	3257.75	3257.00	3257.00	3256.00	3255.25	3254.50
3348.75	3348.00	3348.00	3347.75	3347.00	3347.00	3347.00	3347.00	3347.00	3347.00	3347.00	3346.75	3346.00	3346.00	3346.00	3346.00	3346.00	3346.00	3346.00	3345.25	3345.00	3345.00	3344.25	3344.00	3344.00	3343.50	3343.00	3343.00	3342.25	3342.00	3342.00	3341.25	3341.00	3341.00	3340.50	3340.00	3339.50	3339.00	3338.25	3337.75	3337.00	3336.50	3336.00	3335.25	3334.25	3333.50	3332.75	3332.00	3331.00	3330.50	3329.75	3329.00	3329.00	3328.00	3328.00	3327.25	3327.00	3327.00	3326.25	3326.00	3326.00	3326.00	3326.00	3326.00	3325.50	3325.00	3325.00	3325.00	3325.00	3325.00	3325.00	3324.25	3324.00	3324.00	3324.00	3324.00	3324.00	3323.75	3323.00	3323.00	3323.00	3323.00	3323.00	3323.00	3323.00	3323.00	3323.00	3323.00	3323.00	3323.00	3323.00	3323.00	3323.00	3323.00	3323.00	3323.00	3323.00	3323.00	3322.50	3322.00	3322.00	3322.00	3322.00	3322.00	3321.50	3321.00	3321.00	3320.50	3320.00	3319.75	3319.00	3319.00	3318.00	3318.00	3317.50	3317.00	3317.00	3316.25	3316.00	3315.50	3315.00	3315.00	3314.00	3314.00	3313.75	3313.00	3312.50	3312.00	3311.00	3310.75	3310.00	3310.00	3309.00	3308.75	3308.00	3306.50	3305.50	3304.50	3303.75	3302.75	3302.00	3301.00	3300.00	3299.50	3298.75	3298.00	3297.25	3296.75	3296.00	3295.25	3295.00	3294.00	3294.00	3294.00	3293.25	3293.00	3293.00	3292.25	3292.00	3291.00	3291.00	3291.00	3291.00	3291.00	3290.50	3290.00	3289.50	3289.00	3289.00	3288.50	3288.00	3288.00	3287.25	3287.00	3286.00	3285.75	3285.00	3284.75	3284.00	3283.25	3282.75	3282.00	3281.00	3280.50	3280.00	3279.00	3278.50	3278.00	3277.00	3276.50	3276.00	3275.00	3274.50	3274.00	3273.50	3273.00	3272.75	3272.00	3271.50	3271.00	3271.00	3270.00	3270.00	3269.75	3269.00	3269.00	3268.50	3268.00	3268.00	3267.50	3267.00	3267.00	3266.25	3266.00	3266.00	3265.25	3265.00	3265.00	3264.25	3264.00	3264.00	3264.00	3264.00	3263.75	3263.00	3263.00	3263.00	3263.00	3263.00	3263.00	3263.00	3263.00	3263.00	3263.00	3263.00	3264.00	3263.25	3263.00	3263.00	3263.00	3263.00	3262.75	3262.00	3262.00	3261.00	3260.50	3260.00	3259.50	3259.00	3258.00	3257.75	3257.00	3257.00	3256.00	3255.25	3254.50
3348.00	3347.50	3347.00	3347.00	3347.00	3347.00	3347.00	3347.00	3347.00	3347.00	3347.00	3347.00	3346.25	3346.00	3346.00	3346.00	3345.50	3345.00	3345.00	3345.00	3344.00	3344.00	3344.00	3343.00	3343.00	3343.00	3342.00	3342.00	3341.25	3341.00	3340.50	3340.00	3340.00	3339.25	3339.00	3338.75	3338.00	3337.75	3337.00	3336.25	3336.00	3335.00	3334.25	3333.50	3332.50	3331.75	3331.00	3330.25	3329.50	3329.00	3328.00	3327.50	3327.00	3326.50	3325.75	3325.00	3325.00	3325.00	3325.00	3324.75	3324.00	3324.00	3324.00	3324.00	3324.00	3324.00	3324.00	3324.00	3324.00	3324.00	3324.00	3324.00	3324.00	3324.00	3324.00	3323.25	3323.00	3323.00	3323.00	3323.00	3323.00	3323.00	3323.00	3323.00	3323.00	3323.00	3323.00	3323.00	3323.00	3323.00	3323.00	3323.00	3323.00	3323.00	3323.00	3323.00	3322.50	3322.00	3322.00	3322.00	3322.00	3322.00	3321.75	3321.00	3321.00	3320.75	3320.00	3320.00	3319.25	3319.00	3318.25	3317.75	3317.00	3317.00	3316.75	3316.00	3316.00	3315.75	3315.00	3315.00	3314.00	3314.00	3313.00	3313.00	3312.00	3312.00	3312.00	3311.00	3310.50	3310.00	3309.25	3309.00	3308.00	3307.75	3307.00	3306.00	3305.00	3304.25	3303.25	3302.50	3301.75	3300.75	3300.00	3299.25	3298.25	3297.50	3297.00	3296.00	3295.75	3295.00	3295.00	3294.00	3294.00	3294.00	3294.00	3293.00	3293.00	3293.00	3292.50	3292.00	3292.00	3292.00	3291.50	3291.00	3291.00	3290.50	3290.00	3289.50	3289.00	3288.75	3288.00	3288.00	3287.25	3286.50	3286.00	3285.50	3285.00	3284.00	3283.50	3283.00	3282.00	3281.25	3280.25	3279.00	3278.50	3278.00	3277.00	3276.75	3276.00	3275.00	3274.50	3274.00	3274.00	3273.00	3273.00	3272.25	3272.00	3271.00	3270.50	3270.00	3270.00	3269.50	3269.00	3269.00	3268.75	3268.00	3268.00	3267.75	3267.00	3267.00	3266.75	3266.00	3266.00	3265.50	3265.00	3265.00	3264.50	3264.00	3264.00	3263.25	3263.00	3263.00	3263.00	3263.00	3263.00	3262.50	3262.00	3262.00	3262.00	3262.00	3262.25	3263.00	3263.00	3263.00	3263.00	3263.00	3263.00	3262.25	3262.00	3262.00	3262.00	3261.00	3261.00	3260.25	3260.00	3260.00	3259.00	3259.00	3258.50	3258.00	3257.25	3257.00	3256.00	3255.50	3255.00	3254.25
3348.00	3347.50	3347.00	3347.00	3347.00	3347.00	3347.00	3347.00	3347.00	3347.00	3347.00	3347.00	3346.25	3346.00	3346.00	3346.00	3345.50	3345.00	3345.00	3345.00	3344.00	3344.00	3344.00	3343.00	3343.00	3343.00	3342.00	3342.00	3341.25	3341.00	3340.50	3340.00	3340.00	3339.25	3339.00	3338.75	3338.00	3337.75	3337.00	3336.25	3336.00	3335.00	3334.25	3333.50	3332.50	3331.75	3331.00	3330.25	3329.50	3329.00	3328.00	3327.50	3327.00	3326.50	3325.75	3325.00	3325.00	3325.00	3325.00	3324.75	3324.00	3324.00	3324.00	3324.00	3324.00	3324.00	3324.00	3324.00	3324.00	3324.00	3324.00	3324.00	3324.00	3324.00	3324.00	3323.25	3323.00	3323.00	3323.00	3323.00	3323.00	3323.00	3323.00	3323.00	3323.00	3323.00	3323.00	3323.00	3323.00	3323.00	3323.00	3323.00	3323.00	3323.00	3323.00	3323.00	3322.50	3322.00	3322.00	3322.00	3322.00	3322.00	3321.75	3321.00	3321.00	3320.75	3320.00	3320.00	3319.25	3319.00	3318.25	3317.75	3317.00	3317.00	3316.75	3316.00	3316.00	3315.75	3315.00	3315.00	3314.00	3314.00	3313.00	3313.00	3312.00	3312.00	3312.00	3311.00	3310.50	3310.00	3309.25	3309.00	3308.00	3307.75	3307.00	3306.00	3305.00	3304.25	3303.25	3302.50	3301.75	3300.75	3300.00	3299.25	3298.25	3297.50	3297.00	3296.00	3295.75	3295.00	3295.00	3294.00	3294.00	3294.00	3294.00	3293.00	3293.00	3293.00	3292.50	3292.00	3292.00	3292.00	3291.50	3291.00	3291.00	3290.50	3290.00	3289.50	3289.00	3288.75	3288.00	3288.00	3287.25	3286.50	3286.00	3285.50	3285.00	3284.00	3283.50	3283.00	3282.00	3281.25	3280.25	3279.00	3278.50	3278.00	3277.00	3276.75	3276.00	3275.00	3274.50	3274.00	3274.00	3273.00	3273.00	3272.25	3272.00	3271.00	3270.50	3270.00	3270.00	3269.50	3269.00	3269.00	3268.75	3268.00	3268.00	3267.75	3267.00	3267.00	3266.75	3266.00	3266.00	3265.50	3265.00	3265.00	3264.50	3264.00	3264.00	3263.25	3263.00	3263.00	3263.00	3263.00	3263.00	3262.50	3262.00	3262.00	3262.00	3262.00	3262.25	3263.00	3263.00	3263.00	3263.00	3263.00	3263.00	3262.25	3262.00	3262.00	3262.00	3261.00	3261.00	3260.25	3260.00	3260.00	3259.00	3259.00	3258.50	3258.00	3257.25	3257.00	3256.00	3255.50	3255.00	3254.25
3348.00	3347.50	3347.00	3347.00	3347.00	3347.00	3347.00	3347.00	3347.00	3347.00	3347.00	3347.00	3346.25	3346.00	3346.00	3346.00	3345.50	3345.00	3345.00	3345.00	3344.00	3344.00	3344.00	3343.00	3343.00	3343.00	3342.00	3342.00	3341.25	3341.00	3340.50	3340.00	3340.00	3339.25	3339.00	3338.75	3338.00	3337.75	3337.00	3336.25	3336.00	3335.00	3334.25	3333.50	3332.50	3331.75	3331.00	3330.25	3329.50	3329.00	3328.00	3327.50	3327.00	3326.50	3325.75	3325.00	3325.00	3325.00	3325.00	3324.75	3324.00	3324.00	3324.00	3324.00	3324.00	3324.00	3324.00	3324.00	3324.00	3324.00	3324.00	3324.00	3324.00	3324.00	3324.00	3323.25	3323.00	3323.00	3323.00	3323.00	3323.00	3323.00	3323.00	3323.00	3323.00	3323.00	3323.00	3323.00	3323.00	3323.00	3323.00	3323.00	3323.00	3323.00	3323.00	3323.00	3322.50	3322.00	3322.00	3322.00	3322.00	3322.00	3321.75	3321.00	3321.00	3320.75	3320.00	3320.00	3319.25	3319.00	3318.25	3317.75	3317.00	3317.00	3316.75	3316.00	3316.00	3315.75	3315.00	3315.00	3314.00	3314.00	3313.00	3313.00	3312.00	3312.00	3312.00	3311.00	3310.50	3310.00	3309.25	3309.00	3308.00	3307.75	3307.00	3306.00	3305.00	3304.25	3303.25	3302.50	3301.75	3300.75	3300.00	3299.25	3298.25	3297.50	3297.00	3296.00	3295.75	3295.00	3295.00	3294.00	3294.00	3294.00	3294.00	3293.00	3293.00	3293.00	3292.50	3292.00	3292.00	3292.00	3291.50	3291.00	3291.00	3290.50	3290.00	3289.50	3289.00	3288.75	3288.00	3288.00	3287.25	3286.50	3286.00	3285.50	3285.00	3284.00	3283.50	3283.00	3282.00	3281.25	3280.25	3279.00	3278.50	3278.00	3277.00	3276.75	3276.00	3275.00	3274.50	3274.00	3274.00	3273.00	3273.00	3272.25	3272.00	3271.00	3270.50	3270.00	3270.00	3269.50	3269.00	3269.00	3268.75	3268.00	3268.00	3267.75	3267.00	3267.00	3266.75	3266.00	3266.00	3265.50	3265.00	3265.00	3264.50	3264.00	3264.00	3263.25	3263.00	3263.00	3263.00	3263.00	3263.00	3262.50	3262.00	3262.00	3262.00	3262.00	3262.25	3263.00	3263.00	3263.00	3263.00	3263.00	3263.00	3262.25	3262.00	3262.00	3262.00	3261.00	3261.00	3260.25	3260.00	3260.00	3259.00	3259.00	3258.50	3258.00	3257.25	3257.00	3256.00	3255.50	3255.00	3254.25
3347.25	3347.12	3347.00	3347.00	3347.00	3347.00	3347.00	3347.00	3347.00	3347.00	3347.00	3347.00	3346.81	3346.00	3346.00	3346.00	3345.88	3345.00	3345.00	3344.81	3344.00	3343.62	3343.25	3342.81	3342.25	3342.25	3341.62	3341.25	3340.31	3339.88	3339.38	3339.06	3338.50	3338.31	3337.88	3337.44	3337.25	3336.44	3335.88	3335.31	3334.50	3333.88	3333.12	3332.00	3331.38	3330.44	3329.69	3328.75	3328.38	3327.50	3326.50	3326.00	3325.50	3324.62	3324.44	3323.69	3323.50	3323.50	3323.50	3323.44	3323.25	3323.25	3323.25	3323.25	3323.25	3323.25	3323.25	3323.25	3323.25	3323.25	3323.25	3323.25	3323.25	3323.25	3323.25	3323.06	3323.00	3323.00	3323.00	3323.00	3323.00	3323.00	3322.62	3322.25	3322.25	3322.25	3322.25	3322.25	3322.25	3322.25	3322.25	3322.25	3322.25	3322.25	3322.25	3322.25	3322.12	3322.00	3321.62	3321.25	3321.25	3321.25	3321.19	3321.00	3320.25	3320.19	3319.81	3319.25	3319.06	3318.62	3318.06	3317.56	3317.00	3317.00	3316.56	3316.00	3316.00	3315.38	3315.00	3314.62	3314.00	3313.44	3312.81	3312.25	3312.00	3311.44	3311.25	3310.62	3310.12	3309.81	3309.06	3308.25	3307.81	3307.00	3306.25	3305.25	3304.25	3303.50	3302.50	3301.75	3301.19	3300.38	3300.00	3299.06	3298.25	3297.88	3297.00	3296.38	3295.94	3295.19	3295.00	3294.75	3294.00	3294.00	3294.00	3293.38	3293.00	3293.00	3292.88	3292.75	3292.00	3292.00	3291.88	3291.56	3291.00	3290.88	3290.38	3289.88	3289.19	3288.94	3288.00	3288.00	3287.25	3286.50	3286.00	3285.12	3284.81	3283.81	3283.12	3282.25	3281.25	3280.50	3279.50	3278.62	3277.75	3277.25	3276.62	3276.19	3275.25	3275.00	3274.12	3273.44	3273.25	3273.00	3272.25	3272.06	3271.44	3271.00	3270.50	3270.00	3270.00	3269.50	3269.00	3269.00	3268.38	3268.00	3267.44	3267.19	3267.00	3266.44	3266.19	3266.00	3266.00	3265.12	3265.00	3265.00	3264.69	3264.00	3264.00	3263.81	3263.38	3263.00	3263.00	3262.81	3262.25	3262.12	3262.00	3262.00	3262.00	3262.00	3262.06	3262.25	3262.25	3262.25	3262.25	3262.25	3262.25	3262.06	3261.62	3261.25	3261.25	3260.25	3260.25	3260.06	3259.25	3259.25	3259.00	3258.44	3258.12	3257.81	3257.06	3256.81	3256.00	3255.88	3255.00	3254.81
3347.00	3347.00	3347.00	3347.00	3347.00	3347.00	3347.00	3347.00	3347.00	3347.00	3347.00	3347.00	3347.00	3346.00	3346.00	3346.00	3346.00	3345.00	3345.00	3344.75	3344.00	3343.50	3343.00	3342.75	3342.00	3342.00	3341.50	3341.00	3340.00	3339.50	3339.00	3338.75	3338.00	3338.00	3337.50	3337.00	3337.00	3336.00	3335.50	3335.00	3334.00	3333.50	3332.75	3331.50	3331.00	3330.00	3329.25	3328.25	3328.00	3327.00	3326.00	3325.50	3325.00	3324.00	3324.00	3323.25	3323.00	3323.00	3323.00	3323.00	3323.00	3323.00	3323.00	3323.00	3323.00	3323.00	3323.00	3323.00	3323.00	3323.00	3323.00	3323.00	3323.00	3323.00	3323.00	3323.00	3323.00	3323.00	3323.00	3323.00	3323.00	3323.00	3322.50	3322.00	3322.00	3322.00	3322.00	3322.00	3322.00	3322.00	3322.00	3322.00	3322.00	3322.00	3322.00	3322.00	3322.00	3322.00	3321.50	3321.00	3321.00	3321.00	3321.00	3321.00	3320.00	3320.00	3319.75	3319.00	3319.00	3318.50	3318.00	3317.50	3317.00	3317.00	3316.50	3316.00	3316.00	3315.25	3315.00	3314.50	3314.00	3313.25	3312.75	3312.00	3312.00	3311.25	3311.00	3310.50	3310.00	3309.75	3309.00	3308.00	3307.75	3306.75	3306.00	3305.00	3304.00	3303.25	3302.25	3301.50	3301.00	3300.25	3300.00	3299.00	3298.25	3298.00	3297.00	3296.50	3296.00	3295.25	3295.00	3295.00	3294.00	3294.00	3294.00	3293.50	3293.00	3293.00	3293.00	3293.00	3292.00	3292.00	3292.00	3291.75	3291.00	3291.00	3290.50	3290.00	3289.25	3289.00	3288.00	3288.00	3287.25	3286.50	3286.00	3285.00	3284.75	3283.75	3283.00	3282.00	3281.00	3280.25	3279.25	3278.50	3277.50	3277.00	3276.50	3276.00	3275.00	3275.00	3274.00	3273.25	3273.00	3273.00	3272.00	3272.00	3271.25	3271.00	3270.50	3270.00	3270.00	3269.50	3269.00	3269.00	3268.25	3268.00	3267.25	3267.00	3267.00	3266.25	3266.00	3266.00	3266.00	3265.00	3265.00	3265.00	3264.75	3264.00	3264.00	3264.00	3263.50	3263.00	3263.00	3262.75	3262.00	3262.00	3262.00	3262.00	3262.00	3262.00	3262.00	3262.00	3262.00	3262.00	3262.00	3262.00	3262.00	3262.00	3261.50	3261.00	3261.00	3260.00	3260.00	3260.00	3259.00	3259.00	3259.00	3258.25	3258.00	3257.75	3257.00	3256.75	3256.00	3256.00	3255.00	3255.00
3347.00	3347.00	3347.00	3347.00	3347.00	3347.00	3347.00	3347.00	3347.00	3347.00	3347.00	3347.00	3347.00	3346.00	3346.00	3346.00	3346.00	3345.00	3345.00	3344.75	3344.00	3343.50	3343.00	3342.75	3342.00	3342.00	3341.50	3341.00	3340.00	3339.50	3339.00	3338.75	3338.00	3338.00	3337.50	3337.00	3337.00	3336.00	3335.50	3335.00	3334.00	3333.50	3332.75	3331.50	3331.00	3330.00	3329.25	3328.25	3328.00	3327.00	3326.00	3325.50	3325.00	3324.00	3324.00	3323.25	3323.00	3323.00	3323.00	3323.00	3323.00	3323.00	3323.00	3323.00	3323.00	3323.00	3323.00	3323.00	3323.00	3323.00	3323.00	3323.00	3323.00	3323.00	3323.00	3323.00	3323.00	3323.00	3323.00	3323.00	3323.00	3323.00	3322.50	3322.00	3322.00	3322.00	3322.00	3322.00	3322.00	3322.00	3322.00	3322.00	3322.00	3322.00	3322.00	3322.00	3322.00	3322.00	3321.50	3321.00	3321.00	3321.00	3321.00	3321.00	3320.00	3320.00	3319.75	3319.00	3319.00	3318.50	3318.00	3317.50	3317.00	3317.00	3316.50	3316.00	3316.00	3315.25	3315.00	3314.50	3314.00	3313.25	3312.75	3312.00	3312.00	3311.25	3311.00	3310.50	3310.00	3309.75	3309.00	3308.00	3307.75	3306.75	3306.00	3305.00	3304.00	3303.25	3302.25	3301.50	3301.00	3300.25	3300.00	3299.00	3298.25	3298.00	3297.00	3296.50	3296.00	3295.25	3295.00	3295.00	3294.00	3294.00	3294.00	3293.50	3293.00	3293.00	3293.00	3293.00	3292.00	3292.00	3292.00	3291.75	3291.00	3291.00	3290.50	3290.00	3289.25	3289.00	3288.00	3288.00	3287.25	3286.50	3286.00	3285.00	3284.75	3283.75	3283.00	3282.00	3281.00	3280.25	3279.25	3278.50	3277.50	3277.00	3276.50	3276.00	3275.00	3275.00	3274.00	3273.25	3273.00	3273.00	3272.00	3272.00	3271.25	3271.00	3270.50	3270.00	3270.00	3269.50	3269.00	3269.00	3268.25	3268.00	3267.25	3267.00	3267.00	3266.25	3266.00	3266.00	3266.00	3265.00	3265.00	3265.00	3264.75	3264.00	3264.00	3264.00	3263.50	3263.00	3263.00	3262.75	3262.00	3262.00	3262.00	3262.00	3262.00	3262.00	3262.00	3262.00	3262.00	3262.00	3262.00	3262.00	3262.00	3262.00	3261.50	3261.00	3261.00	3260.00	3260.00	3260.00	3259.00	3259.00	3259.00	3258.25	3258.00	3257.75	3257.00	3256.75	3256.00	3256.00	3255.00	3255.00
3347.25	3347.19	3347.00	3347.00	3347.00	3347.00	3347.00	3347.00	3347.00	3347.00	3347.00	3347.00	3346.81	3346.00	3346.00	3345.81	3345.75	3344.88	3344.75	3344.50	3343.75	3343.12	3342.69	3342.31	3341.75	3341.50	3341.12	3340.56	3339.69	3339.12	3338.56	3338.31	3337.75	3337.50	3337.12	3336.56	3336.38	3335.50	3335.00	3334.44	3333.50	3332.88	3332.25	3331.12	3330.56	3329.69	3328.88	3327.94	3327.50	3326.62	3325.75	3325.19	3324.75	3323.75	3323.75	3323.12	3322.75	3322.75	3322.75	3322.75	3322.75	3322.75	3322.75	3322.75	3322.75	3322.75	3322.75	3322.75	3323.00	3323.00	3323.00	3323.00	3323.00	3323.00	3323.00	3323.00	3323.00	3323.00	3323.00	3323.00	3322.88	3322.75	3322.38	3322.00	3322.00	3322.00	3322.00	3322.00	3322.00	3322.00	3322.00	3322.00	3322.00	3322.00	3322.00	3322.00	3321.75	3321.75	3321.38	3321.00	3321.00	3320.88	3320.75	3320.75	3319.88	3319.75	3319.56	3318.88	3318.75	3318.38	3318.00	3317.50	3317.00	3317.00	3316.56	3316.00	3316.00	3315.25	3315.00	3314.50	3314.00	3313.44	3312.81	3312.12	3312.00	3311.25	3311.00	3310.38	3309.94	3309.56	3308.81	3308.00	3307.62	3306.62	3305.88	3304.88	3303.94	3303.19	3302.19	3301.38	3300.94	3300.19	3299.75	3299.00	3298.19	3297.88	3297.00	3296.38	3295.94	3295.19	3294.88	3294.75	3294.00	3293.81	3293.75	3293.38	3293.00	3293.00	3293.00	3293.00	3292.19	3292.00	3292.00	3291.81	3291.12	3291.00	3290.62	3290.00	3289.44	3289.00	3288.12	3288.00	3287.25	3286.62	3286.00	3285.00	3284.62	3283.69	3282.88	3281.94	3280.94	3280.19	3279.19	3278.50	3277.50	3276.94	3276.38	3275.81	3275.00	3274.75	3274.00	3273.25	3273.00	3273.00	3272.00	3271.94	3271.19	3271.00	3270.44	3270.00	3270.00	3269.38	3269.00	3268.94	3268.19	3268.00	3267.31	3267.00	3267.00	3266.44	3266.00	3266.00	3265.94	3265.00	3265.00	3264.94	3264.56	3264.00	3263.94	3263.75	3263.38	3262.94	3262.75	3262.56	3262.00	3262.00	3262.00	3262.00	3262.00	3261.75	3261.75	3261.75	3261.75	3261.75	3261.75	3261.75	3261.75	3261.75	3261.38	3260.88	3260.75	3260.00	3259.81	3259.75	3259.00	3258.81	3258.75	3258.19	3257.81	3257.56	3257.00	3256.81	3256.00	3256.00	3255.25	3255.06
3348.00	3347.75	3347.00	3347.00	3347.00	3347.00	3347.00	3347.00	3347.00	3347.00	3347.00	3347.00	3346.25	3346.00	3346.00	3345.25	3345.00	3344.50	3344.00	3343.75	3343.00	3342.00	3341.75	3341.00	3341.00	3340.00	3340.00	3339.25	3338.75	3338.00	3337.25	3337.00	3337.00	3336.00	3336.00	3335.25	3334.50	3334.00	3333.50	3332.75	3332.00	3331.00	3330.75	3330.00	3329.25	3328.75	3327.75	3327.00	3326.00	3325.50	3325.00	3324.25	3324.00	3323.00	3323.00	3322.75	3322.00	3322.00	3322.00	3322.00	3322.00	3322.00	3322.00	3322.00	3322.00	3322.00	3322.00	3322.00	3323.00	3323.00	3323.00	3323.00	3323.00	3323.00	3323.00	3323.00	3323.00	3323.00	3323.00	3323.00	3322.50	3322.00	3322.00	3322.00	3322.00	3322.00	3322.00	3322.00	3322.00	3322.00	3322.00	3322.00	3322.00	3322.00	3322.00	3322.00	3321.00	3321.00	3321.00	3321.00	3321.00	3320.50	3320.00	3320.00	3319.50	3319.00	3319.00	3318.50	3318.00	3318.00	3318.00	3317.50	3317.00	3317.00	3316.75	3316.00	3316.00	3315.25	3315.00	3314.50	3314.00	3314.00	3313.00	3312.50	3312.00	3311.25	3311.00	3310.00	3309.75	3309.00	3308.25	3308.00	3307.25	3306.25	3305.50	3304.50	3303.75	3303.00	3302.00	3301.00	3300.75	3300.00	3299.00	3299.00	3298.00	3297.50	3297.00	3296.00	3295.75	3295.00	3294.50	3294.00	3294.00	3293.25	3293.00	3293.00	3293.00	3293.00	3293.00	3293.00	3292.75	3292.00	3292.00	3292.00	3291.50	3291.00	3291.00	3290.00	3290.00	3289.00	3288.50	3288.00	3287.25	3287.00	3286.00	3285.00	3284.25	3283.50	3282.50	3281.75	3280.75	3280.00	3279.00	3278.50	3277.50	3276.75	3276.00	3275.25	3275.00	3274.00	3274.00	3273.25	3273.00	3273.00	3272.00	3271.75	3271.00	3271.00	3270.25	3270.00	3270.00	3269.00	3269.00	3268.75	3268.00	3268.00	3267.50	3267.00	3267.00	3267.00	3266.00	3266.00	3265.75	3265.00	3265.00	3264.75	3264.00	3264.00	3263.75	3263.00	3263.00	3262.75	3262.00	3262.00	3262.00	3262.00	3262.00	3262.00	3262.00	3261.00	3261.00	3261.00	3261.00	3261.00	3261.00	3261.00	3261.00	3261.00	3261.00	3260.50	3260.00	3260.00	3259.25	3259.00	3259.00	3258.25	3258.00	3258.00	3257.25	3257.00	3257.00	3257.00	3256.00	3256.00	3256.00	3255.25
3348.00	3347.75	3347.00	3347.00	3347.00	3347.00	3347.00	3347.00	3347.00	3347.00	3347.00	3347.00	3346.25	3346.00	3346.00	3345.25	3345.00	3344.50	3344.00	3343.75	3343.00	3342.00	3341.75	3341.00	3341.00	3340.00	3340.00	3339.25	3338.75	3338.00	3337.25	3337.00	3337.00	3336.00	3336.00	3335.25	3334.50	3334.00	3333.50	3332.75	3332.00	3331.00	3330.75	3330.00	3329.25	3328.75	3327.75	3327.00	3326.00	3325.50	3325.00	3324.25	3324.00	3323.00	3323.00	3322.75	3322.00	3322.00	3322.00	3322.00	3322.00	3322.00	3322.00	3322.00	3322.00	3322.00	3322.00	3322.00	3323.00	3323.00	3323.00	3323.00	3323.00	3323.00	3323.00	3323.00	3323.00	3323.00	3323.00	3323.00	3322.50	3322.00	3322.00	3322.00	3322.00	3322.00	3322.00	3322.00	3322.00	3322.00	3322.00	3322.00	3322.00	3322.00	3322.00	3322.00	3321.00	3321.00	3321.00	3321.00	3321.00	3320.50	3320.00	3320.00	3319.50	3319.00	3319.00	3318.50	3318.00	3318.00	3318.00	3317.50	3317.00	3317.00	3316.75	3316.00	3316.00	3315.25	3315.00	3314.50	3314.00	3314.00	3313.00	3312.50	3312.00	3311.25	3311.00	3310.00	3309.75	3309.00	3308.25	3308.00	3307.25	3306.25	3305.50	3304.50	3303.75	3303.00	3302.00	3301.00	3300.75	3300.00	3299.00	3299.00	3298.00	3297.50	3297.00	3296.00	3295.75	3295.00	3294.50	3294.00	3294.00	3293.25	3293.00	3293.00	3293.00	3293.00	3293.00	3293.00	3292.75	3292.00	3292.00	3292.00	3291.50	3291.00	3291.00	3290.00	3290.00	3289.00	3288.50	3288.00	3287.25	3287.00	3286.00	3285.00	3284.25	3283.50	3282.50	3281.75	3280.75	3280.00	3279.00	3278.50	3277.50	3276.75	3276.00	3275.25	3275.00	3274.00	3274.00	3273.25	3273.00	3273.00	3272.00	3271.75	3271.00	3271.00	3270.25	3270.00	3270.00	3269.00	3269.00	3268.75	3268.00	3268.00	3267.50	3267.00	3267.00	3267.00	3266.00	3266.00	3265.75	3265.00	3265.00	3264.75	3264.00	3264.00	3263.75	3263.00	3263.00	3262.75	3262.00	3262.00	3262.00	3262.00	3262.00	3262.00	3262.00	3261.00	3261.00	3261.00	3261.00	3261.00	3261.00	3261.00	3261.00	3261.00	3261.00	3260.50	3260.00	3260.00	3259.25	3259.00	3259.00	3258.25	3258.00	3258.00	3257.25	3257.00	3257.00	3257.00	3256.00	3256.00	3256.00	3255.25
3348.00	3347.75	3347.00	3347.00	3347.00	3347.00	3347.00	3347.00	3347.00	3347.00	3347.00	3347.00	3346.25	3346.00	3346.00	3345.25	3345.00	3344.50	3344.00	3343.75	3343.00	3342.00	3341.75	3341.00	3341.00	3340.00	3340.00	3339.25	3338.75	3338.00	3337.25	3337.00	3337.00	3336.00	3336.00	3335.25	3334.50	3334.00	3333.50	3332.75	3332.00	3331.00	3330.75	3330.00	3329.25	3328.75	3327.75	3327.00	3326.00	3325.50	3325.00	3324.25	3324.00	3323.00	3323.00	3322.75	3322.00	3322.00	3322.00	3322.00	3322.00	3322.00	3322.00	3322.00	3322.00	3322.00	3322.00	3322.00	3323.00	3323.00	3323.00	3323.00	3323.00	3323.00	3323.00	3323.00	3323.00	3323.00	3323.00	3323.00	3322.50	3322.00	3322.00	3322.00	3322.00	3322.00	3322.00	3322.00	3322.00	3322.00	3322.00	3322.00	3322.00	3322.00	3322.00	3322.00	3321.00	3321.00	3321.00	3321.00	3321.00	3320.50	3320.00	3320.00	3319.50	3319.00	3319.00	3318.50	3318.00	3318.00	3318.00	3317.50	3317.00	3317.00	3316.75	3316.00	3316.00	3315.25	3315.00	3314.50	3314.00	3314.00	3313.00	3312.50	3312.00	3311.25	3311.00	3310.00	3309.75	3309.00	3308.25	3308.00	3307.25	3306.25	3305.50	3304.50	3303.75	3303.00	3302.00	3301.00	3300.75	3300.00	3299.00	3299.00	3298.00	3297.50	3297.00	3296.00	3295.75	3295.00	3294.50	3294.00	3294.00	3293.25	3293.00	3293.00	3293.00	3293.00	3293.00	3293.00	3292.75	3292.00	3292.00	3292.00	3291.50	3291.00	3291.00	3290.00	3290.00	3289.00	3288.50	3288.00	3287.25	3287.00	3286.00	3285.00	3284.25	3283.50	3282.50	3281.75	3280.75	3280.00	3279.00	3278.50	3277.50	3276.75	3276.00	3275.25	3275.00	3274.00	3274.00	3273.25	3273.00	3273.00	3272.00	3271.75	3271.00	3271.00	3270.25	3270.00	3270.00	3269.00	3269.00	3268.75	3268.00	3268.00	3267.50	3267.00	3267.00	3267.00	3266.00	3266.00	3265.75	3265.00	3265.00	3264.75	3264.00	3264.00	3263.75	3263.00	3263.00	3262.75	3262.00	3262.00	3262.00	3262.00	3262.00	3262.00	3262.00	3261.00	3261.00	3261.00	3261.00	3261.00	3261.00	3261.00	3261.00	3261.00	3261.00	3260.50	3260.00	3260.00	3259.25	3259.00	3259.00	3258.25	3258.00	3258.00	3257.25	3257.00	3257.00	3257.00	3256.00	3256.00	3256.00	3255.25
3348.00	3348.00	3348.00	3347.25	3347.00	3347.00	3347.00	3347.00	3347.00	3347.00	3346.00	3346.00	3346.00	3345.00	3345.00	3344.25	3344.00	3343.50	3343.00	3342.75	3342.00	3341.50	3341.00	3340.00	3340.00	3339.00	3338.50	3338.00	3337.25	3337.00	3336.00	3335.75	3335.00	3335.00	3334.00	3333.75	3333.00	3332.50	3331.75	3331.00	3330.50	3330.00	3329.00	3328.50	3328.00	3327.00	3326.50	3326.00	3325.50	3325.00	3324.00	3323.50	3323.00	3322.75	3322.00	3322.00	3321.75	3321.00	3321.00	3321.00	3321.00	3321.00	3321.00	3321.00	3321.00	3321.00	3321.00	3321.00	3322.00	3322.00	3322.00	3322.00	3322.00	3322.00	3322.00	3322.00	3322.00	3322.00	3322.00	3322.00	3322.00	3322.00	3322.00	3322.00	3322.00	3322.00	3321.00	3321.00	3321.00	3321.00	3321.00	3321.00	3321.00	3321.00	3321.00	3321.00	3321.00	3321.00	3321.00	3321.00	3320.00	3320.00	3320.00	3320.00	3319.50	3319.00	3319.00	3319.00	3318.25	3318.00	3318.00	3318.00	3317.00	3317.00	3317.00	3316.00	3316.00	3315.75	3315.00	3315.00	3314.50	3314.00	3313.25	3312.50	3312.00	3311.00	3310.50	3310.00	3309.00	3308.75	3308.00	3307.00	3306.25	3305.75	3305.00	3304.00	3303.50	3302.50	3301.75	3301.00	3300.25	3299.25	3299.00	3298.25	3297.75	3297.00	3296.50	3296.00	3295.25	3295.00	3294.50	3294.00	3294.00	3293.75	3293.00	3293.00	3293.00	3293.00	3293.00	3293.00	3293.00	3292.50	3292.00	3292.00	3291.50	3291.00	3290.50	3290.00	3289.25	3289.00	3288.00	3288.00	3287.25	3286.50	3286.00	3285.00	3284.25	3283.50	3282.50	3281.75	3280.75	3280.00	3279.00	3278.00	3277.25	3276.75	3276.00	3275.25	3275.00	3274.00	3274.00	3273.25	3273.00	3272.25	3272.00	3271.75	3271.00	3271.00	3270.50	3270.00	3269.50	3269.00	3269.00	3268.75	3268.00	3268.00	3267.50	3267.00	3266.50	3266.00	3266.00	3265.25	3265.00	3265.00	3264.75	3264.00	3264.00	3264.00	3263.75	3263.00	3263.00	3263.00	3262.50	3262.00	3262.00	3262.00	3261.00	3261.00	3261.00	3261.00	3261.00	3260.75	3260.00	3260.00	3260.00	3260.00	3260.00	3260.00	3260.00	3260.00	3259.75	3259.00	3259.00	3259.00	3259.00	3258.25	3258.00	3258.00	3258.00	3257.50	3257.00	3257.00	3257.00	3256.25	3256.00	3256.00
3348.00	3348.00	3348.00	3347.25	3347.00	3347.00	3347.00	3347.00	3347.00	3347.00	3346.00	3346.00	3346.00	3345.00	3345.00	3344.25	3344.00	3343.50	3343.00	3342.75	3342.00	3341.50	3341.00	3340.00	3340.00	3339.00	3338.50	3338.00	3337.25	3337.00	3336.00	3335.75	3335.00	3335.00	3334.00	3333.75	3333.00	3332.50	3331.75	3331.00	3330.50	3330.00	3329.00	3328.50	3328.00	3327.00	3326.50	3326.00	3325.50	3325.00	3324.00	3323.50	3323.00	3322.75	3322.00	3322.00	3321.75	3321.00	3321.00	3321.00	3321.00	3321.00	3321.00	3321.00	3321.00	3321.00	3321.00	3321.00	3322.00	3322.00	3322.00	3322.00	3322.00	3322.00	3322.00	3322.00	3322.00	3322.00	3322.00	3322.00	3322.00	3322.00	3322.00	3322.00	3322.00	3322.00	3321.00	3321.00	3321.00	3321.00	3321.00	3321.00	3321.00	3321.00	3321.00	3321.00	3321.00	3321.00	3321.00	3321.00	3320.00	3320.00	3320.00	3320.00	3319.50	3319.00	3319.00	3319.00	3318.25	3318.00	3318.00	3318.00	3317.00	3317.00	3317.00	3316.00	3316.00	3315.75	3315.00	3315.00	3314.50	3314.00	3313.25	3312.50	3312.00	3311.00	3310.50	3310.00	3309.00	3308.75	3308.00	3307.00	3306.25	3305.75	3305.00	3304.00	3303.50	3302.50	3301.75	3301.00	3300.25	3299.25	3299.00	3298.25	3297.75	3297.00	3296.50	3296.00	3295.25	3295.00	3294.50	3294.00	3294.00	3293.75	3293.00	3293.00	3293.00	3293.00	3293.00	3293.00	3293.00	3292.50	3292.00	3292.00	3291.50	3291.00	3290.50	3290.00	3289.25	3289.00	3288.00	3288.00	3287.25	3286.50	3286.00	3285.00	3284.25	3283.50	3282.50	3281.75	3280.75	3280.00	3279.00	3278.00	3277.25	3276.75	3276.00	3275.25	3275.00	3274.00	3274.00	3273.25	3273.00	3272.25	3272.00	3271.75	3271.00	3271.00	3270.50	3270.00	3269.50	3269.00	3269.00	3268.75	3268.00	3268.00	3267.50	3267.00	3266.50	3266.00	3266.00	3265.25	3265.00	3265.00	3264.75	3264.00	3264.00	3264.00	3263.75	3263.00	3263.00	3263.00	3262.50	3262.00	3262.00	3262.00	3261.00	3261.00	3261.00	3261.00	3261.00	3260.75	3260.00	3260.00	3260.00	3260.00	3260.00	3260.00	3260.00	3260.00	3259.75	3259.00	3259.00	3259.00	3259.00	3258.25	3258.00	3258.00	3258.00	3257.50	3257.00	3257.00	3257.00	3256.25	3256.00	3256.00
3348.00	3348.00	3348.00	3347.25	3347.00	3347.00	3347.00	3347.00	3347.00	3347.00	3346.00	3346.00	3346.00	3345.00	3345.00	3344.25	3344.00	3343.50	3343.00	3342.75	3342.00	3341.50	3341.00	3340.00	3340.00	3339.00	3338.50	3338.00	3337.25	3337.00	3336.00	3335.75	3335.00	3335.00	3334.00	3333.75	3333.00	3332.50	3331.75	3331.00	3330.50	3330.00	3329.00	3328.50	3328.00	3327.00	3326.50	3326.00	3325.50	3325.00	3324.00	3323.50	3323.00	3322.75	3322.00	3322.00	3321.75	3321.00	3321.00	3321.00	3321.00	3321.00	3321.00	3321.00	3321.00	3321.00	3321.00	3321.00	3322.00	3322.00	3322.00	3322.00	3322.00	3322.00	3322.00	3322.00	3322.00	3322.00	3322.00	3322.00	3322.00	3322.00	3322.00	3322.00	3322.00	3322.00	3321.00	3321.00	3321.00	3321.00	3321.00	3321.00	3321.00	3321.00	3321.00	3321.00	3321.00	3321.00	3321.00	3321.00	3320.00	3320.00	3320.00	3320.00	3319.50	3319.00	3319.00	3319.00	3318.25	3318.00	3318.00	3318.00	3317.00	3317.00	3317.00	3316.00	3316.00	3315.75	3315.00	3315.00	3314.50	3314.00	3313.25	3312.50	3312.00	3311.00	3310.50	3310.00	3309.00	3308.75	3308.00	3307.00	3306.25	3305.75	3305.00	3304.00	3303.50	3302.50	3301.75	3301.00	3300.25	3299.25	3299.00	3298.25	3297.75	3297.00	3296.50	3296.00	3295.25	3295.00	3294.50	3294.00	3294.00	3293.75	3293.00	3293.00	3293.00	3293.00	3293.00	3293.00	3293.00	3292.50	3292.00	3292.00	3291.50	3291.00	3290.50	3290.00	3289.25	3289.00	3288.00	3288.00	3287.25	3286.50	3286.00	3285.00	3284.25	3283.50	3282.50	3281.75	3280.75	3280.00	3279.00	3278.00	3277.25	3276.75	3276.00	3275.25	3275.00	3274.00	3274.00	3273.25	3273.00	3272.25	3272.00	3271.75	3271.00	3271.00	3270.50	3270.00	3269.50	3269.00	3269.00	3268.75	3268.00	3268.00	3267.50	3267.00	3266.50	3266.00	3266.00	3265.25	3265.00	3265.00	3264.75	3264.00	3264.00	3264.00	3263.75	3263.00	3263.00	3263.00	3262.50	3262.00	3262.00	3262.00	3261.00	3261.00	3261.00	3261.00	3261.00	3260.75	3260.00	3260.00	3260.00	3260.00	3260.00	3260.00	3260.00	3260.00	3259.75	3259.00	3259.00	3259.00	3259.00	3258.25	3258.00	3258.00	3258.00	3257.50	3257.00	3257.00	3257.00	3256.25	3256.00	3256.00
