1182.00	1182.25	1183.00	1184.25	1185.00	1186.25	1188.00	1189.50	1190.50	1192.25	1194.00	1196.00	1197.50	1199.25	1201.25	1202.50	1203.50	1205.50	1206.75	1207.75	1208.50	1209.25	1210.75	1211.50	1212.75	1214.25	1215.75	1217.25	1219.25	1221.00	1223.00	1224.50	1226.75	1229.00	1231.25	1233.25	1235.50	1237.00	1238.25	1240.00	1241.50	1243.00	1243.25	1244.00	1244.00	1244.50	1245.75	1246.50	1247.50	1248.25	1249.00	1249.75	1250.00	1250.00	1250.00	1250.25	1251.00	1251.25	1252.25	1253.00	1254.25	1255.75	1256.50	1258.00	1259.50	1261.00	1262.75	1264.50	1265.75	1267.25	1268.75	1270.75	1272.25	1273.00	1274.25	1275.25	1276.00	1276.00	1276.00	1276.00	1276.00	1275.25	1275.00	1275.00	1275.00	1275.00	1276.00	1276.50	1277.25	1278.25	1279.50	1280.50	1282.00	1283.75	1285.50	1288.50	1291.00	1293.50	1296.25	1298.50	1300.50	1303.00	1305.50	1307.00	1308.25	1309.75	1311.00	1312.00	1312.25	1313.00	1313.00	1312.75	1312.00	1312.00	1311.00	1310.75	1309.75	1308.50	1307.75	1306.75	1305.00	1301.75	1298.00	1295.00	1295.00	1296.50	1298.75	1300.50	1301.75	1303.25	1305.25	1306.75	1309.25	1313.00	1317.50	1321.75	1325.50	1330.50	1335.25	1339.50	1344.25	1349.00	1353.50	1358.75	1362.50	1368.00	1372.25	1376.50	1380.25	1384.00	1387.50	1390.00	1393.00	1396.25	1399.00	1401.50	1404.25	1406.75	1409.75	1412.00	1414.75	1417.50	1420.00	1422.75	1425.25	1428.25	1431.75	1434.00	1436.75	1439.00	1440.75	1442.50	1444.25	1445.75	1447.75	1449.25	1451.50	1453.50	1455.00	1456.75	1458.50	1460.75	1463.00	1464.75	1466.75	1468.25	1469.25	1470.25	1471.00	1472.50	1473.75	1474.50	1475.75	1476.00	1476.75	1477.00	1477.00	1477.50	1478.00	1478.75	1479.75	1480.50	1482.00	1483.25	1484.50	1485.75	1488.00	1490.50	1493.25	1496.00	1498.75	1502.25	1505.25	1509.25	1512.25	1516.00	1519.50	1523.00	1526.50	1529.25	1532.25	1536.00	1539.00	1541.75	1544.50	1547.00	1550.00	1551.50	1552.75	1553.25	1554.00	1555.25	1557.25	1558.75	1560.25	1562.50	1564.00	1567.00	1568.50	1571.25	1572.75	1574.50	1576.75	1578.50	1580.25	1582.75	1584.25	1586.50	1588.00	1588.50	1589.00	1590.00	1590.75	1592.25	1593.50	1595.50
1182.00	1182.25	1183.00	1184.25	1185.00	1186.25	1188.00	1189.50	1190.50	1192.25	1194.00	1196.00	1197.50	1199.25	1201.25	1202.50	1203.50	1205.50	1206.75	1207.75	1208.50	1209.25	1210.75	1211.50	1212.75	1214.25	1215.75	1217.25	1219.25	1221.00	1223.00	1224.50	1226.75	1229.00	1231.25	1233.25	1235.50	1237.00	1238.25	1240.00	1241.50	1243.00	1243.25	1244.00	1244.00	1244.50	1245.75	1246.50	1247.50	1248.25	1249.00	1249.75	1250.00	1250.00	1250.00	1250.25	1251.00	1251.25	1252.25	1253.00	1254.25	1255.75	1256.50	1258.00	1259.50	1261.00	1262.75	1264.50	1265.75	1267.25	1268.75	1270.75	1272.25	1273.00	1274.25	1275.25	1276.00	1276.00	1276.00	1276.00	1276.00	1275.25	1275.00	1275.00	1275.00	1275.00	1276.00	1276.50	1277.25	1278.25	1279.50	1280.50	1282.00	1283.75	1285.50	1288.50	1291.00	1293.50	1296.25	1298.50	1300.50	1303.00	1305.50	1307.00	1308.25	1309.75	1311.00	1312.00	1312.25	1313.00	1313.00	1312.75	1312.00	1312.00	1311.00	1310.75	1309.75	1308.50	1307.75	1306.75	1305.00	1301.75	1298.00	1295.00	1295.00	1296.50	1298.75	1300.50	1301.75	1303.25	1305.25	1306.75	1309.25	1313.00	1317.50	1321.75	1325.50	1330.50	1335.25	1339.50	1344.25	1349.00	1353.50	1358.75	1362.50	1368.00	1372.25	1376.50	1380.25	1384.00	1387.50	1390.00	1393.00	1396.25	1399.00	1401.50	1404.25	1406.75	1409.75	1412.00	1414.75	1417.50	1420.00	1422.75	1425.25	1428.25	1431.75	1434.00	1436.75	1439.00	1440.75	1442.50	1444.25	1445.75	1447.75	1449.25	1451.50	1453.50	1455.00	1456.75	1458.50	1460.75	1463.00	1464.75	1466.75	1468.25	1469.25	1470.25	1471.00	1472.50	1473.75	1474.50	1475.75	1476.00	1476.75	1477.00	1477.00	1477.50	1478.00	1478.75	1479.75	1480.50	1482.00	1483.25	1484.50	1485.75	1488.00	1490.50	1493.25	1496.00	1498.75	1502.25	1505.25	1509.25	1512.25	1516.00	1519.50	1523.00	1526.50	1529.25	1532.25	1536.00	1539.00	1541.75	1544.50	1547.00	1550.00	1551.50	1552.75	1553.25	1554.00	1555.25	1557.25	1558.75	1560.25	1562.50	1564.00	1567.00	1568.50	1571.25	1572.75	1574.50	1576.75	1578.50	1580.25	1582.75	1584.25	1586.50	1588.00	1588.50	1589.00	1590.00	1590.75	1592.25	1593.50	1595.50
1181.62	1182.06	1182.81	1183.50	1184.62	1185.88	1187.25	1188.19	1189.75	1191.69	1193.25	1195.25	1196.75	1198.50	1200.12	1201.19	1202.75	1204.00	1205.25	1206.25	1207.38	1208.12	1209.25	1210.19	1211.81	1212.94	1214.25	1216.12	1217.75	1219.31	1221.31	1223.00	1225.06	1227.31	1229.19	1231.19	1233.06	1234.75	1236.38	1238.12	1239.25	1240.56	1241.19	1242.12	1242.88	1243.75	1245.00	1246.31	1247.50	1248.62	1249.38	1250.31	1250.94	1251.69	1252.25	1253.25	1254.19	1255.00	1256.38	1257.88	1258.75	1260.25	1261.56	1263.25	1264.75	1266.06	1267.62	1269.00	1269.88	1271.38	1272.50	1273.75	1274.69	1275.81	1276.88	1277.31	1277.50	1277.50	1277.50	1277.50	1277.50	1277.31	1277.25	1277.25	1277.44	1278.00	1278.25	1278.94	1279.50	1280.31	1281.19	1282.00	1283.69	1285.44	1287.00	1290.00	1291.94	1294.25	1297.00	1299.44	1301.62	1303.56	1305.50	1307.00	1308.62	1309.94	1310.62	1311.25	1311.88	1312.25	1312.25	1312.19	1311.81	1311.25	1311.00	1310.19	1309.75	1308.88	1308.69	1308.25	1307.25	1306.25	1304.38	1301.75	1300.06	1299.88	1300.44	1301.81	1303.06	1304.38	1305.44	1306.94	1310.56	1313.38	1317.12	1321.19	1325.12	1330.50	1335.44	1340.06	1344.62	1349.00	1353.50	1358.19	1361.94	1366.50	1370.75	1375.19	1379.12	1382.69	1386.00	1388.69	1392.06	1394.19	1396.75	1398.88	1401.25	1403.56	1406.00	1407.69	1410.25	1412.25	1414.75	1417.31	1419.25	1421.88	1425.38	1427.44	1430.00	1432.62	1434.94	1437.44	1439.75	1442.00	1444.75	1447.38	1450.19	1453.50	1455.19	1458.44	1460.75	1463.38	1466.00	1468.12	1470.31	1472.19	1473.56	1475.12	1475.88	1477.00	1477.88	1478.62	1478.94	1479.00	1479.19	1479.25	1479.25	1479.38	1480.25	1480.44	1481.44	1482.00	1483.12	1483.81	1485.06	1486.50	1488.56	1490.50	1493.25	1496.75	1499.69	1503.00	1505.81	1509.62	1512.62	1515.81	1519.12	1522.81	1526.50	1529.81	1533.00	1536.75	1539.75	1542.50	1545.62	1548.50	1550.75	1552.25	1553.88	1555.12	1556.81	1558.62	1561.00	1562.69	1564.56	1566.62	1568.31	1570.56	1572.06	1574.44	1576.12	1577.88	1579.94	1582.25	1584.19	1586.69	1588.75	1590.44	1591.75	1592.44	1593.31	1594.50	1595.25	1597.12	1598.38	1600.00
1181.50	1182.00	1182.75	1183.25	1184.50	1185.75	1187.00	1187.75	1189.50	1191.50	1193.00	1195.00	1196.50	1198.25	1199.75	1200.75	1202.50	1203.50	1204.75	1205.75	1207.00	1207.75	1208.75	1209.75	1211.50	1212.50	1213.75	1215.75	1217.25	1218.75	1220.75	1222.50	1224.50	1226.75	1228.50	1230.50	1232.25	1234.00	1235.75	1237.50	1238.50	1239.75	1240.50	1241.50	1242.50	1243.50	1244.75	1246.25	1247.50	1248.75	1249.50	1250.50	1251.25	1252.25	1253.00	1254.25	1255.25	1256.25	1257.75	1259.50	1260.25	1261.75	1263.25	1265.00	1266.50	1267.75	1269.25	1270.50	1271.25	1272.75	1273.75	1274.75	1275.50	1276.75	1277.75	1278.00	1278.00	1278.00	1278.00	1278.00	1278.00	1278.00	1278.00	1278.00	1278.25	1279.00	1279.00	1279.75	1280.25	1281.00	1281.75	1282.50	1284.25	1286.00	1287.50	1290.50	1292.25	1294.50	1297.25	1299.75	1302.00	1303.75	1305.50	1307.00	1308.75	1310.00	1310.50	1311.00	1311.75	1312.00	1312.00	1312.00	1311.75	1311.00	1311.00	1310.00	1309.75	1309.00	1309.00	1308.75	1308.00	1307.75	1306.50	1304.00	1301.75	1301.00	1301.00	1302.25	1303.50	1304.75	1305.50	1307.00	1311.00	1313.50	1317.00	1321.00	1325.00	1330.50	1335.50	1340.25	1344.75	1349.00	1353.50	1358.00	1361.75	1366.00	1370.25	1374.75	1378.75	1382.25	1385.50	1388.25	1391.75	1393.50	1396.00	1398.00	1400.25	1402.50	1404.75	1406.25	1408.75	1410.50	1413.00	1415.50	1417.25	1419.75	1423.25	1425.25	1427.75	1430.50	1433.00	1435.75	1438.25	1440.75	1443.75	1446.75	1449.75	1453.50	1455.25	1459.00	1461.50	1464.25	1467.00	1469.25	1471.50	1473.50	1475.00	1476.75	1477.50	1478.50	1479.25	1480.00	1480.00	1480.00	1480.00	1480.00	1480.00	1480.00	1481.00	1481.00	1482.00	1482.50	1483.50	1484.00	1485.25	1486.75	1488.75	1490.50	1493.25	1497.00	1500.00	1503.25	1506.00	1509.75	1512.75	1515.75	1519.00	1522.75	1526.50	1530.00	1533.25	1537.00	1540.00	1542.75	1546.00	1549.00	1551.00	1552.50	1554.25	1555.75	1557.75	1559.75	1562.25	1564.00	1566.00	1568.00	1569.75	1571.75	1573.25	1575.50	1577.25	1579.00	1581.00	1583.50	1585.50	1588.00	1590.25	1591.75	1593.00	1593.75	1594.75	1596.00	1596.75	1598.75	1600.00	1601.50
1181.50	1182.00	1182.75	1183.25	1184.50	1185.75	1187.00	1187.75	1189.50	1191.50	1193.00	1195.00	1196.50	1198.25	1199.75	1200.75	1202.50	1203.50	1204.75	1205.75	1207.00	1207.75	1208.75	1209.75	1211.50	1212.50	1213.75	1215.75	1217.25	1218.75	1220.75	1222.50	1224.50	1226.75	1228.50	1230.50	1232.25	1234.00	1235.75	1237.50	1238.50	1239.75	1240.50	1241.50	1242.50	1243.50	1244.75	1246.25	1247.50	1248.75	1249.50	1250.50	1251.25	1252.25	1253.00	1254.25	1255.25	1256.25	1257.75	1259.50	1260.25	1261.75	1263.25	1265.00	1266.50	1267.75	1269.25	1270.50	1271.25	1272.75	1273.75	1274.75	1275.50	1276.75	1277.75	1278.00	1278.00	1278.00	1278.00	1278.00	1278.00	1278.00	1278.00	1278.00	1278.25	1279.00	1279.00	1279.75	1280.25	1281.00	1281.75	1282.50	1284.25	1286.00	1287.50	1290.50	1292.25	1294.50	1297.25	1299.75	1302.00	1303.75	1305.50	1307.00	1308.75	1310.00	1310.50	1311.00	1311.75	1312.00	1312.00	1312.00	1311.75	1311.00	1311.00	1310.00	1309.75	1309.00	1309.00	1308.75	1308.00	1307.75	1306.50	1304.00	1301.75	1301.00	1301.00	1302.25	1303.50	1304.75	1305.50	1307.00	1311.00	1313.50	1317.00	1321.00	1325.00	1330.50	1335.50	1340.25	1344.75	1349.00	1353.50	1358.00	1361.75	1366.00	1370.25	1374.75	1378.75	1382.25	1385.50	1388.25	1391.75	1393.50	1396.00	1398.00	1400.25	1402.50	1404.75	1406.25	1408.75	1410.50	1413.00	1415.50	1417.25	1419.75	1423.25	1425.25	1427.75	1430.50	1433.00	1435.75	1438.25	1440.75	1443.75	1446.75	1449.75	1453.50	1455.25	1459.00	1461.50	1464.25	1467.00	1469.25	1471.50	1473.50	1475.00	1476.75	1477.50	1478.50	1479.25	1480.00	1480.00	1480.00	1480.00	1480.00	1480.00	1480.00	1481.00	1481.00	1482.00	1482.50	1483.50	1484.00	1485.25	1486.75	1488.75	1490.50	1493.25	1497.00	1500.00	1503.25	1506.00	1509.75	1512.75	1515.75	1519.00	1522.75	1526.50	1530.00	1533.25	1537.00	1540.00	1542.75	1546.00	1549.00	1551.00	1552.50	1554.25	1555.75	1557.75	1559.75	1562.25	1564.00	1566.00	1568.00	1569.75	1571.75	1573.25	1575.50	1577.25	1579.00	1581.00	1583.50	1585.50	1588.00	1590.25	1591.75	1593.00	1593.75	1594.75	1596.00	1596.75	1598.75	1600.00	1601.50
1181.88	1182.31	1183.06	1183.75	1184.88	1186.06	1187.31	1188.19	1189.75	1191.69	1193.06	1195.00	1196.50	1198.12	1199.62	1200.56	1202.12	1203.12	1204.25	1205.25	1206.25	1207.06	1208.06	1209.00	1210.56	1211.50	1212.75	1214.62	1216.06	1217.56	1219.62	1221.50	1223.44	1225.56	1227.31	1229.31	1231.12	1232.94	1234.81	1236.50	1237.88	1239.12	1239.88	1240.81	1241.75	1242.88	1244.12	1245.81	1247.25	1248.50	1249.44	1250.56	1251.50	1252.56	1253.44	1254.88	1256.12	1257.38	1258.88	1260.62	1261.69	1263.31	1264.81	1266.62	1268.00	1269.25	1270.62	1271.88	1272.62	1274.00	1274.81	1275.81	1276.62	1277.56	1278.31	1278.50	1278.56	1278.75	1278.75	1278.75	1278.75	1278.75	1278.75	1278.75	1278.94	1279.50	1279.50	1280.31	1280.75	1281.50	1282.25	1283.19	1284.81	1286.44	1288.00	1290.75	1292.62	1294.75	1297.50	1299.69	1301.81	1303.50	1305.25	1306.75	1308.25	1309.38	1310.12	1310.69	1311.31	1311.62	1311.75	1311.75	1311.56	1310.75	1310.75	1310.00	1309.81	1309.25	1309.25	1309.19	1308.69	1308.00	1306.50	1304.19	1301.81	1301.19	1301.38	1302.50	1303.62	1304.88	1305.94	1307.50	1311.00	1313.50	1317.00	1321.06	1324.94	1330.12	1334.94	1339.50	1344.06	1348.25	1352.81	1357.19	1360.81	1365.19	1369.25	1373.56	1377.31	1380.88	1384.12	1386.94	1390.25	1392.19	1394.75	1396.69	1398.81	1400.94	1403.12	1404.62	1406.88	1408.62	1410.94	1413.31	1415.25	1417.75	1421.12	1423.19	1425.88	1428.75	1431.44	1434.25	1436.75	1439.56	1442.81	1445.81	1449.00	1452.94	1455.19	1459.19	1461.88	1464.88	1467.75	1470.00	1472.44	1474.44	1476.00	1477.62	1478.50	1479.56	1480.44	1481.19	1481.44	1481.56	1481.75	1481.56	1481.50	1481.50	1482.25	1482.38	1483.25	1483.62	1484.50	1485.25	1486.62	1488.19	1490.25	1492.00	1494.75	1498.25	1501.12	1504.38	1507.19	1510.88	1513.81	1517.00	1520.12	1523.56	1527.25	1530.56	1533.62	1537.19	1540.00	1542.88	1546.12	1548.75	1551.00	1552.50	1554.44	1556.00	1558.12	1560.25	1562.75	1564.50	1566.50	1568.38	1570.06	1572.06	1573.62	1575.94	1577.62	1579.50	1581.50	1583.75	1585.81	1588.25	1590.31	1591.94	1593.31	1594.31	1595.50	1596.81	1597.69	1599.50	1600.75	1602.25
1183.00	1183.25	1184.00	1185.25	1186.00	1187.00	1188.25	1189.50	1190.50	1192.25	1193.25	1195.00	1196.50	1197.75	1199.25	1200.00	1201.00	1202.00	1202.75	1203.75	1204.00	1205.00	1206.00	1206.75	1207.75	1208.50	1209.75	1211.25	1212.50	1214.00	1216.25	1218.50	1220.25	1222.00	1223.75	1225.75	1227.75	1229.75	1232.00	1233.50	1236.00	1237.25	1238.00	1238.75	1239.50	1241.00	1242.25	1244.50	1246.50	1247.75	1249.25	1250.75	1252.25	1253.50	1254.75	1256.75	1258.75	1260.75	1262.25	1264.00	1266.00	1268.00	1269.50	1271.50	1272.50	1273.75	1274.75	1276.00	1276.75	1277.75	1278.00	1279.00	1280.00	1280.00	1280.00	1280.00	1280.25	1281.00	1281.00	1281.00	1281.00	1281.00	1281.00	1281.00	1281.00	1281.00	1281.00	1282.00	1282.25	1283.00	1283.75	1285.25	1286.50	1287.75	1289.50	1291.50	1293.75	1295.50	1298.25	1299.50	1301.25	1302.75	1304.50	1306.00	1306.75	1307.50	1309.00	1309.75	1310.00	1310.50	1311.00	1311.00	1311.00	1310.00	1310.00	1310.00	1310.00	1310.00	1310.00	1310.50	1310.75	1308.75	1306.50	1304.75	1302.00	1301.75	1302.50	1303.25	1304.00	1305.25	1307.25	1309.00	1311.00	1313.50	1317.00	1321.25	1324.75	1329.00	1333.25	1337.25	1342.00	1346.00	1350.75	1354.75	1358.00	1362.75	1366.25	1370.00	1373.00	1376.75	1380.00	1383.00	1385.75	1388.25	1391.00	1392.75	1394.50	1396.25	1398.25	1399.75	1401.25	1403.00	1404.75	1406.75	1409.25	1411.75	1414.75	1417.00	1420.25	1423.50	1426.75	1429.75	1432.25	1436.00	1440.00	1443.00	1446.75	1451.25	1455.00	1459.75	1463.00	1466.75	1470.00	1472.25	1475.25	1477.25	1479.00	1480.25	1481.50	1482.75	1484.00	1484.75	1485.75	1486.25	1487.00	1486.25	1486.00	1486.00	1486.00	1486.50	1487.00	1487.00	1487.50	1489.00	1490.75	1492.50	1494.75	1496.50	1499.25	1502.00	1504.50	1507.75	1510.75	1514.25	1517.00	1520.75	1523.50	1526.00	1529.50	1532.25	1534.75	1537.75	1540.00	1543.25	1546.50	1548.00	1551.00	1552.50	1555.00	1556.75	1559.25	1561.75	1564.25	1566.00	1568.00	1569.50	1571.00	1573.00	1574.75	1577.25	1578.75	1581.00	1583.00	1584.50	1586.75	1589.00	1590.50	1592.50	1594.25	1596.00	1597.75	1599.25	1600.50	1601.75	1603.00	1604.50
1183.00	1183.25	1184.00	1185.25	1186.00	1187.00	1188.25	1189.50	1190.50	1192.25	1193.25	1195.00	1196.50	1197.75	1199.25	1200.00	1201.00	1202.00	1202.75	1203.75	1204.00	1205.00	1206.00	1206.75	1207.75	1208.50	1209.75	1211.25	1212.50	1214.00	1216.25	1218.50	1220.25	1222.00	1223.75	1225.75	1227.75	1229.75	1232.00	1233.50	1236.00	1237.25	1238.00	1238.75	1239.50	1241.00	1242.25	1244.50	1246.50	1247.75	1249.25	1250.75	1252.25	1253.50	1254.75	1256.75	1258.75	1260.75	1262.25	1264.00	1266.00	1268.00	1269.50	1271.50	1272.50	1273.75	1274.75	1276.00	1276.75	1277.75	1278.00	1279.00	1280.00	1280.00	1280.00	1280.00	1280.25	1281.00	1281.00	1281.00	1281.00	1281.00	1281.00	1281.00	1281.00	1281.00	1281.00	1282.00	1282.25	1283.00	1283.75	1285.25	1286.50	1287.75	1289.50	1291.50	1293.75	1295.50	1298.25	1299.50	1301.25	1302.75	1304.50	1306.00	1306.75	1307.50	1309.00	1309.75	1310.00	1310.50	1311.00	1311.00	1311.00	1310.00	1310.00	1310.00	1310.00	1310.00	1310.00	1310.50	1310.75	1308.75	1306.50	1304.75	1302.00	1301.75	1302.50	1303.25	1304.00	1305.25	1307.25	1309.00	1311.00	1313.50	1317.00	1321.25	1324.75	1329.00	1333.25	1337.25	1342.00	1346.00	1350.75	1354.75	1358.00	1362.75	1366.25	1370.00	1373.00	1376.75	1380.00	1383.00	1385.75	1388.25	1391.00	1392.75	1394.50	1396.25	1398.25	1399.75	1401.25	1403.00	1404.75	1406.75	1409.25	1411.75	1414.75	1417.00	1420.25	1423.50	1426.75	1429.75	1432.25	1436.00	1440.00	1443.00	1446.75	1451.25	1455.00	1459.75	1463.00	1466.75	1470.00	1472.25	1475.25	1477.25	1479.00	1480.25	1481.50	1482.75	1484.00	1484.75	1485.75	1486.25	1487.00	1486.25	1486.00	1486.00	1486.00	1486.50	1487.00	1487.00	1487.50	1489.00	1490.75	1492.50	1494.75	1496.50	1499.25	1502.00	1504.50	1507.75	1510.75	1514.25	1517.00	1520.75	1523.50	1526.00	1529.50	1532.25	1534.75	1537.75	1540.00	1543.25	1546.50	1548.00	1551.00	1552.50	1555.00	1556.75	1559.25	1561.75	1564.25	1566.00	1568.00	1569.50	1571.00	1573.00	1574.75	1577.25	1578.75	1581.00	1583.00	1584.50	1586.75	1589.00	1590.50	1592.50	1594.25	1596.00	1597.75	1599.25	1600.50	1601.75	1603.00	1604.50
1183.00	1183.25	1184.00	1185.25	1186.00	1187.00	1188.25	1189.50	1190.50	1192.25	1193.25	1195.00	1196.50	1197.75	1199.25	1200.00	1201.00	1202.00	1202.75	1203.75	1204.00	1205.00	1206.00	1206.75	1207.75	1208.50	1209.75	1211.25	1212.50	1214.00	1216.25	1218.50	1220.25	1222.00	1223.75	1225.75	1227.75	1229.75	1232.00	1233.50	1236.00	1237.25	1238.00	1238.75	1239.50	1241.00	1242.25	1244.50	1246.50	1247.75	1249.25	1250.75	1252.25	1253.50	1254.75	1256.75	1258.75	1260.75	1262.25	1264.00	1266.00	1268.00	1269.50	1271.50	1272.50	1273.75	1274.75	1276.00	1276.75	1277.75	1278.00	1279.00	1280.00	1280.00	1280.00	1280.00	1280.25	1281.00	1281.00	1281.00	1281.00	1281.00	1281.00	1281.00	1281.00	1281.00	1281.00	1282.00	1282.25	1283.00	1283.75	1285.25	1286.50	1287.75	1289.50	1291.50	1293.75	1295.50	1298.25	1299.50	1301.25	1302.75	1304.50	1306.00	1306.75	1307.50	1309.00	1309.75	1310.00	1310.50	1311.00	1311.00	1311.00	1310.00	1310.00	1310.00	1310.00	1310.00	1310.00	1310.50	1310.75	1308.75	1306.50	1304.75	1302.00	1301.75	1302.50	1303.25	1304.00	1305.25	1307.25	1309.00	1311.00	1313.50	1317.00	1321.25	1324.75	1329.00	1333.25	1337.25	1342.00	1346.00	1350.75	1354.75	1358.00	1362.75	1366.25	1370.00	1373.00	1376.75	1380.00	1383.00	1385.75	1388.25	1391.00	1392.75	1394.50	1396.25	1398.25	1399.75	1401.25	1403.00	1404.75	1406.75	1409.25	1411.75	1414.75	1417.00	1420.25	1423.50	1426.75	1429.75	1432.25	1436.00	1440.00	1443.00	1446.75	1451.25	1455.00	1459.75	1463.00	1466.75	1470.00	1472.25	1475.25	1477.25	1479.00	1480.25	1481.50	1482.75	1484.00	1484.75	1485.75	1486.25	1487.00	1486.25	1486.00	1486.00	1486.00	1486.50	1487.00	1487.00	1487.50	1489.00	1490.75	1492.50	1494.75	1496.50	1499.25	1502.00	1504.50	1507.75	1510.75	1514.25	1517.00	1520.75	1523.50	1526.00	1529.50	1532.25	1534.75	1537.75	1540.00	1543.25	1546.50	1548.00	1551.00	1552.50	1555.00	1556.75	1559.25	1561.75	1564.25	1566.00	1568.00	1569.50	1571.00	1573.00	1574.75	1577.25	1578.75	1581.00	1583.00	1584.50	1586.75	1589.00	1590.50	1592.50	1594.25	1596.00	1597.75	1599.25	1600.50	1601.75	1603.00	1604.50
1184.69	1185.31	1186.06	1186.75	1187.50	1188.50	1189.56	1190.44	1191.62	1192.81	1193.62	1195.00	1196.12	1197.19	1198.12	1198.50	1199.12	1199.75	1199.94	1200.38	1201.00	1201.25	1202.06	1202.44	1203.44	1204.00	1205.06	1206.38	1207.81	1208.94	1210.81	1212.50	1214.62	1216.56	1218.31	1220.31	1222.31	1224.31	1226.56	1228.25	1230.38	1232.38	1233.50	1234.81	1235.94	1238.00	1239.81	1242.25	1244.25	1246.44	1248.12	1250.38	1252.25	1254.25	1256.62	1259.00	1261.00	1263.19	1265.62	1268.12	1270.50	1272.50	1274.00	1275.25	1276.81	1277.88	1278.88	1279.75	1280.50	1281.12	1281.75	1282.00	1282.25	1282.25	1282.25	1282.25	1282.31	1282.50	1282.50	1282.50	1282.50	1282.50	1282.50	1282.50	1282.50	1282.50	1282.88	1283.50	1284.12	1284.88	1285.81	1286.94	1288.19	1289.25	1290.62	1292.25	1293.94	1295.50	1297.12	1298.56	1299.94	1301.25	1302.25	1303.75	1304.50	1305.62	1306.38	1306.94	1307.56	1307.88	1308.00	1308.00	1308.00	1307.75	1307.75	1307.75	1307.75	1307.75	1307.00	1307.12	1307.00	1305.75	1304.62	1303.44	1302.75	1303.25	1304.00	1304.56	1305.31	1306.38	1307.44	1308.81	1311.00	1313.50	1316.81	1320.50	1323.62	1328.06	1331.75	1335.19	1339.56	1343.38	1347.75	1351.75	1355.00	1359.19	1362.50	1366.06	1369.25	1373.00	1375.88	1378.50	1381.44	1384.50	1386.50	1388.44	1390.19	1391.94	1393.75	1394.88	1396.00	1397.38	1398.94	1401.50	1404.00	1406.50	1409.88	1412.69	1416.31	1419.75	1423.00	1426.75	1430.38	1433.75	1437.94	1441.50	1446.94	1452.75	1456.50	1462.00	1465.25	1468.62	1472.06	1474.50	1477.12	1479.12	1480.88	1482.88	1484.12	1485.56	1487.00	1488.31	1489.50	1490.19	1490.19	1489.81	1489.75	1490.50	1490.69	1491.38	1491.50	1492.44	1493.50	1494.81	1496.38	1497.75	1500.00	1501.75	1504.12	1506.50	1509.00	1511.31	1513.75	1516.88	1519.25	1522.25	1525.38	1528.25	1531.00	1533.00	1535.12	1537.56	1539.25	1542.12	1544.25	1546.50	1549.50	1551.56	1554.06	1556.00	1558.50	1560.25	1563.12	1564.69	1567.06	1568.75	1570.44	1573.00	1574.56	1576.88	1578.75	1581.00	1583.00	1584.50	1586.56	1588.44	1590.31	1592.31	1593.88	1596.38	1598.12	1600.19	1601.81	1603.62	1604.88	1606.75
1185.25	1186.00	1186.75	1187.25	1188.00	1189.00	1190.00	1190.75	1192.00	1193.00	1193.75	1195.00	1196.00	1197.00	1197.75	1198.00	1198.50	1199.00	1199.00	1199.25	1200.00	1200.00	1200.75	1201.00	1202.00	1202.50	1203.50	1204.75	1206.25	1207.25	1209.00	1210.50	1212.75	1214.75	1216.50	1218.50	1220.50	1222.50	1224.75	1226.50	1228.50	1230.75	1232.00	1233.50	1234.75	1237.00	1239.00	1241.50	1243.50	1246.00	1247.75	1250.25	1252.25	1254.50	1257.25	1259.75	1261.75	1264.00	1266.75	1269.50	1272.00	1274.00	1275.50	1276.50	1278.25	1279.25	1280.25	1281.00	1281.75	1282.25	1283.00	1283.00	1283.00	1283.00	1283.00	1283.00	1283.00	1283.00	1283.00	1283.00	1283.00	1283.00	1283.00	1283.00	1283.00	1283.00	1283.50	1284.00	1284.75	1285.50	1286.50	1287.50	1288.75	1289.75	1291.00	1292.50	1294.00	1295.50	1296.75	1298.25	1299.50	1300.75	1301.50	1303.00	1303.75	1305.00	1305.50	1306.00	1306.75	1307.00	1307.00	1307.00	1307.00	1307.00	1307.00	1307.00	1307.00	1307.00	1306.00	1306.00	1305.75	1304.75	1304.00	1303.00	1303.00	1303.75	1304.50	1305.00	1305.75	1306.75	1307.50	1308.75	1311.00	1313.50	1316.75	1320.25	1323.25	1327.75	1331.25	1334.50	1338.75	1342.50	1346.75	1350.75	1354.00	1358.00	1361.25	1364.75	1368.00	1371.75	1374.50	1377.00	1380.00	1383.25	1385.00	1387.00	1388.75	1390.50	1392.25	1393.25	1394.25	1395.50	1397.00	1399.75	1402.25	1404.75	1408.25	1411.25	1415.00	1418.50	1421.75	1425.75	1429.75	1433.00	1437.25	1441.00	1447.00	1453.25	1457.00	1462.75	1466.00	1469.25	1472.75	1475.25	1477.75	1479.75	1481.50	1483.75	1485.00	1486.50	1488.00	1489.50	1490.75	1491.50	1491.25	1491.00	1491.00	1492.00	1492.25	1493.00	1493.00	1494.25	1495.50	1496.75	1498.25	1499.50	1501.75	1503.50	1505.75	1508.00	1510.50	1512.50	1514.75	1517.75	1520.00	1522.75	1526.00	1529.00	1531.50	1533.25	1535.25	1537.50	1539.00	1541.75	1543.50	1546.00	1549.00	1551.25	1553.75	1555.75	1558.25	1559.75	1562.75	1564.25	1566.75	1568.50	1570.25	1573.00	1574.50	1576.75	1578.75	1581.00	1583.00	1584.50	1586.50	1588.25	1590.25	1592.25	1593.75	1596.50	1598.25	1600.50	1602.25	1604.25	1605.50	1607.50
1185.25	1186.00	1186.75	1187.25	1188.00	1189.00	1190.00	1190.75	1192.00	1193.00	1193.75	1195.00	1196.00	1197.00	1197.75	1198.00	1198.50	1199.00	1199.00	1199.25	1200.00	1200.00	1200.75	1201.00	1202.00	1202.50	1203.50	1204.75	1206.25	1207.25	1209.00	1210.50	1212.75	1214.75	1216.50	1218.50	1220.50	1222.50	1224.75	1226.50	1228.50	1230.75	1232.00	1233.50	1234.75	1237.00	1239.00	1241.50	1243.50	1246.00	1247.75	1250.25	1252.25	1254.50	1257.25	1259.75	1261.75	1264.00	1266.75	1269.50	1272.00	1274.00	1275.50	1276.50	1278.25	1279.25	1280.25	1281.00	1281.75	1282.25	1283.00	1283.00	1283.00	1283.00	1283.00	1283.00	1283.00	1283.00	1283.00	1283.00	1283.00	1283.00	1283.00	1283.00	1283.00	1283.00	1283.50	1284.00	1284.75	1285.50	1286.50	1287.50	1288.75	1289.75	1291.00	1292.50	1294.00	1295.50	1296.75	1298.25	1299.50	1300.75	1301.50	1303.00	1303.75	1305.00	1305.50	1306.00	1306.75	1307.00	1307.00	1307.00	1307.00	1307.00	1307.00	1307.00	1307.00	1307.00	1306.00	1306.00	1305.75	1304.75	1304.00	1303.00	1303.00	1303.75	1304.50	1305.00	1305.75	1306.75	1307.50	1308.75	1311.00	1313.50	1316.75	1320.25	1323.25	1327.75	1331.25	1334.50	1338.75	1342.50	1346.75	1350.75	1354.00	1358.00	1361.25	1364.75	1368.00	1371.75	1374.50	1377.00	1380.00	1383.25	1385.00	1387.00	1388.75	1390.50	1392.25	1393.25	1394.25	1395.50	1397.00	1399.75	1402.25	1404.75	1408.25	1411.25	1415.00	1418.50	1421.75	1425.75	1429.75	1433.00	1437.25	1441.00	1447.00	1453.25	1457.00	1462.75	1466.00	1469.25	1472.75	1475.25	1477.75	1479.75	1481.50	1483.75	1485.00	1486.50	1488.00	1489.50	1490.75	1491.50	1491.25	1491.00	1491.00	1492.00	1492.25	1493.00	1493.00	1494.25	1495.50	1496.75	1498.25	1499.50	1501.75	1503.50	1505.75	1508.00	1510.50	1512.50	1514.75	1517.75	1520.00	1522.75	1526.00	1529.00	1531.50	1533.25	1535.25	1537.50	1539.00	1541.75	1543.50	1546.00	1549.00	1551.25	1553.75	1555.75	1558.25	1559.75	1562.75	1564.25	1566.75	1568.50	1570.25	1573.00	1574.50	1576.75	1578.75	1581.00	1583.00	1584.50	1586.50	1588.25	1590.25	1592.25	1593.75	1596.50	1598.25	1600.50	1602.25	1604.25	1605.50	1607.50
1186.19	1186.75	1187.31	1187.75	1188.50	1189.31	1190.25	1191.00	1192.12	1193.00	1193.62	1194.75	1195.50	1196.50	1197.06	1197.25	1197.62	1198.00	1198.00	1198.19	1198.75	1198.75	1199.31	1199.62	1200.50	1200.94	1201.88	1202.88	1204.25	1205.25	1206.94	1208.38	1210.50	1212.50	1214.19	1216.19	1218.25	1220.25	1222.38	1224.25	1226.50	1228.62	1230.12	1231.94	1233.44	1235.62	1237.69	1240.12	1242.50	1245.00	1247.06	1249.75	1252.00	1254.50	1257.25	1259.75	1262.25	1264.69	1267.62	1270.62	1273.19	1275.06	1276.56	1277.75	1279.31	1280.25	1281.25	1282.00	1282.75	1283.19	1283.75	1283.75	1283.75	1283.75	1283.75	1283.75	1283.75	1283.75	1283.62	1283.50	1283.50	1283.50	1283.50	1283.50	1283.50	1283.56	1284.12	1284.50	1285.25	1285.88	1286.81	1287.75	1289.00	1290.00	1291.25	1292.62	1293.94	1295.19	1296.44	1297.75	1298.94	1300.06	1300.75	1302.12	1302.81	1303.88	1304.38	1304.75	1305.50	1305.75	1305.75	1306.00	1306.00	1306.00	1306.00	1306.00	1306.00	1306.00	1305.25	1305.25	1304.88	1304.06	1303.50	1302.75	1302.75	1303.31	1304.00	1304.50	1305.25	1306.25	1307.19	1308.56	1310.81	1313.12	1316.12	1319.62	1322.69	1327.25	1330.75	1334.12	1338.25	1341.88	1346.00	1349.81	1352.94	1356.94	1360.12	1363.62	1366.81	1370.50	1373.25	1375.75	1378.69	1381.62	1383.50	1385.50	1387.25	1388.94	1390.56	1391.62	1392.75	1394.25	1396.00	1398.75	1401.25	1404.00	1407.69	1410.69	1414.44	1418.00	1421.50	1425.50	1429.56	1433.00	1437.56	1441.50	1447.38	1453.56	1457.50	1463.31	1467.00	1470.62	1474.12	1476.31	1478.50	1480.38	1482.12	1484.12	1485.38	1486.81	1488.31	1489.81	1491.06	1491.88	1491.88	1491.94	1492.00	1493.00	1493.50	1494.38	1494.81	1496.12	1497.50	1498.62	1500.06	1501.31	1503.38	1505.00	1507.25	1509.50	1512.00	1514.19	1516.38	1519.25	1521.31	1524.00	1527.00	1529.56	1531.88	1533.62	1535.56	1537.75	1539.25	1541.94	1543.75	1546.06	1549.00	1551.06	1553.56	1555.50	1557.81	1559.25	1562.12	1563.69	1566.25	1568.00	1569.94	1572.69	1574.19	1576.50	1578.50	1580.75	1582.75	1584.38	1586.44	1588.25	1590.25	1592.25	1594.00	1596.75	1598.50	1600.81	1602.75	1604.88	1606.25	1608.31
1189.00	1189.00	1189.00	1189.25	1190.00	1190.25	1191.00	1191.75	1192.50	1193.00	1193.25	1194.00	1194.00	1195.00	1195.00	1195.00	1195.00	1195.00	1195.00	1195.00	1195.00	1195.00	1195.00	1195.50	1196.00	1196.25	1197.00	1197.25	1198.25	1199.25	1200.75	1202.00	1203.75	1205.75	1207.25	1209.25	1211.50	1213.50	1215.25	1217.50	1220.50	1222.25	1224.50	1227.25	1229.50	1231.50	1233.75	1236.00	1239.50	1242.00	1245.00	1248.25	1251.25	1254.50	1257.25	1259.75	1263.75	1266.75	1270.25	1274.00	1276.75	1278.25	1279.75	1281.50	1282.50	1283.25	1284.25	1285.00	1285.75	1286.00	1286.00	1286.00	1286.00	1286.00	1286.00	1286.00	1286.00	1286.00	1285.50	1285.00	1285.00	1285.00	1285.00	1285.00	1285.00	1285.25	1286.00	1286.00	1286.75	1287.00	1287.75	1288.50	1289.75	1290.75	1292.00	1293.00	1293.75	1294.25	1295.50	1296.25	1297.25	1298.00	1298.50	1299.50	1300.00	1300.50	1301.00	1301.00	1301.75	1302.00	1302.00	1303.00	1303.00	1303.00	1303.00	1303.00	1303.00	1303.00	1303.00	1303.00	1302.25	1302.00	1302.00	1302.00	1302.00	1302.00	1302.50	1303.00	1303.75	1304.75	1306.25	1308.00	1310.25	1312.00	1314.25	1317.75	1321.00	1325.75	1329.25	1333.00	1336.75	1340.00	1343.75	1347.00	1349.75	1353.75	1356.75	1360.25	1363.25	1366.75	1369.50	1372.00	1374.75	1376.75	1379.00	1381.00	1382.75	1384.25	1385.50	1386.75	1388.25	1390.50	1393.00	1395.75	1398.25	1401.75	1406.00	1409.00	1412.75	1416.50	1420.75	1424.75	1429.00	1433.00	1438.50	1443.00	1448.50	1454.50	1459.00	1465.00	1470.00	1474.75	1478.25	1479.50	1480.75	1482.25	1484.00	1485.25	1486.50	1487.75	1489.25	1490.75	1492.00	1493.00	1493.75	1494.75	1495.00	1496.00	1497.25	1498.50	1500.25	1501.75	1503.50	1504.25	1505.50	1506.75	1508.25	1509.50	1511.75	1514.00	1516.50	1519.25	1521.25	1523.75	1525.25	1527.75	1530.00	1531.25	1533.00	1534.75	1536.50	1538.50	1540.00	1542.50	1544.50	1546.25	1549.00	1550.50	1553.00	1554.75	1556.50	1557.75	1560.25	1562.00	1564.75	1566.50	1569.00	1571.75	1573.25	1575.75	1577.75	1580.00	1582.00	1584.00	1586.25	1588.25	1590.25	1592.25	1594.75	1597.50	1599.25	1601.75	1604.25	1606.75	1608.50	1610.75
1189.00	1189.00	1189.00	1189.25	1190.00	1190.25	1191.00	1191.75	1192.50	1193.00	1193.25	1194.00	1194.00	1195.00	1195.00	1195.00	1195.00	1195.00	1195.00	1195.00	1195.00	1195.00	1195.00	1195.50	1196.00	1196.25	1197.00	1197.25	1198.25	1199.25	1200.75	1202.00	1203.75	1205.75	1207.25	1209.25	1211.50	1213.50	1215.25	1217.50	1220.50	1222.25	1224.50	1227.25	1229.50	1231.50	1233.75	1236.00	1239.50	1242.00	1245.00	1248.25	1251.25	1254.50	1257.25	1259.75	1263.75	1266.75	1270.25	1274.00	1276.75	1278.25	1279.75	1281.50	1282.50	1283.25	1284.25	1285.00	1285.75	1286.00	1286.00	1286.00	1286.00	1286.00	1286.00	1286.00	1286.00	1286.00	1285.50	1285.00	1285.00	1285.00	1285.00	1285.00	1285.00	1285.25	1286.00	1286.00	1286.75	1287.00	1287.75	1288.50	1289.75	1290.75	1292.00	1293.00	1293.75	1294.25	1295.50	1296.25	1297.25	1298.00	1298.50	1299.50	1300.00	1300.50	1301.00	1301.00	1301.75	1302.00	1302.00	1303.00	1303.00	1303.00	1303.00	1303.00	1303.00	1303.00	1303.00	1303.00	1302.25	1302.00	1302.00	1302.00	1302.00	1302.00	1302.50	1303.00	1303.75	1304.75	1306.25	1308.00	1310.25	1312.00	1314.25	1317.75	1321.00	1325.75	1329.25	1333.00	1336.75	1340.00	1343.75	1347.00	1349.75	1353.75	1356.75	1360.25	1363.25	1366.75	1369.50	1372.00	1374.75	1376.75	1379.00	1381.00	1382.75	1384.25	1385.50	1386.75	1388.25	1390.50	1393.00	1395.75	1398.25	1401.75	1406.00	1409.00	1412.75	1416.50	1420.75	1424.75	1429.00	1433.00	1438.50	1443.00	1448.50	1454.50	1459.00	1465.00	1470.00	1474.75	1478.25	1479.50	1480.75	1482.25	1484.00	1485.25	1486.50	1487.75	1489.25	1490.75	1492.00	1493.00	1493.75	1494.75	1495.00	1496.00	1497.25	1498.50	1500.25	1501.75	1503.50	1504.25	1505.50	1506.75	1508.25	1509.50	1511.75	1514.00	1516.50	1519.25	1521.25	1523.75	1525.25	1527.75	1530.00	1531.25	1533.00	1534.75	1536.50	1538.50	1540.00	1542.50	1544.50	1546.25	1549.00	1550.50	1553.00	1554.75	1556.50	1557.75	1560.25	1562.00	1564.75	1566.50	1569.00	1571.75	1573.25	1575.75	1577.75	1580.00	1582.00	1584.00	1586.25	1588.25	1590.25	1592.25	1594.75	1597.50	1599.25	1601.75	1604.25	1606.75	1608.50	1610.75
1189.00	1189.00	1189.00	1189.25	1190.00	1190.25	1191.00	1191.75	1192.50	1193.00	1193.25	1194.00	1194.00	1195.00	1195.00	1195.00	1195.00	1195.00	1195.00	1195.00	1195.00	1195.00	1195.00	1195.50	1196.00	1196.25	1197.00	1197.25	1198.25	1199.25	1200.75	1202.00	1203.75	1205.75	1207.25	1209.25	1211.50	1213.50	1215.25	1217.50	1220.50	1222.25	1224.50	1227.25	1229.50	1231.50	1233.75	1236.00	1239.50	1242.00	1245.00	1248.25	1251.25	1254.50	1257.25	1259.75	1263.75	1266.75	1270.25	1274.00	1276.75	1278.25	1279.75	1281.50	1282.50	1283.25	1284.25	1285.00	1285.75	1286.00	1286.00	1286.00	1286.00	1286.00	1286.00	1286.00	1286.00	1286.00	1285.50	1285.00	1285.00	1285.00	1285.00	1285.00	1285.00	1285.25	1286.00	1286.00	1286.75	1287.00	1287.75	1288.50	1289.75	1290.75	1292.00	1293.00	1293.75	1294.25	1295.50	1296.25	1297.25	1298.00	1298.50	1299.50	1300.00	1300.50	1301.00	1301.00	1301.75	1302.00	1302.00	1303.00	1303.00	1303.00	1303.00	1303.00	1303.00	1303.00	1303.00	1303.00	1302.25	1302.00	1302.00	1302.00	1302.00	1302.00	1302.50	1303.00	1303.75	1304.75	1306.25	1308.00	1310.25	1312.00	1314.25	1317.75	1321.00	1325.75	1329.25	1333.00	1336.75	1340.00	1343.75	1347.00	1349.75	1353.75	1356.75	1360.25	1363.25	1366.75	1369.50	1372.00	1374.75	1376.75	1379.00	1381.00	1382.75	1384.25	1385.50	1386.75	1388.25	1390.50	1393.00	1395.75	1398.25	1401.75	1406.00	1409.00	1412.75	1416.50	1420.75	1424.75	1429.00	1433.00	1438.50	1443.00	1448.50	1454.50	1459.00	1465.00	1470.00	1474.75	1478.25	1479.50	1480.75	1482.25	1484.00	1485.25	1486.50	1487.75	1489.25	1490.75	1492.00	1493.00	1493.75	1494.75	1495.00	1496.00	1497.25	1498.50	1500.25	1501.75	1503.50	1504.25	1505.50	1506.75	1508.25	1509.50	1511.75	1514.00	1516.50	1519.25	1521.25	1523.75	1525.25	1527.75	1530.00	1531.25	1533.00	1534.75	1536.50	1538.50	1540.00	1542.50	1544.50	1546.25	1549.00	1550.50	1553.00	1554.75	1556.50	1557.75	1560.25	1562.00	1564.75	1566.50	1569.00	1571.75	1573.25	1575.75	1577.75	1580.00	1582.00	1584.00	1586.25	1588.25	1590.25	1592.25	1594.75	1597.50	1599.25	1601.75	1604.25	1606.75	1608.50	1610.75
1190.38	1190.00	1190.00	1190.12	1190.75	1191.12	1191.50	1191.88	1192.50	1193.00	1193.12	1193.50	1193.50	1194.00	1194.00	1194.00	1194.00	1193.50	1193.50	1193.50	1193.00	1193.00	1193.00	1193.00	1193.00	1193.12	1193.50	1194.00	1194.88	1195.75	1197.00	1198.00	1199.62	1201.25	1202.38	1204.25	1206.12	1208.50	1210.25	1212.50	1215.50	1217.62	1220.00	1222.75	1225.12	1227.62	1230.38	1233.00	1236.50	1239.12	1242.62	1246.12	1249.75	1253.00	1256.12	1259.38	1263.50	1266.75	1270.50	1273.75	1276.38	1278.50	1279.75	1281.50	1282.50	1283.50	1284.75	1285.50	1286.25	1286.62	1287.00	1287.00	1286.50	1286.50	1286.50	1286.50	1286.50	1286.50	1286.25	1286.00	1286.00	1286.00	1286.00	1286.00	1286.12	1286.62	1287.00	1287.50	1288.00	1288.50	1288.88	1289.75	1290.50	1291.38	1292.00	1293.00	1293.50	1294.12	1294.75	1295.62	1296.12	1296.62	1297.25	1297.75	1298.00	1298.25	1298.50	1299.00	1299.38	1299.50	1300.00	1300.50	1300.50	1300.50	1300.50	1300.50	1300.50	1300.50	1300.75	1301.00	1300.62	1300.62	1301.00	1301.00	1301.12	1301.75	1302.50	1303.00	1303.62	1305.00	1306.88	1308.50	1310.75	1313.00	1316.00	1319.38	1322.50	1326.88	1330.00	1333.12	1336.75	1339.75	1343.00	1346.50	1349.38	1353.00	1356.25	1359.38	1362.25	1365.75	1368.25	1370.50	1372.75	1375.00	1377.38	1379.12	1381.00	1382.38	1383.88	1385.38	1387.50	1390.00	1392.50	1395.62	1398.62	1402.38	1406.50	1409.62	1413.88	1418.00	1422.38	1426.75	1430.88	1435.00	1440.25	1444.38	1449.25	1454.50	1458.62	1464.12	1469.00	1473.38	1476.75	1478.88	1481.00	1482.75	1484.12	1485.50	1486.75	1488.12	1490.00	1491.50	1493.12	1494.25	1494.88	1495.75	1496.00	1497.00	1498.25	1499.62	1501.75	1503.25	1505.00	1506.00	1507.38	1508.75	1510.25	1511.50	1513.62	1516.00	1518.12	1520.50	1522.50	1525.12	1526.62	1529.12	1531.25	1532.75	1534.75	1536.50	1538.38	1540.38	1541.88	1544.00	1545.75	1547.50	1549.88	1551.38	1553.38	1554.62	1556.12	1557.50	1559.50	1561.50	1564.00	1566.00	1568.50	1570.88	1572.75	1575.25	1577.25	1579.62	1582.00	1584.25	1586.25	1588.62	1590.75	1593.25	1595.75	1598.50	1601.00	1603.75	1606.25	1608.75	1610.50	1612.75
1191.75	1191.00	1191.00	1191.00	1191.50	1192.00	1192.00	1192.00	1192.50	1193.00	1193.00	1193.00	1193.00	1193.00	1193.00	1193.00	1193.00	1192.00	1192.00	1192.00	1191.00	1191.00	1191.00	1190.50	1190.00	1190.00	1190.00	1190.75	1191.50	1192.25	1193.25	1194.00	1195.50	1196.75	1197.50	1199.25	1200.75	1203.50	1205.25	1207.50	1210.50	1213.00	1215.50	1218.25	1220.75	1223.75	1227.00	1230.00	1233.50	1236.25	1240.25	1244.00	1248.25	1251.50	1255.00	1259.00	1263.25	1266.75	1270.75	1273.50	1276.00	1278.75	1279.75	1281.50	1282.50	1283.75	1285.25	1286.00	1286.75	1287.25	1288.00	1288.00	1287.00	1287.00	1287.00	1287.00	1287.00	1287.00	1287.00	1287.00	1287.00	1287.00	1287.00	1287.00	1287.25	1288.00	1288.00	1289.00	1289.25	1290.00	1290.00	1291.00	1291.25	1292.00	1292.00	1293.00	1293.25	1294.00	1294.00	1295.00	1295.00	1295.25	1296.00	1296.00	1296.00	1296.00	1296.00	1297.00	1297.00	1297.00	1298.00	1298.00	1298.00	1298.00	1298.00	1298.00	1298.00	1298.00	1298.50	1299.00	1299.00	1299.25	1300.00	1300.00	1300.25	1301.50	1302.50	1303.00	1303.50	1305.25	1307.50	1309.00	1311.25	1314.00	1317.75	1321.00	1324.00	1328.00	1330.75	1333.25	1336.75	1339.50	1342.25	1346.00	1349.00	1352.25	1355.75	1358.50	1361.25	1364.75	1367.00	1369.00	1370.75	1373.25	1375.75	1377.25	1379.25	1380.50	1382.25	1384.00	1386.75	1389.50	1392.00	1395.50	1399.00	1403.00	1407.00	1410.25	1415.00	1419.50	1424.00	1428.75	1432.75	1437.00	1442.00	1445.75	1450.00	1454.50	1458.25	1463.25	1468.00	1472.00	1475.25	1478.25	1481.25	1483.25	1484.25	1485.75	1487.00	1488.50	1490.75	1492.25	1494.25	1495.50	1496.00	1496.75	1497.00	1498.00	1499.25	1500.75	1503.25	1504.75	1506.50	1507.75	1509.25	1510.75	1512.25	1513.50	1515.50	1518.00	1519.75	1521.75	1523.75	1526.50	1528.00	1530.50	1532.50	1534.25	1536.50	1538.25	1540.25	1542.25	1543.75	1545.50	1547.00	1548.75	1550.75	1552.25	1553.75	1554.50	1555.75	1557.25	1558.75	1561.00	1563.25	1565.50	1568.00	1570.00	1572.25	1574.75	1576.75	1579.25	1582.00	1584.50	1586.25	1589.00	1591.25	1594.25	1596.75	1599.50	1602.75	1605.75	1608.25	1610.75	1612.50	1614.75
1191.75	1191.00	1191.00	1191.00	1191.50	1192.00	1192.00	1192.00	1192.50	1193.00	1193.00	1193.00	1193.00	1193.00	1193.00	1193.00	1193.00	1192.00	1192.00	1192.00	1191.00	1191.00	1191.00	1190.50	1190.00	1190.00	1190.00	1190.75	1191.50	1192.25	1193.25	1194.00	1195.50	1196.75	1197.50	1199.25	1200.75	1203.50	1205.25	1207.50	1210.50	1213.00	1215.50	1218.25	1220.75	1223.75	1227.00	1230.00	1233.50	1236.25	1240.25	1244.00	1248.25	1251.50	1255.00	1259.00	1263.25	1266.75	1270.75	1273.50	1276.00	1278.75	1279.75	1281.50	1282.50	1283.75	1285.25	1286.00	1286.75	1287.25	1288.00	1288.00	1287.00	1287.00	1287.00	1287.00	1287.00	1287.00	1287.00	1287.00	1287.00	1287.00	1287.00	1287.00	1287.25	1288.00	1288.00	1289.00	1289.25	1290.00	1290.00	1291.00	1291.25	1292.00	1292.00	1293.00	1293.25	1294.00	1294.00	1295.00	1295.00	1295.25	1296.00	1296.00	1296.00	1296.00	1296.00	1297.00	1297.00	1297.00	1298.00	1298.00	1298.00	1298.00	1298.00	1298.00	1298.00	1298.00	1298.50	1299.00	1299.00	1299.25	1300.00	1300.00	1300.25	1301.50	1302.50	1303.00	1303.50	1305.25	1307.50	1309.00	1311.25	1314.00	1317.75	1321.00	1324.00	1328.00	1330.75	1333.25	1336.75	1339.50	1342.25	1346.00	1349.00	1352.25	1355.75	1358.50	1361.25	1364.75	1367.00	1369.00	1370.75	1373.25	1375.75	1377.25	1379.25	1380.50	1382.25	1384.00	1386.75	1389.50	1392.00	1395.50	1399.00	1403.00	1407.00	1410.25	1415.00	1419.50	1424.00	1428.75	1432.75	1437.00	1442.00	1445.75	1450.00	1454.50	1458.25	1463.25	1468.00	1472.00	1475.25	1478.25	1481.25	1483.25	1484.25	1485.75	1487.00	1488.50	1490.75	1492.25	1494.25	1495.50	1496.00	1496.75	1497.00	1498.00	1499.25	1500.75	1503.25	1504.75	1506.50	1507.75	1509.25	1510.75	1512.25	1513.50	1515.50	1518.00	1519.75	1521.75	1523.75	1526.50	1528.00	1530.50	1532.50	1534.25	1536.50	1538.25	1540.25	1542.25	1543.75	1545.50	1547.00	1548.75	1550.75	1552.25	1553.75	1554.50	1555.75	1557.25	1558.75	1561.00	1563.25	1565.50	1568.00	1570.00	1572.25	1574.75	1576.75	1579.25	1582.00	1584.50	1586.25	1589.00	1591.25	1594.25	1596.75	1599.50	1602.75	1605.75	1608.25	1610.75	1612.50	1614.75
1191.75	1191.00	1191.00	1191.00	1191.50	1192.00	1192.00	1192.00	1192.50	1193.00	1193.00	1193.00	1193.00	1193.00	1193.00	1193.00	1193.00	1192.00	1192.00	1192.00	1191.00	1191.00	1191.00	1190.50	1190.00	1190.00	1190.00	1190.75	1191.50	1192.25	1193.25	1194.00	1195.50	1196.75	1197.50	1199.25	1200.75	1203.50	1205.25	1207.50	1210.50	1213.00	1215.50	1218.25	1220.75	1223.75	1227.00	1230.00	1233.50	1236.25	1240.25	1244.00	1248.25	1251.50	1255.00	1259.00	1263.25	1266.75	1270.75	1273.50	1276.00	1278.75	1279.75	1281.50	1282.50	1283.75	1285.25	1286.00	1286.75	1287.25	1288.00	1288.00	1287.00	1287.00	1287.00	1287.00	1287.00	1287.00	1287.00	1287.00	1287.00	1287.00	1287.00	1287.00	1287.25	1288.00	1288.00	1289.00	1289.25	1290.00	1290.00	1291.00	1291.25	1292.00	1292.00	1293.00	1293.25	1294.00	1294.00	1295.00	1295.00	1295.25	1296.00	1296.00	1296.00	1296.00	1296.00	1297.00	1297.00	1297.00	1298.00	1298.00	1298.00	1298.00	1298.00	1298.00	1298.00	1298.00	1298.50	1299.00	1299.00	1299.25	1300.00	1300.00	1300.25	1301.50	1302.50	1303.00	1303.50	1305.25	1307.50	1309.00	1311.25	1314.00	1317.75	1321.00	1324.00	1328.00	1330.75	1333.25	1336.75	1339.50	1342.25	1346.00	1349.00	1352.25	1355.75	1358.50	1361.25	1364.75	1367.00	1369.00	1370.75	1373.25	1375.75	1377.25	1379.25	1380.50	1382.25	1384.00	1386.75	1389.50	1392.00	1395.50	1399.00	1403.00	1407.00	1410.25	1415.00	1419.50	1424.00	1428.75	1432.75	1437.00	1442.00	1445.75	1450.00	1454.50	1458.25	1463.25	1468.00	1472.00	1475.25	1478.25	1481.25	1483.25	1484.25	1485.75	1487.00	1488.50	1490.75	1492.25	1494.25	1495.50	1496.00	1496.75	1497.00	1498.00	1499.25	1500.75	1503.25	1504.75	1506.50	1507.75	1509.25	1510.75	1512.25	1513.50	1515.50	1518.00	1519.75	1521.75	1523.75	1526.50	1528.00	1530.50	1532.50	1534.25	1536.50	1538.25	1540.25	1542.25	1543.75	1545.50	1547.00	1548.75	1550.75	1552.25	1553.75	1554.50	1555.75	1557.25	1558.75	1561.00	1563.25	1565.50	1568.00	1570.00	1572.25	1574.75	1576.75	1579.25	1582.00	1584.50	1586.25	1589.00	1591.25	1594.25	1596.75	1599.50	1602.75	1605.75	1608.25	1610.75	1612.50	1614.75
1191.75	1191.00	1191.00	1191.00	1191.50	1192.00	1192.00	1192.00	1192.50	1193.00	1193.00	1193.00	1193.00	1193.00	1193.00	1193.00	1193.00	1192.00	1192.00	1192.00	1191.00	1191.00	1191.00	1190.50	1190.00	1190.00	1190.00	1190.75	1191.50	1192.25	1193.25	1194.00	1195.50	1196.75	1197.50	1199.25	1200.75	1203.50	1205.25	1207.50	1210.50	1213.00	1215.50	1218.25	1220.75	1223.75	1227.00	1230.00	1233.50	1236.25	1240.25	1244.00	1248.25	1251.50	1255.00	1259.00	1263.25	1266.75	1270.75	1273.50	1276.00	1278.75	1279.75	1281.50	1282.50	1283.75	1285.25	1286.00	1286.75	1287.25	1288.00	1288.00	1287.00	1287.00	1287.00	1287.00	1287.00	1287.00	1287.00	1287.00	1287.00	1287.00	1287.00	1287.00	1287.25	1288.00	1288.00	1289.00	1289.25	1290.00	1290.00	1291.00	1291.25	1292.00	1292.00	1293.00	1293.25	1294.00	1294.00	1295.00	1295.00	1295.25	1296.00	1296.00	1296.00	1296.00	1296.00	1297.00	1297.00	1297.00	1298.00	1298.00	1298.00	1298.00	1298.00	1298.00	1298.00	1298.00	1298.50	1299.00	1299.00	1299.25	1300.00	1300.00	1300.25	1301.50	1302.50	1303.00	1303.50	1305.25	1307.50	1309.00	1311.25	1314.00	1317.75	1321.00	1324.00	1328.00	1330.75	1333.25	1336.75	1339.50	1342.25	1346.00	1349.00	1352.25	1355.75	1358.50	1361.25	1364.75	1367.00	1369.00	1370.75	1373.25	1375.75	1377.25	1379.25	1380.50	1382.25	1384.00	1386.75	1389.50	1392.00	1395.50	1399.00	1403.00	1407.00	1410.25	1415.00	1419.50	1424.00	1428.75	1432.75	1437.00	1442.00	1445.75	1450.00	1454.50	1458.25	1463.25	1468.00	1472.00	1475.25	1478.25	1481.25	1483.25	1484.25	1485.75	1487.00	1488.50	1490.75	1492.25	1494.25	1495.50	1496.00	1496.75	1497.00	1498.00	1499.25	1500.75	1503.25	1504.75	1506.50	1507.75	1509.25	1510.75	1512.25	1513.50	1515.50	1518.00	1519.75	1521.75	1523.75	1526.50	1528.00	1530.50	1532.50	1534.25	1536.50	1538.25	1540.25	1542.25	1543.75	1545.50	1547.00	1548.75	1550.75	1552.25	1553.75	1554.50	1555.75	1557.25	1558.75	1561.00	1563.25	1565.50	1568.00	1570.00	1572.25	1574.75	1576.75	1579.25	1582.00	1584.50	1586.25	1589.00	1591.25	1594.25	1596.75	1599.50	1602.75	1605.75	1608.25	1610.75	1612.50	1614.75
1191.75	1191.00	1191.00	1191.00	1191.50	1192.00	1192.00	1192.00	1192.50	1193.00	1193.00	1193.00	1193.00	1193.00	1193.00	1193.00	1193.00	1192.00	1192.00	1192.00	1191.00	1191.00	1191.00	1190.50	1190.00	1190.00	1190.00	1190.75	1191.50	1192.25	1193.25	1194.00	1195.50	1196.75	1197.50	1199.25	1200.75	1203.50	1205.25	1207.50	1210.50	1213.00	1215.50	1218.25	1220.75	1223.75	1227.00	1230.00	1233.50	1236.25	1240.25	1244.00	1248.25	1251.50	1255.00	1259.00	1263.25	1266.75	1270.75	1273.50	1276.00	1278.75	1279.75	1281.50	1282.50	1283.75	1285.25	1286.00	1286.75	1287.25	1288.00	1288.00	1287.00	1287.00	1287.00	1287.00	1287.00	1287.00	1287.00	1287.00	1287.00	1287.00	1287.00	1287.00	1287.25	1288.00	1288.00	1289.00	1289.25	1290.00	1290.00	1291.00	1291.25	1292.00	1292.00	1293.00	1293.25	1294.00	1294.00	1295.00	1295.00	1295.25	1296.00	1296.00	1296.00	1296.00	1296.00	1297.00	1297.00	1297.00	1298.00	1298.00	1298.00	1298.00	1298.00	1298.00	1298.00	1298.00	1298.50	1299.00	1299.00	1299.25	1300.00	1300.00	1300.25	1301.50	1302.50	1303.00	1303.50	1305.25	1307.50	1309.00	1311.25	1314.00	1317.75	1321.00	1324.00	1328.00	1330.75	1333.25	1336.75	1339.50	1342.25	1346.00	1349.00	1352.25	1355.75	1358.50	1361.25	1364.75	1367.00	1369.00	1370.75	1373.25	1375.75	1377.25	1379.25	1380.50	1382.25	1384.00	1386.75	1389.50	1392.00	1395.50	1399.00	1403.00	1407.00	1410.25	1415.00	1419.50	1424.00	1428.75	1432.75	1437.00	1442.00	1445.75	1450.00	1454.50	1458.25	1463.25	1468.00	1472.00	1475.25	1478.25	1481.25	1483.25	1484.25	1485.75	1487.00	1488.50	1490.75	1492.25	1494.25	1495.50	1496.00	1496.75	1497.00	1498.00	1499.25	1500.75	1503.25	1504.75	1506.50	1507.75	1509.25	1510.75	1512.25	1513.50	1515.50	1518.00	1519.75	1521.75	1523.75	1526.50	1528.00	1530.50	1532.50	1534.25	1536.50	1538.25	1540.25	1542.25	1543.75	1545.50	1547.00	1548.75	1550.75	1552.25	1553.75	1554.50	1555.75	1557.25	1558.75	1561.00	1563.25	1565.50	1568.00	1570.00	1572.25	1574.75	1576.75	1579.25	1582.00	1584.50	1586.25	1589.00	1591.25	1594.25	1596.75	1599.50	1602.75	1605.75	1608.25	1610.75	1612.50	1614.75
1191.75	1191.00	1191.00	1191.00	1191.50	1192.00	1192.00	1192.00	1192.50	1193.00	1193.00	1193.00	1193.00	1193.00	1193.00	1193.00	1193.00	1192.00	1192.00	1192.00	1191.00	1191.00	1191.00	1190.50	1190.00	1190.00	1190.00	1190.75	1191.50	1192.25	1193.25	1194.00	1195.50	1196.75	1197.50	1199.25	1200.75	1203.50	1205.25	1207.50	1210.50	1213.00	1215.50	1218.25	1220.75	1223.75	1227.00	1230.00	1233.50	1236.25	1240.25	1244.00	1248.25	1251.50	1255.00	1259.00	1263.25	1266.75	1270.75	1273.50	1276.00	1278.75	1279.75	1281.50	1282.50	1283.75	1285.25	1286.00	1286.75	1287.25	1288.00	1288.00	1287.00	1287.00	1287.00	1287.00	1287.00	1287.00	1287.00	1287.00	1287.00	1287.00	1287.00	1287.00	1287.25	1288.00	1288.00	1289.00	1289.25	1290.00	1290.00	1291.00	1291.25	1292.00	1292.00	1293.00	1293.25	1294.00	1294.00	1295.00	1295.00	1295.25	1296.00	1296.00	1296.00	1296.00	1296.00	1297.00	1297.00	1297.00	1298.00	1298.00	1298.00	1298.00	1298.00	1298.00	1298.00	1298.00	1298.50	1299.00	1299.00	1299.25	1300.00	1300.00	1300.25	1301.50	1302.50	1303.00	1303.50	1305.25	1307.50	1309.00	1311.25	1314.00	1317.75	1321.00	1324.00	1328.00	1330.75	1333.25	1336.75	1339.50	1342.25	1346.00	1349.00	1352.25	1355.75	1358.50	1361.25	1364.75	1367.00	1369.00	1370.75	1373.25	1375.75	1377.25	1379.25	1380.50	1382.25	1384.00	1386.75	1389.50	1392.00	1395.50	1399.00	1403.00	1407.00	1410.25	1415.00	1419.50	1424.00	1428.75	1432.75	1437.00	1442.00	1445.75	1450.00	1454.50	1458.25	1463.25	1468.00	1472.00	1475.25	1478.25	1481.25	1483.25	1484.25	1485.75	1487.00	1488.50	1490.75	1492.25	1494.25	1495.50	1496.00	1496.75	1497.00	1498.00	1499.25	1500.75	1503.25	1504.75	1506.50	1507.75	1509.25	1510.75	1512.25	1513.50	1515.50	1518.00	1519.75	1521.75	1523.75	1526.50	1528.00	1530.50	1532.50	1534.25	1536.50	1538.25	1540.25	1542.25	1543.75	1545.50	1547.00	1548.75	1550.75	1552.25	1553.75	1554.50	1555.75	1557.25	1558.75	1561.00	1563.25	1565.50	1568.00	1570.00	1572.25	1574.75	1576.75	1579.25	1582.00	1584.50	1586.25	1589.00	1591.25	1594.25	1596.75	1599.50	1602.75	1605.75	1608.25	1610.75	1612.50	1614.75
1192.69	1191.94	1191.75	1191.75	1192.00	1192.25	1192.25	1192.25	1192.62	1193.00	1193.00	1192.75	1192.75	1192.75	1192.75	1192.56	1192.50	1191.50	1191.44	1191.25	1190.25	1190.25	1190.06	1189.62	1189.12	1189.00	1189.00	1189.56	1190.38	1190.94	1191.88	1192.62	1193.88	1195.06	1195.88	1197.56	1199.00	1201.56	1203.25	1205.50	1208.50	1211.00	1213.50	1216.25	1219.00	1222.06	1225.31	1228.44	1232.00	1234.88	1238.88	1242.50	1246.75	1250.25	1254.00	1258.00	1262.38	1265.75	1269.62	1272.50	1275.25	1277.81	1279.00	1280.75	1282.00	1283.25	1284.69	1285.50	1286.25	1286.69	1287.44	1287.50	1286.75	1286.75	1286.75	1286.88	1287.00	1287.00	1287.00	1287.00	1287.06	1287.25	1287.25	1287.25	1287.62	1288.25	1288.38	1289.25	1289.62	1290.25	1290.38	1291.25	1291.44	1292.00	1292.12	1293.00	1293.19	1293.75	1293.75	1294.56	1294.69	1294.69	1295.25	1295.25	1295.00	1295.06	1295.25	1296.00	1296.00	1296.00	1297.00	1297.00	1297.00	1297.00	1297.12	1297.25	1297.25	1297.25	1297.62	1298.25	1298.25	1298.69	1299.25	1299.69	1300.25	1301.50	1302.75	1303.44	1304.44	1306.38	1308.56	1310.25	1312.88	1315.62	1319.31	1322.50	1325.31	1328.94	1331.50	1334.00	1337.31	1340.00	1342.75	1346.25	1349.25	1352.50	1356.00	1358.81	1361.69	1364.88	1367.12	1369.00	1370.88	1373.25	1375.56	1377.19	1379.25	1380.56	1382.62	1384.50	1387.50	1390.25	1392.75	1396.25	1399.75	1403.69	1407.88	1411.25	1416.00	1420.62	1425.00	1429.75	1433.81	1438.06	1443.06	1446.62	1450.81	1455.19	1458.75	1463.62	1468.12	1472.06	1475.50	1478.50	1481.31	1483.38	1484.56	1486.25	1487.50	1488.81	1490.88	1492.31	1494.19	1495.38	1495.94	1496.75	1497.12	1498.12	1499.19	1500.50	1502.81	1504.38	1506.19	1507.56	1509.31	1510.75	1512.25	1513.50	1515.31	1517.56	1519.44	1521.62	1523.75	1526.31	1528.00	1530.31	1532.50	1534.25	1536.56	1538.31	1540.38	1542.50	1544.06	1546.00	1547.62	1549.38	1551.38	1552.69	1554.06	1554.88	1556.00	1557.50	1559.12	1561.19	1563.38	1565.50	1567.94	1570.00	1572.12	1574.62	1576.75	1579.25	1582.00	1584.50	1586.69	1589.50	1591.94	1595.00	1597.62	1600.50	1603.62	1606.75	1609.25	1611.62	1613.50	1615.69
1195.50	1194.75	1194.00	1194.00	1193.50	1193.00	1193.00	1193.00	1193.00	1193.00	1193.00	1192.00	1192.00	1192.00	1192.00	1191.25	1191.00	1190.00	1189.75	1189.00	1188.00	1188.00	1187.25	1187.00	1186.50	1186.00	1186.00	1186.00	1187.00	1187.00	1187.75	1188.50	1189.00	1190.00	1191.00	1192.50	1193.75	1195.75	1197.25	1199.50	1202.50	1205.00	1207.50	1210.25	1213.75	1217.00	1220.25	1223.75	1227.50	1230.75	1234.75	1238.00	1242.25	1246.50	1251.00	1255.00	1259.75	1262.75	1266.25	1269.50	1273.00	1275.00	1276.75	1278.50	1280.50	1281.75	1283.00	1284.00	1284.75	1285.00	1285.75	1286.00	1286.00	1286.00	1286.00	1286.50	1287.00	1287.00	1287.00	1287.00	1287.25	1288.00	1288.00	1288.00	1288.75	1289.00	1289.50	1290.00	1290.75	1291.00	1291.50	1292.00	1292.00	1292.00	1292.50	1293.00	1293.00	1293.00	1293.00	1293.25	1293.75	1293.00	1293.00	1293.00	1292.00	1292.25	1293.00	1293.00	1293.00	1293.00	1294.00	1294.00	1294.00	1294.00	1294.50	1295.00	1295.00	1295.00	1295.00	1296.00	1296.00	1297.00	1297.00	1298.75	1300.25	1301.50	1303.50	1304.75	1307.25	1309.75	1311.75	1314.00	1317.75	1320.50	1324.00	1327.00	1329.25	1331.75	1333.75	1336.25	1339.00	1341.50	1344.25	1347.00	1350.00	1353.25	1356.75	1359.75	1363.00	1365.25	1367.50	1369.00	1371.25	1373.25	1375.00	1377.00	1379.25	1380.75	1383.75	1386.00	1389.75	1392.50	1395.00	1398.50	1402.00	1405.75	1410.50	1414.25	1419.00	1424.00	1428.00	1432.75	1437.00	1441.25	1446.25	1449.25	1453.25	1457.25	1460.25	1464.75	1468.50	1472.25	1476.25	1479.25	1481.50	1483.75	1485.50	1487.75	1489.00	1489.75	1491.25	1492.50	1494.00	1495.00	1495.75	1496.75	1497.50	1498.50	1499.00	1499.75	1501.50	1503.25	1505.25	1507.00	1509.50	1510.75	1512.25	1513.50	1514.75	1516.25	1518.50	1521.25	1523.75	1525.75	1528.00	1529.75	1532.50	1534.25	1536.75	1538.50	1540.75	1543.25	1545.00	1547.50	1549.50	1551.25	1553.25	1554.00	1555.00	1556.00	1556.75	1558.25	1560.25	1561.75	1563.75	1565.50	1567.75	1570.00	1571.75	1574.25	1576.75	1579.25	1582.00	1584.50	1588.00	1591.00	1594.00	1597.25	1600.25	1603.50	1606.25	1609.75	1612.25	1614.25	1616.50	1618.50
1195.50	1194.75	1194.00	1194.00	1193.50	1193.00	1193.00	1193.00	1193.00	1193.00	1193.00	1192.00	1192.00	1192.00	1192.00	1191.25	1191.00	1190.00	1189.75	1189.00	1188.00	1188.00	1187.25	1187.00	1186.50	1186.00	1186.00	1186.00	1187.00	1187.00	1187.75	1188.50	1189.00	1190.00	1191.00	1192.50	1193.75	1195.75	1197.25	1199.50	1202.50	1205.00	1207.50	1210.25	1213.75	1217.00	1220.25	1223.75	1227.50	1230.75	1234.75	1238.00	1242.25	1246.50	1251.00	1255.00	1259.75	1262.75	1266.25	1269.50	1273.00	1275.00	1276.75	1278.50	1280.50	1281.75	1283.00	1284.00	1284.75	1285.00	1285.75	1286.00	1286.00	1286.00	1286.00	1286.50	1287.00	1287.00	1287.00	1287.00	1287.25	1288.00	1288.00	1288.00	1288.75	1289.00	1289.50	1290.00	1290.75	1291.00	1291.50	1292.00	1292.00	1292.00	1292.50	1293.00	1293.00	1293.00	1293.00	1293.25	1293.75	1293.00	1293.00	1293.00	1292.00	1292.25	1293.00	1293.00	1293.00	1293.00	1294.00	1294.00	1294.00	1294.00	1294.50	1295.00	1295.00	1295.00	1295.00	1296.00	1296.00	1297.00	1297.00	1298.75	1300.25	1301.50	1303.50	1304.75	1307.25	1309.75	1311.75	1314.00	1317.75	1320.50	1324.00	1327.00	1329.25	1331.75	1333.75	1336.25	1339.00	1341.50	1344.25	1347.00	1350.00	1353.25	1356.75	1359.75	1363.00	1365.25	1367.50	1369.00	1371.25	1373.25	1375.00	1377.00	1379.25	1380.75	1383.75	1386.00	1389.75	1392.50	1395.00	1398.50	1402.00	1405.75	1410.50	1414.25	1419.00	1424.00	1428.00	1432.75	1437.00	1441.25	1446.25	1449.25	1453.25	1457.25	1460.25	1464.75	1468.50	1472.25	1476.25	1479.25	1481.50	1483.75	1485.50	1487.75	1489.00	1489.75	1491.25	1492.50	1494.00	1495.00	1495.75	1496.75	1497.50	1498.50	1499.00	1499.75	1501.50	1503.25	1505.25	1507.00	1509.50	1510.75	1512.25	1513.50	1514.75	1516.25	1518.50	1521.25	1523.75	1525.75	1528.00	1529.75	1532.50	1534.25	1536.75	1538.50	1540.75	1543.25	1545.00	1547.50	1549.50	1551.25	1553.25	1554.00	1555.00	1556.00	1556.75	1558.25	1560.25	1561.75	1563.75	1565.50	1567.75	1570.00	1571.75	1574.25	1576.75	1579.25	1582.00	1584.50	1588.00	1591.00	1594.00	1597.25	1600.25	1603.50	1606.25	1609.75	1612.25	1614.25	1616.50	1618.50
1195.50	1194.75	1194.00	1194.00	1193.50	1193.00	1193.00	1193.00	1193.00	1193.00	1193.00	1192.00	1192.00	1192.00	1192.00	1191.25	1191.00	1190.00	1189.75	1189.00	1188.00	1188.00	1187.25	1187.00	1186.50	1186.00	1186.00	1186.00	1187.00	1187.00	1187.75	1188.50	1189.00	1190.00	1191.00	1192.50	1193.75	1195.75	1197.25	1199.50	1202.50	1205.00	1207.50	1210.25	1213.75	1217.00	1220.25	1223.75	1227.50	1230.75	1234.75	1238.00	1242.25	1246.50	1251.00	1255.00	1259.75	1262.75	1266.25	1269.50	1273.00	1275.00	1276.75	1278.50	1280.50	1281.75	1283.00	1284.00	1284.75	1285.00	1285.75	1286.00	1286.00	1286.00	1286.00	1286.50	1287.00	1287.00	1287.00	1287.00	1287.25	1288.00	1288.00	1288.00	1288.75	1289.00	1289.50	1290.00	1290.75	1291.00	1291.50	1292.00	1292.00	1292.00	1292.50	1293.00	1293.00	1293.00	1293.00	1293.25	1293.75	1293.00	1293.00	1293.00	1292.00	1292.25	1293.00	1293.00	1293.00	1293.00	1294.00	1294.00	1294.00	1294.00	1294.50	1295.00	1295.00	1295.00	1295.00	1296.00	1296.00	1297.00	1297.00	1298.75	1300.25	1301.50	1303.50	1304.75	1307.25	1309.75	1311.75	1314.00	1317.75	1320.50	1324.00	1327.00	1329.25	1331.75	1333.75	1336.25	1339.00	1341.50	1344.25	1347.00	1350.00	1353.25	1356.75	1359.75	1363.00	1365.25	1367.50	1369.00	1371.25	1373.25	1375.00	1377.00	1379.25	1380.75	1383.75	1386.00	1389.75	1392.50	1395.00	1398.50	1402.00	1405.75	1410.50	1414.25	1419.00	1424.00	1428.00	1432.75	1437.00	1441.25	1446.25	1449.25	1453.25	1457.25	1460.25	1464.75	1468.50	1472.25	1476.25	1479.25	1481.50	1483.75	1485.50	1487.75	1489.00	1489.75	1491.25	1492.50	1494.00	1495.00	1495.75	1496.75	1497.50	1498.50	1499.00	1499.75	1501.50	1503.25	1505.25	1507.00	1509.50	1510.75	1512.25	1513.50	1514.75	1516.25	1518.50	1521.25	1523.75	1525.75	1528.00	1529.75	1532.50	1534.25	1536.75	1538.50	1540.75	1543.25	1545.00	1547.50	1549.50	1551.25	1553.25	1554.00	1555.00	1556.00	1556.75	1558.25	1560.25	1561.75	1563.75	1565.50	1567.75	1570.00	1571.75	1574.25	1576.75	1579.25	1582.00	1584.50	1588.00	1591.00	1594.00	1597.25	1600.25	1603.50	1606.25	1609.75	1612.25	1614.25	1616.50	1618.50
1198.00	1197.50	1197.00	1196.00	1196.00	1195.25	1194.75	1194.00	1193.50	1193.00	1192.25	1192.00	1191.00	1191.00	1190.00	1189.50	1189.00	1188.00	1187.75	1186.75	1186.00	1185.25	1184.75	1184.00	1184.00	1184.00	1183.25	1183.00	1183.00	1183.00	1184.00	1184.00	1184.50	1185.25	1186.25	1187.50	1188.50	1190.00	1192.00	1193.50	1196.00	1198.00	1201.00	1204.25	1207.00	1210.50	1213.75	1217.25	1221.00	1224.75	1228.25	1232.50	1237.00	1241.25	1245.75	1249.25	1254.00	1257.25	1261.00	1264.50	1267.00	1270.00	1272.25	1275.00	1276.50	1278.00	1279.75	1281.00	1282.00	1282.00	1282.00	1283.00	1283.00	1283.50	1284.00	1284.00	1284.00	1285.00	1285.00	1285.75	1286.00	1286.75	1287.50	1288.00	1288.75	1289.00	1289.00	1289.75	1290.00	1290.50	1291.00	1291.25	1292.00	1292.00	1292.00	1292.00	1292.00	1292.00	1292.00	1292.00	1292.00	1292.00	1292.00	1292.00	1292.00	1291.50	1291.00	1291.00	1291.25	1292.00	1292.25	1293.00	1293.00	1294.00	1294.00	1294.00	1294.75	1295.00	1295.00	1296.00	1296.00	1297.25	1299.00	1300.25	1302.25	1304.25	1306.75	1308.75	1311.25	1314.00	1317.25	1320.00	1323.75	1326.50	1329.75	1332.00	1334.25	1336.50	1338.25	1340.00	1342.00	1344.50	1347.25	1350.00	1352.25	1355.25	1358.25	1360.75	1362.25	1364.50	1366.50	1369.00	1370.75	1373.25	1376.00	1377.75	1380.25	1382.75	1385.75	1388.00	1391.25	1394.50	1397.75	1401.00	1404.25	1408.25	1413.25	1417.00	1421.50	1426.50	1431.00	1435.75	1440.50	1444.25	1449.00	1452.25	1456.25	1460.75	1463.75	1467.75	1471.50	1475.00	1477.25	1479.25	1481.50	1483.75	1485.25	1486.25	1487.50	1488.50	1489.75	1490.50	1491.50	1492.25	1493.25	1494.00	1495.00	1495.75	1496.75	1497.00	1498.50	1499.50	1501.00	1502.75	1504.50	1505.75	1507.75	1508.50	1510.50	1513.00	1515.00	1517.25	1520.25	1523.75	1526.00	1528.50	1530.50	1533.75	1536.75	1538.50	1540.75	1543.75	1546.00	1548.75	1551.50	1554.00	1556.25	1557.75	1559.25	1560.50	1561.50	1562.50	1563.50	1564.75	1566.25	1567.50	1569.00	1571.00	1573.25	1576.25	1578.75	1581.25	1584.00	1587.00	1590.25	1593.75	1596.25	1600.25	1603.75	1607.25	1610.00	1612.75	1615.25	1617.25	1619.50	1621.00
1198.00	1197.50	1197.00	1196.00	1196.00	1195.25	1194.75	1194.00	1193.50	1193.00	1192.25	1192.00	1191.00	1191.00	1190.00	1189.50	1189.00	1188.00	1187.75	1186.75	1186.00	1185.25	1184.75	1184.00	1184.00	1184.00	1183.25	1183.00	1183.00	1183.00	1184.00	1184.00	1184.50	1185.25	1186.25	1187.50	1188.50	1190.00	1192.00	1193.50	1196.00	1198.00	1201.00	1204.25	1207.00	1210.50	1213.75	1217.25	1221.00	1224.75	1228.25	1232.50	1237.00	1241.25	1245.75	1249.25	1254.00	1257.25	1261.00	1264.50	1267.00	1270.00	1272.25	1275.00	1276.50	1278.00	1279.75	1281.00	1282.00	1282.00	1282.00	1283.00	1283.00	1283.50	1284.00	1284.00	1284.00	1285.00	1285.00	1285.75	1286.00	1286.75	1287.50	1288.00	1288.75	1289.00	1289.00	1289.75	1290.00	1290.50	1291.00	1291.25	1292.00	1292.00	1292.00	1292.00	1292.00	1292.00	1292.00	1292.00	1292.00	1292.00	1292.00	1292.00	1292.00	1291.50	1291.00	1291.00	1291.25	1292.00	1292.25	1293.00	1293.00	1294.00	1294.00	1294.00	1294.75	1295.00	1295.00	1296.00	1296.00	1297.25	1299.00	1300.25	1302.25	1304.25	1306.75	1308.75	1311.25	1314.00	1317.25	1320.00	1323.75	1326.50	1329.75	1332.00	1334.25	1336.50	1338.25	1340.00	1342.00	1344.50	1347.25	1350.00	1352.25	1355.25	1358.25	1360.75	1362.25	1364.50	1366.50	1369.00	1370.75	1373.25	1376.00	1377.75	1380.25	1382.75	1385.75	1388.00	1391.25	1394.50	1397.75	1401.00	1404.25	1408.25	1413.25	1417.00	1421.50	1426.50	1431.00	1435.75	1440.50	1444.25	1449.00	1452.25	1456.25	1460.75	1463.75	1467.75	1471.50	1475.00	1477.25	1479.25	1481.50	1483.75	1485.25	1486.25	1487.50	1488.50	1489.75	1490.50	1491.50	1492.25	1493.25	1494.00	1495.00	1495.75	1496.75	1497.00	1498.50	1499.50	1501.00	1502.75	1504.50	1505.75	1507.75	1508.50	1510.50	1513.00	1515.00	1517.25	1520.25	1523.75	1526.00	1528.50	1530.50	1533.75	1536.75	1538.50	1540.75	1543.75	1546.00	1548.75	1551.50	1554.00	1556.25	1557.75	1559.25	1560.50	1561.50	1562.50	1563.50	1564.75	1566.25	1567.50	1569.00	1571.00	1573.25	1576.25	1578.75	1581.25	1584.00	1587.00	1590.25	1593.75	1596.25	1600.25	1603.75	1607.25	1610.00	1612.75	1615.25	1617.25	1619.50	1621.00
1198.00	1197.50	1197.00	1196.00	1196.00	1195.25	1194.75	1194.00	1193.50	1193.00	1192.25	1192.00	1191.00	1191.00	1190.00	1189.50	1189.00	1188.00	1187.75	1186.75	1186.00	1185.25	1184.75	1184.00	1184.00	1184.00	1183.25	1183.00	1183.00	1183.00	1184.00	1184.00	1184.50	1185.25	1186.25	1187.50	1188.50	1190.00	1192.00	1193.50	1196.00	1198.00	1201.00	1204.25	1207.00	1210.50	1213.75	1217.25	1221.00	1224.75	1228.25	1232.50	1237.00	1241.25	1245.75	1249.25	1254.00	1257.25	1261.00	1264.50	1267.00	1270.00	1272.25	1275.00	1276.50	1278.00	1279.75	1281.00	1282.00	1282.00	1282.00	1283.00	1283.00	1283.50	1284.00	1284.00	1284.00	1285.00	1285.00	1285.75	1286.00	1286.75	1287.50	1288.00	1288.75	1289.00	1289.00	1289.75	1290.00	1290.50	1291.00	1291.25	1292.00	1292.00	1292.00	1292.00	1292.00	1292.00	1292.00	1292.00	1292.00	1292.00	1292.00	1292.00	1292.00	1291.50	1291.00	1291.00	1291.25	1292.00	1292.25	1293.00	1293.00	1294.00	1294.00	1294.00	1294.75	1295.00	1295.00	1296.00	1296.00	1297.25	1299.00	1300.25	1302.25	1304.25	1306.75	1308.75	1311.25	1314.00	1317.25	1320.00	1323.75	1326.50	1329.75	1332.00	1334.25	1336.50	1338.25	1340.00	1342.00	1344.50	1347.25	1350.00	1352.25	1355.25	1358.25	1360.75	1362.25	1364.50	1366.50	1369.00	1370.75	1373.25	1376.00	1377.75	1380.25	1382.75	1385.75	1388.00	1391.25	1394.50	1397.75	1401.00	1404.25	1408.25	1413.25	1417.00	1421.50	1426.50	1431.00	1435.75	1440.50	1444.25	1449.00	1452.25	1456.25	1460.75	1463.75	1467.75	1471.50	1475.00	1477.25	1479.25	1481.50	1483.75	1485.25	1486.25	1487.50	1488.50	1489.75	1490.50	1491.50	1492.25	1493.25	1494.00	1495.00	1495.75	1496.75	1497.00	1498.50	1499.50	1501.00	1502.75	1504.50	1505.75	1507.75	1508.50	1510.50	1513.00	1515.00	1517.25	1520.25	1523.75	1526.00	1528.50	1530.50	1533.75	1536.75	1538.50	1540.75	1543.75	1546.00	1548.75	1551.50	1554.00	1556.25	1557.75	1559.25	1560.50	1561.50	1562.50	1563.50	1564.75	1566.25	1567.50	1569.00	1571.00	1573.25	1576.25	1578.75	1581.25	1584.00	1587.00	1590.25	1593.75	1596.25	1600.25	1603.75	1607.25	1610.00	1612.75	1615.25	1617.25	1619.50	1621.00
1198.50	1197.88	1197.50	1196.56	1196.38	1195.62	1195.00	1194.25	1193.62	1193.00	1192.25	1191.94	1191.00	1190.81	1189.81	1189.25	1188.62	1187.75	1187.38	1186.50	1185.75	1185.00	1184.50	1183.75	1183.75	1183.50	1182.94	1182.75	1182.75	1182.75	1183.50	1183.50	1184.06	1184.69	1185.50	1186.62	1187.69	1189.12	1190.94	1192.50	1194.88	1197.00	1199.69	1202.75	1205.50	1209.00	1212.12	1215.62	1219.38	1223.12	1226.94	1231.06	1235.56	1239.75	1244.25	1247.94	1252.75	1256.00	1259.69	1263.25	1265.75	1268.94	1271.06	1273.62	1275.19	1276.69	1278.38	1279.50	1280.50	1280.75	1280.88	1281.75	1281.88	1282.38	1282.81	1283.00	1283.06	1284.00	1284.12	1284.81	1285.25	1285.94	1286.75	1287.25	1288.00	1288.25	1288.38	1289.06	1289.44	1289.88	1290.44	1290.81	1291.50	1291.50	1291.50	1291.75	1291.75	1291.75	1291.75	1291.81	1292.00	1292.00	1292.00	1292.00	1292.00	1291.62	1291.25	1291.25	1291.62	1292.25	1292.50	1293.25	1293.44	1294.31	1294.50	1294.69	1295.38	1295.75	1295.75	1296.69	1297.06	1298.50	1300.25	1301.50	1303.69	1305.62	1308.12	1310.25	1312.75	1315.50	1318.69	1321.50	1325.06	1327.88	1331.12	1333.69	1336.00	1338.44	1340.06	1341.75	1343.75	1346.00	1348.50	1351.00	1353.12	1356.00	1358.62	1361.00	1362.50	1364.75	1366.75	1369.25	1371.12	1373.50	1376.06	1377.75	1380.06	1382.44	1385.31	1387.75	1390.94	1394.25	1397.56	1400.94	1404.44	1408.50	1413.44	1417.19	1421.69	1426.62	1431.19	1435.94	1440.62	1444.56	1449.38	1452.88	1456.75	1461.06	1464.06	1468.06	1471.50	1474.81	1476.94	1479.00	1481.25	1483.12	1484.50	1485.44	1486.62	1487.56	1488.75	1489.50	1490.56	1491.25	1492.19	1492.75	1493.50	1494.19	1495.25	1495.62	1497.00	1497.88	1499.31	1501.00	1502.75	1504.12	1506.06	1507.25	1509.44	1511.75	1513.88	1516.44	1519.50	1523.00	1525.31	1528.06	1530.50	1533.56	1536.69	1538.69	1541.12	1544.25	1546.50	1549.31	1552.25	1554.75	1557.00	1558.62	1560.25	1561.50	1562.69	1563.75	1564.94	1566.12	1567.62	1568.88	1570.31	1572.19	1574.25	1577.00	1579.50	1582.00	1584.75	1587.75	1591.00	1594.50	1597.00	1601.00	1604.38	1607.81	1610.50	1613.25	1615.56	1617.62	1619.50	1620.88
1200.00	1199.00	1199.00	1198.25	1197.50	1196.75	1195.75	1195.00	1194.00	1193.00	1192.25	1191.75	1191.00	1190.25	1189.25	1188.50	1187.50	1187.00	1186.25	1185.75	1185.00	1184.25	1183.75	1183.00	1183.00	1182.00	1182.00	1182.00	1182.00	1182.00	1182.00	1182.00	1182.75	1183.00	1183.25	1184.00	1185.25	1186.50	1187.75	1189.50	1191.50	1194.00	1195.75	1198.25	1201.00	1204.50	1207.25	1210.75	1214.50	1218.25	1223.00	1226.75	1231.25	1235.25	1239.75	1244.00	1249.00	1252.25	1255.75	1259.50	1262.00	1265.75	1267.50	1269.50	1271.25	1272.75	1274.25	1275.00	1276.00	1277.00	1277.50	1278.00	1278.50	1279.00	1279.25	1280.00	1280.25	1281.00	1281.50	1282.00	1283.00	1283.50	1284.50	1285.00	1285.75	1286.00	1286.50	1287.00	1287.75	1288.00	1288.75	1289.50	1290.00	1290.00	1290.00	1291.00	1291.00	1291.00	1291.00	1291.25	1292.00	1292.00	1292.00	1292.00	1292.00	1292.00	1292.00	1292.00	1292.75	1293.00	1293.25	1294.00	1294.75	1295.25	1296.00	1296.75	1297.25	1298.00	1298.00	1298.75	1300.25	1302.25	1304.00	1305.25	1308.00	1309.75	1312.25	1314.75	1317.25	1320.00	1323.00	1326.00	1329.00	1332.00	1335.25	1338.75	1341.25	1344.25	1345.50	1347.00	1349.00	1350.50	1352.25	1354.00	1355.75	1358.25	1359.75	1361.75	1363.25	1365.50	1367.50	1370.00	1372.25	1374.25	1376.25	1377.75	1379.50	1381.50	1384.00	1387.00	1390.00	1393.50	1397.00	1400.75	1405.00	1409.25	1414.00	1417.75	1422.25	1427.00	1431.75	1436.50	1441.00	1445.50	1450.50	1454.75	1458.25	1462.00	1465.00	1469.00	1471.50	1474.25	1476.00	1478.25	1480.50	1481.25	1482.25	1483.00	1484.00	1484.75	1485.75	1486.50	1487.75	1488.25	1489.00	1489.00	1489.00	1489.50	1490.75	1491.50	1492.50	1493.00	1494.25	1495.75	1497.50	1499.25	1501.00	1503.50	1506.25	1508.00	1510.50	1514.00	1517.25	1520.75	1523.25	1526.75	1530.50	1533.00	1536.50	1539.25	1542.25	1545.75	1548.00	1551.00	1554.50	1557.00	1559.25	1561.25	1563.25	1564.50	1566.25	1567.50	1569.25	1570.25	1571.75	1573.00	1574.25	1575.75	1577.25	1579.25	1581.75	1584.25	1587.00	1590.00	1593.25	1596.75	1599.25	1603.25	1606.25	1609.50	1612.00	1614.75	1616.50	1618.75	1619.50	1620.50
1200.00	1199.00	1199.00	1198.25	1197.50	1196.75	1195.75	1195.00	1194.00	1193.00	1192.25	1191.75	1191.00	1190.25	1189.25	1188.50	1187.50	1187.00	1186.25	1185.75	1185.00	1184.25	1183.75	1183.00	1183.00	1182.00	1182.00	1182.00	1182.00	1182.00	1182.00	1182.00	1182.75	1183.00	1183.25	1184.00	1185.25	1186.50	1187.75	1189.50	1191.50	1194.00	1195.75	1198.25	1201.00	1204.50	1207.25	1210.75	1214.50	1218.25	1223.00	1226.75	1231.25	1235.25	1239.75	1244.00	1249.00	1252.25	1255.75	1259.50	1262.00	1265.75	1267.50	1269.50	1271.25	1272.75	1274.25	1275.00	1276.00	1277.00	1277.50	1278.00	1278.50	1279.00	1279.25	1280.00	1280.25	1281.00	1281.50	1282.00	1283.00	1283.50	1284.50	1285.00	1285.75	1286.00	1286.50	1287.00	1287.75	1288.00	1288.75	1289.50	1290.00	1290.00	1290.00	1291.00	1291.00	1291.00	1291.00	1291.25	1292.00	1292.00	1292.00	1292.00	1292.00	1292.00	1292.00	1292.00	1292.75	1293.00	1293.25	1294.00	1294.75	1295.25	1296.00	1296.75	1297.25	1298.00	1298.00	1298.75	1300.25	1302.25	1304.00	1305.25	1308.00	1309.75	1312.25	1314.75	1317.25	1320.00	1323.00	1326.00	1329.00	1332.00	1335.25	1338.75	1341.25	1344.25	1345.50	1347.00	1349.00	1350.50	1352.25	1354.00	1355.75	1358.25	1359.75	1361.75	1363.25	1365.50	1367.50	1370.00	1372.25	1374.25	1376.25	1377.75	1379.50	1381.50	1384.00	1387.00	1390.00	1393.50	1397.00	1400.75	1405.00	1409.25	1414.00	1417.75	1422.25	1427.00	1431.75	1436.50	1441.00	1445.50	1450.50	1454.75	1458.25	1462.00	1465.00	1469.00	1471.50	1474.25	1476.00	1478.25	1480.50	1481.25	1482.25	1483.00	1484.00	1484.75	1485.75	1486.50	1487.75	1488.25	1489.00	1489.00	1489.00	1489.50	1490.75	1491.50	1492.50	1493.00	1494.25	1495.75	1497.50	1499.25	1501.00	1503.50	1506.25	1508.00	1510.50	1514.00	1517.25	1520.75	1523.25	1526.75	1530.50	1533.00	1536.50	1539.25	1542.25	1545.75	1548.00	1551.00	1554.50	1557.00	1559.25	1561.25	1563.25	1564.50	1566.25	1567.50	1569.25	1570.25	1571.75	1573.00	1574.25	1575.75	1577.25	1579.25	1581.75	1584.25	1587.00	1590.00	1593.25	1596.75	1599.25	1603.25	1606.25	1609.50	1612.00	1614.75	1616.50	1618.75	1619.50	1620.50
1200.00	1199.00	1199.00	1198.25	1197.50	1196.75	1195.75	1195.00	1194.00	1193.00	1192.25	1191.75	1191.00	1190.25	1189.25	1188.50	1187.50	1187.00	1186.25	1185.75	1185.00	1184.25	1183.75	1183.00	1183.00	1182.00	1182.00	1182.00	1182.00	1182.00	1182.00	1182.00	1182.75	1183.00	1183.25	1184.00	1185.25	1186.50	1187.75	1189.50	1191.50	1194.00	1195.75	1198.25	1201.00	1204.50	1207.25	1210.75	1214.50	1218.25	1223.00	1226.75	1231.25	1235.25	1239.75	1244.00	1249.00	1252.25	1255.75	1259.50	1262.00	1265.75	1267.50	1269.50	1271.25	1272.75	1274.25	1275.00	1276.00	1277.00	1277.50	1278.00	1278.50	1279.00	1279.25	1280.00	1280.25	1281.00	1281.50	1282.00	1283.00	1283.50	1284.50	1285.00	1285.75	1286.00	1286.50	1287.00	1287.75	1288.00	1288.75	1289.50	1290.00	1290.00	1290.00	1291.00	1291.00	1291.00	1291.00	1291.25	1292.00	1292.00	1292.00	1292.00	1292.00	1292.00	1292.00	1292.00	1292.75	1293.00	1293.25	1294.00	1294.75	1295.25	1296.00	1296.75	1297.25	1298.00	1298.00	1298.75	1300.25	1302.25	1304.00	1305.25	1308.00	1309.75	1312.25	1314.75	1317.25	1320.00	1323.00	1326.00	1329.00	1332.00	1335.25	1338.75	1341.25	1344.25	1345.50	1347.00	1349.00	1350.50	1352.25	1354.00	1355.75	1358.25	1359.75	1361.75	1363.25	1365.50	1367.50	1370.00	1372.25	1374.25	1376.25	1377.75	1379.50	1381.50	1384.00	1387.00	1390.00	1393.50	1397.00	1400.75	1405.00	1409.25	1414.00	1417.75	1422.25	1427.00	1431.75	1436.50	1441.00	1445.50	1450.50	1454.75	1458.25	1462.00	1465.00	1469.00	1471.50	1474.25	1476.00	1478.25	1480.50	1481.25	1482.25	1483.00	1484.00	1484.75	1485.75	1486.50	1487.75	1488.25	1489.00	1489.00	1489.00	1489.50	1490.75	1491.50	1492.50	1493.00	1494.25	1495.75	1497.50	1499.25	1501.00	1503.50	1506.25	1508.00	1510.50	1514.00	1517.25	1520.75	1523.25	1526.75	1530.50	1533.00	1536.50	1539.25	1542.25	1545.75	1548.00	1551.00	1554.50	1557.00	1559.25	1561.25	1563.25	1564.50	1566.25	1567.50	1569.25	1570.25	1571.75	1573.00	1574.25	1575.75	1577.25	1579.25	1581.75	1584.25	1587.00	1590.00	1593.25	1596.75	1599.25	1603.25	1606.25	1609.50	1612.00	1614.75	1616.50	1618.75	1619.50	1620.50
1200.00	1199.50	1199.50	1198.62	1198.00	1197.25	1196.25	1195.12	1193.75	1192.75	1192.00	1191.00	1190.00	1189.25	1188.25	1187.38	1186.75	1186.00	1185.62	1185.38	1184.75	1183.75	1183.00	1182.25	1182.00	1181.50	1181.50	1181.50	1181.50	1181.50	1181.50	1181.50	1181.88	1182.50	1182.62	1183.00	1183.88	1184.88	1186.00	1187.75	1189.75	1191.88	1193.62	1196.25	1199.00	1202.50	1205.12	1208.75	1212.50	1216.00	1220.50	1224.25	1228.75	1232.75	1237.25	1241.50	1246.12	1249.25	1253.00	1256.75	1259.50	1262.88	1264.50	1266.75	1268.75	1270.00	1271.75	1272.75	1273.88	1274.62	1275.25	1275.88	1276.25	1276.88	1277.12	1278.00	1278.12	1279.00	1279.50	1280.00	1280.88	1281.25	1282.25	1282.62	1283.38	1283.62	1284.25	1285.00	1285.88	1286.25	1286.88	1287.75	1288.38	1288.88	1289.00	1290.00	1290.38	1290.50	1290.88	1291.12	1291.75	1292.00	1292.00	1292.00	1292.38	1292.75	1293.25	1293.62	1294.38	1294.88	1295.25	1296.00	1296.75	1297.38	1298.50	1299.25	1300.12	1301.25	1301.75	1303.00	1304.25	1306.12	1307.75	1309.50	1312.00	1313.75	1316.25	1318.75	1321.25	1323.50	1326.38	1329.00	1332.00	1334.75	1337.75	1340.50	1342.75	1345.50	1347.12	1349.00	1350.62	1352.00	1353.50	1355.38	1356.62	1358.50	1360.00	1361.62	1363.12	1365.62	1368.00	1370.50	1372.75	1374.38	1376.00	1377.38	1379.00	1381.12	1383.88	1386.50	1389.38	1392.50	1395.50	1399.12	1402.88	1406.88	1412.00	1415.88	1420.75	1425.50	1430.38	1435.50	1440.00	1444.50	1449.62	1453.25	1456.75	1460.62	1463.88	1467.12	1469.50	1472.25	1474.38	1476.00	1477.75	1478.75	1479.75	1480.50	1481.00	1481.88	1482.50	1483.25	1484.12	1484.62	1485.38	1485.62	1486.00	1486.62	1487.88	1488.62	1489.88	1490.75	1492.12	1493.75	1495.38	1497.25	1499.50	1502.00	1504.75	1507.38	1510.38	1514.00	1517.50	1521.25	1524.00	1527.38	1531.00	1533.88	1537.12	1539.75	1543.00	1546.25	1548.88	1551.88	1555.00	1557.50	1560.12	1561.88	1564.00	1565.62	1567.38	1568.50	1570.25	1571.12	1572.50	1573.75	1575.50	1577.25	1578.75	1580.75	1583.25	1585.75	1588.50	1591.25	1594.62	1597.88	1600.50	1604.25	1607.00	1610.00	1612.50	1615.25	1616.75	1618.50	1619.25	1620.25
1200.00	1200.00	1200.00	1199.00	1198.50	1197.75	1196.75	1195.25	1193.50	1192.50	1191.75	1190.25	1189.00	1188.25	1187.25	1186.25	1186.00	1185.00	1185.00	1185.00	1184.50	1183.25	1182.25	1181.50	1181.00	1181.00	1181.00	1181.00	1181.00	1181.00	1181.00	1181.00	1181.00	1182.00	1182.00	1182.00	1182.50	1183.25	1184.25	1186.00	1188.00	1189.75	1191.50	1194.25	1197.00	1200.50	1203.00	1206.75	1210.50	1213.75	1218.00	1221.75	1226.25	1230.25	1234.75	1239.00	1243.25	1246.25	1250.25	1254.00	1257.00	1260.00	1261.50	1264.00	1266.25	1267.25	1269.25	1270.50	1271.75	1272.25	1273.00	1273.75	1274.00	1274.75	1275.00	1276.00	1276.00	1277.00	1277.50	1278.00	1278.75	1279.00	1280.00	1280.25	1281.00	1281.25	1282.00	1283.00	1284.00	1284.50	1285.00	1286.00	1286.75	1287.75	1288.00	1289.00	1289.75	1290.00	1290.75	1291.00	1291.50	1292.00	1292.00	1292.00	1292.75	1293.50	1294.50	1295.25	1296.00	1296.75	1297.25	1298.00	1298.75	1299.50	1301.00	1301.75	1303.00	1304.50	1305.50	1307.25	1308.25	1310.00	1311.50	1313.75	1316.00	1317.75	1320.25	1322.75	1325.25	1327.00	1329.75	1332.00	1335.00	1337.50	1340.25	1342.25	1344.25	1346.75	1348.75	1351.00	1352.25	1353.50	1354.75	1356.75	1357.50	1358.75	1360.25	1361.50	1363.00	1365.75	1368.50	1371.00	1373.25	1374.50	1375.75	1377.00	1378.50	1380.75	1383.75	1386.00	1388.75	1391.50	1394.00	1397.50	1400.75	1404.50	1410.00	1414.00	1419.25	1424.00	1429.00	1434.50	1439.00	1443.50	1448.75	1451.75	1455.25	1459.25	1462.75	1465.25	1467.50	1470.25	1472.75	1473.75	1475.00	1476.25	1477.25	1478.00	1478.00	1479.00	1479.25	1480.00	1480.50	1481.00	1481.75	1482.25	1483.00	1483.75	1485.00	1485.75	1487.25	1488.50	1490.00	1491.75	1493.25	1495.25	1498.00	1500.50	1503.25	1506.75	1510.25	1514.00	1517.75	1521.75	1524.75	1528.00	1531.50	1534.75	1537.75	1540.25	1543.75	1546.75	1549.75	1552.75	1555.50	1558.00	1561.00	1562.50	1564.75	1566.75	1568.50	1569.50	1571.25	1572.00	1573.25	1574.50	1576.75	1578.75	1580.25	1582.25	1584.75	1587.25	1590.00	1592.50	1596.00	1599.00	1601.75	1605.25	1607.75	1610.50	1613.00	1615.75	1617.00	1618.25	1619.00	1620.00
1200.00	1200.00	1200.00	1199.00	1198.50	1197.75	1196.75	1195.25	1193.50	1192.50	1191.75	1190.25	1189.00	1188.25	1187.25	1186.25	1186.00	1185.00	1185.00	1185.00	1184.50	1183.25	1182.25	1181.50	1181.00	1181.00	1181.00	1181.00	1181.00	1181.00	1181.00	1181.00	1181.00	1182.00	1182.00	1182.00	1182.50	1183.25	1184.25	1186.00	1188.00	1189.75	1191.50	1194.25	1197.00	1200.50	1203.00	1206.75	1210.50	1213.75	1218.00	1221.75	1226.25	1230.25	1234.75	1239.00	1243.25	1246.25	1250.25	1254.00	1257.00	1260.00	1261.50	1264.00	1266.25	1267.25	1269.25	1270.50	1271.75	1272.25	1273.00	1273.75	1274.00	1274.75	1275.00	1276.00	1276.00	1277.00	1277.50	1278.00	1278.75	1279.00	1280.00	1280.25	1281.00	1281.25	1282.00	1283.00	1284.00	1284.50	1285.00	1286.00	1286.75	1287.75	1288.00	1289.00	1289.75	1290.00	1290.75	1291.00	1291.50	1292.00	1292.00	1292.00	1292.75	1293.50	1294.50	1295.25	1296.00	1296.75	1297.25	1298.00	1298.75	1299.50	1301.00	1301.75	1303.00	1304.50	1305.50	1307.25	1308.25	1310.00	1311.50	1313.75	1316.00	1317.75	1320.25	1322.75	1325.25	1327.00	1329.75	1332.00	1335.00	1337.50	1340.25	1342.25	1344.25	1346.75	1348.75	1351.00	1352.25	1353.50	1354.75	1356.75	1357.50	1358.75	1360.25	1361.50	1363.00	1365.75	1368.50	1371.00	1373.25	1374.50	1375.75	1377.00	1378.50	1380.75	1383.75	1386.00	1388.75	1391.50	1394.00	1397.50	1400.75	1404.50	1410.00	1414.00	1419.25	1424.00	1429.00	1434.50	1439.00	1443.50	1448.75	1451.75	1455.25	1459.25	1462.75	1465.25	1467.50	1470.25	1472.75	1473.75	1475.00	1476.25	1477.25	1478.00	1478.00	1479.00	1479.25	1480.00	1480.50	1481.00	1481.75	1482.25	1483.00	1483.75	1485.00	1485.75	1487.25	1488.50	1490.00	1491.75	1493.25	1495.25	1498.00	1500.50	1503.25	1506.75	1510.25	1514.00	1517.75	1521.75	1524.75	1528.00	1531.50	1534.75	1537.75	1540.25	1543.75	1546.75	1549.75	1552.75	1555.50	1558.00	1561.00	1562.50	1564.75	1566.75	1568.50	1569.50	1571.25	1572.00	1573.25	1574.50	1576.75	1578.75	1580.25	1582.25	1584.75	1587.25	1590.00	1592.50	1596.00	1599.00	1601.75	1605.25	1607.75	1610.50	1613.00	1615.75	1617.00	1618.25	1619.00	1620.00
1199.50	1199.50	1199.50	1198.75	1198.12	1197.38	1196.25	1194.94	1193.25	1192.19	1191.25	1189.69	1188.38	1187.50	1186.50	1185.56	1185.12	1184.12	1183.94	1183.75	1183.25	1182.19	1181.25	1180.62	1180.25	1180.25	1180.25	1180.25	1180.25	1180.25	1180.50	1180.50	1180.69	1181.50	1181.62	1181.75	1182.19	1182.94	1183.88	1185.38	1187.38	1189.06	1190.88	1193.50	1196.19	1199.50	1202.19	1205.75	1209.50	1212.75	1217.00	1220.75	1225.12	1229.12	1233.56	1237.75	1242.00	1245.12	1249.12	1252.62	1255.69	1258.75	1260.44	1262.88	1265.06	1266.19	1268.25	1269.50	1270.75	1271.38	1272.19	1272.94	1273.25	1273.94	1274.25	1275.12	1275.25	1276.00	1276.50	1277.00	1277.62	1278.00	1278.75	1279.00	1279.75	1280.12	1280.88	1281.88	1282.94	1283.50	1284.19	1285.12	1286.00	1287.00	1287.50	1288.62	1289.38	1289.88	1290.75	1291.25	1291.88	1292.50	1292.62	1292.88	1293.62	1294.38	1295.38	1296.12	1297.00	1297.94	1298.50	1299.38	1300.25	1301.12	1302.50	1303.38	1304.75	1306.25	1307.44	1309.25	1310.25	1312.06	1313.50	1315.62	1317.94	1319.62	1322.06	1324.44	1326.75	1328.69	1331.19	1333.25	1336.19	1338.50	1341.06	1343.00	1345.00	1347.38	1349.19	1351.06	1352.38	1353.62	1354.81	1356.56	1357.31	1358.56	1360.00	1361.50	1363.25	1365.75	1368.50	1370.50	1372.25	1373.38	1374.56	1376.00	1377.94	1380.50	1383.56	1386.00	1388.75	1391.50	1394.00	1397.38	1400.75	1404.44	1409.81	1413.69	1418.69	1423.25	1428.00	1433.31	1437.75	1442.12	1447.12	1450.25	1453.88	1457.88	1461.06	1463.69	1466.00	1468.62	1470.88	1471.94	1473.31	1474.56	1475.50	1476.44	1476.75	1477.69	1477.94	1478.50	1479.00	1479.50	1480.12	1480.88	1481.62	1482.44	1483.56	1484.50	1486.12	1487.50	1489.06	1490.81	1492.69	1495.00	1497.75	1500.25	1503.44	1507.12	1510.69	1514.50	1518.25	1522.31	1525.31	1528.69	1532.00	1535.06	1538.00	1540.50	1543.75	1546.75	1549.56	1552.50	1555.25	1557.56	1560.50	1562.19	1564.38	1566.50	1568.31	1569.50	1571.31	1572.25	1573.69	1575.00	1577.25	1579.31	1581.00	1583.25	1585.62	1588.00	1590.75	1593.25	1596.56	1599.69	1602.38	1605.75	1608.19	1610.75	1613.25	1615.69	1616.88	1618.12	1619.00	1620.00
1198.00	1198.00	1198.00	1198.00	1197.00	1196.25	1194.75	1194.00	1192.50	1191.25	1189.75	1188.00	1186.50	1185.25	1184.25	1183.50	1182.50	1181.50	1180.75	1180.00	1179.50	1179.00	1178.25	1178.00	1178.00	1178.00	1178.00	1178.00	1178.00	1178.00	1179.00	1179.00	1179.75	1180.00	1180.50	1181.00	1181.25	1182.00	1182.75	1183.50	1185.50	1187.00	1189.00	1191.25	1193.75	1196.50	1199.75	1202.75	1206.50	1209.75	1214.00	1217.75	1221.75	1225.75	1230.00	1234.00	1238.25	1241.75	1245.75	1248.50	1251.75	1255.00	1257.25	1259.50	1261.50	1263.00	1265.25	1266.50	1267.75	1268.75	1269.75	1270.50	1271.00	1271.50	1272.00	1272.50	1273.00	1273.00	1273.50	1274.00	1274.25	1275.00	1275.00	1275.25	1276.00	1276.75	1277.50	1278.50	1279.75	1280.50	1281.75	1282.50	1283.75	1284.75	1286.00	1287.50	1288.25	1289.50	1290.75	1292.00	1293.00	1294.00	1294.50	1295.50	1296.25	1297.00	1298.00	1298.75	1300.00	1301.50	1302.25	1303.50	1304.75	1306.00	1307.00	1308.25	1310.00	1311.50	1313.25	1315.25	1316.25	1318.25	1319.50	1321.25	1323.75	1325.25	1327.50	1329.50	1331.25	1333.75	1335.50	1337.00	1339.75	1341.50	1343.50	1345.25	1347.25	1349.25	1350.50	1351.25	1352.75	1354.00	1355.00	1356.00	1356.75	1358.00	1359.25	1361.50	1364.00	1365.75	1368.50	1369.00	1369.25	1370.00	1371.00	1373.00	1376.25	1379.75	1383.00	1386.00	1388.75	1391.50	1394.00	1397.00	1400.75	1404.25	1409.25	1412.75	1417.00	1421.00	1425.00	1429.75	1434.00	1438.00	1442.25	1445.75	1449.75	1453.75	1456.00	1459.00	1461.50	1463.75	1465.25	1466.50	1468.25	1469.50	1470.25	1471.75	1473.00	1473.75	1474.00	1474.00	1474.50	1475.00	1475.25	1476.75	1477.50	1478.50	1479.25	1480.75	1482.75	1484.50	1486.25	1488.00	1491.00	1494.25	1497.00	1499.50	1504.00	1508.25	1512.00	1516.00	1519.75	1524.00	1527.00	1530.75	1533.50	1536.00	1538.75	1541.25	1543.75	1546.75	1549.00	1551.75	1554.50	1556.25	1559.00	1561.25	1563.25	1565.75	1567.75	1569.50	1571.50	1573.00	1575.00	1576.50	1578.75	1581.00	1583.25	1586.25	1588.25	1590.25	1593.00	1595.50	1598.25	1601.75	1604.25	1607.25	1609.50	1611.50	1614.00	1615.50	1616.50	1617.75	1619.00	1620.00
1198.00	1198.00	1198.00	1198.00	1197.00	1196.25	1194.75	1194.00	1192.50	1191.25	1189.75	1188.00	1186.50	1185.25	1184.25	1183.50	1182.50	1181.50	1180.75	1180.00	1179.50	1179.00	1178.25	1178.00	1178.00	1178.00	1178.00	1178.00	1178.00	1178.00	1179.00	1179.00	1179.75	1180.00	1180.50	1181.00	1181.25	1182.00	1182.75	1183.50	1185.50	1187.00	1189.00	1191.25	1193.75	1196.50	1199.75	1202.75	1206.50	1209.75	1214.00	1217.75	1221.75	1225.75	1230.00	1234.00	1238.25	1241.75	1245.75	1248.50	1251.75	1255.00	1257.25	1259.50	1261.50	1263.00	1265.25	1266.50	1267.75	1268.75	1269.75	1270.50	1271.00	1271.50	1272.00	1272.50	1273.00	1273.00	1273.50	1274.00	1274.25	1275.00	1275.00	1275.25	1276.00	1276.75	1277.50	1278.50	1279.75	1280.50	1281.75	1282.50	1283.75	1284.75	1286.00	1287.50	1288.25	1289.50	1290.75	1292.00	1293.00	1294.00	1294.50	1295.50	1296.25	1297.00	1298.00	1298.75	1300.00	1301.50	1302.25	1303.50	1304.75	1306.00	1307.00	1308.25	1310.00	1311.50	1313.25	1315.25	1316.25	1318.25	1319.50	1321.25	1323.75	1325.25	1327.50	1329.50	1331.25	1333.75	1335.50	1337.00	1339.75	1341.50	1343.50	1345.25	1347.25	1349.25	1350.50	1351.25	1352.75	1354.00	1355.00	1356.00	1356.75	1358.00	1359.25	1361.50	1364.00	1365.75	1368.50	1369.00	1369.25	1370.00	1371.00	1373.00	1376.25	1379.75	1383.00	1386.00	1388.75	1391.50	1394.00	1397.00	1400.75	1404.25	1409.25	1412.75	1417.00	1421.00	1425.00	1429.75	1434.00	1438.00	1442.25	1445.75	1449.75	1453.75	1456.00	1459.00	1461.50	1463.75	1465.25	1466.50	1468.25	1469.50	1470.25	1471.75	1473.00	1473.75	1474.00	1474.00	1474.50	1475.00	1475.25	1476.75	1477.50	1478.50	1479.25	1480.75	1482.75	1484.50	1486.25	1488.00	1491.00	1494.25	1497.00	1499.50	1504.00	1508.25	1512.00	1516.00	1519.75	1524.00	1527.00	1530.75	1533.50	1536.00	1538.75	1541.25	1543.75	1546.75	1549.00	1551.75	1554.50	1556.25	1559.00	1561.25	1563.25	1565.75	1567.75	1569.50	1571.50	1573.00	1575.00	1576.50	1578.75	1581.00	1583.25	1586.25	1588.25	1590.25	1593.00	1595.50	1598.25	1601.75	1604.25	1607.25	1609.50	1611.50	1614.00	1615.50	1616.50	1617.75	1619.00	1620.00
1198.00	1198.00	1198.00	1198.00	1197.00	1196.25	1194.75	1194.00	1192.50	1191.25	1189.75	1188.00	1186.50	1185.25	1184.25	1183.50	1182.50	1181.50	1180.75	1180.00	1179.50	1179.00	1178.25	1178.00	1178.00	1178.00	1178.00	1178.00	1178.00	1178.00	1179.00	1179.00	1179.75	1180.00	1180.50	1181.00	1181.25	1182.00	1182.75	1183.50	1185.50	1187.00	1189.00	1191.25	1193.75	1196.50	1199.75	1202.75	1206.50	1209.75	1214.00	1217.75	1221.75	1225.75	1230.00	1234.00	1238.25	1241.75	1245.75	1248.50	1251.75	1255.00	1257.25	1259.50	1261.50	1263.00	1265.25	1266.50	1267.75	1268.75	1269.75	1270.50	1271.00	1271.50	1272.00	1272.50	1273.00	1273.00	1273.50	1274.00	1274.25	1275.00	1275.00	1275.25	1276.00	1276.75	1277.50	1278.50	1279.75	1280.50	1281.75	1282.50	1283.75	1284.75	1286.00	1287.50	1288.25	1289.50	1290.75	1292.00	1293.00	1294.00	1294.50	1295.50	1296.25	1297.00	1298.00	1298.75	1300.00	1301.50	1302.25	1303.50	1304.75	1306.00	1307.00	1308.25	1310.00	1311.50	1313.25	1315.25	1316.25	1318.25	1319.50	1321.25	1323.75	1325.25	1327.50	1329.50	1331.25	1333.75	1335.50	1337.00	1339.75	1341.50	1343.50	1345.25	1347.25	1349.25	1350.50	1351.25	1352.75	1354.00	1355.00	1356.00	1356.75	1358.00	1359.25	1361.50	1364.00	1365.75	1368.50	1369.00	1369.25	1370.00	1371.00	1373.00	1376.25	1379.75	1383.00	1386.00	1388.75	1391.50	1394.00	1397.00	1400.75	1404.25	1409.25	1412.75	1417.00	1421.00	1425.00	1429.75	1434.00	1438.00	1442.25	1445.75	1449.75	1453.75	1456.00	1459.00	1461.50	1463.75	1465.25	1466.50	1468.25	1469.50	1470.25	1471.75	1473.00	1473.75	1474.00	1474.00	1474.50	1475.00	1475.25	1476.75	1477.50	1478.50	1479.25	1480.75	1482.75	1484.50	1486.25	1488.00	1491.00	1494.25	1497.00	1499.50	1504.00	1508.25	1512.00	1516.00	1519.75	1524.00	1527.00	1530.75	1533.50	1536.00	1538.75	1541.25	1543.75	1546.75	1549.00	1551.75	1554.50	1556.25	1559.00	1561.25	1563.25	1565.75	1567.75	1569.50	1571.50	1573.00	1575.00	1576.50	1578.75	1581.00	1583.25	1586.25	1588.25	1590.25	1593.00	1595.50	1598.25	1601.75	1604.25	1607.25	1609.50	1611.50	1614.00	1615.50	1616.50	1617.75	1619.00	1620.00
1197.25	1197.25	1197.25	1197.06	1196.25	1195.44	1194.06	1193.31	1191.75	1190.50	1189.00	1187.31	1185.88	1184.75	1183.69	1182.94	1182.00	1181.06	1180.31	1179.50	1178.88	1178.44	1177.69	1177.50	1177.50	1177.50	1177.50	1177.50	1177.50	1177.50	1178.31	1178.50	1179.06	1179.50	1179.94	1180.50	1180.75	1181.50	1182.25	1183.12	1185.00	1186.44	1188.31	1190.50	1193.00	1195.75	1198.81	1201.88	1205.62	1208.88	1213.06	1216.81	1220.88	1224.81	1229.00	1233.00	1237.19	1240.56	1244.38	1247.25	1250.56	1253.75	1256.00	1258.38	1260.31	1261.94	1264.12	1265.50	1266.75	1267.88	1268.81	1269.56	1270.12	1270.75	1271.25	1271.69	1272.25	1272.25	1272.62	1273.12	1273.44	1274.00	1274.00	1274.31	1275.00	1275.62	1276.38	1277.25	1278.62	1279.50	1280.75	1281.69	1283.06	1284.12	1285.50	1287.00	1287.94	1289.50	1290.94	1292.44	1293.69	1295.00	1295.81	1297.00	1298.00	1298.88	1299.88	1300.75	1301.94	1303.31	1304.06	1305.44	1306.62	1307.88	1309.00	1310.12	1311.75	1313.25	1314.81	1316.75	1317.75	1319.69	1321.00	1322.75	1325.00	1326.50	1328.69	1330.50	1332.25	1334.56	1336.31	1337.94	1340.50	1342.25	1344.19	1345.88	1347.62	1349.56	1350.69	1351.50	1352.88	1354.12	1355.12	1356.19	1357.00	1358.38	1359.62	1361.81	1364.25	1365.88	1368.12	1368.69	1368.94	1369.62	1370.81	1372.88	1376.00	1379.25	1382.44	1385.44	1388.25	1391.25	1393.75	1396.88	1400.56	1404.00	1408.94	1412.31	1416.31	1420.12	1424.00	1428.44	1432.50	1436.44	1440.69	1444.06	1447.81	1451.75	1454.06	1457.25	1459.75	1462.12	1463.88	1465.19	1467.06	1468.25	1469.12	1470.50	1471.75	1472.56	1472.75	1472.94	1473.38	1474.00	1474.25	1475.62	1476.38	1477.50	1478.50	1480.12	1482.12	1484.06	1486.06	1488.00	1490.94	1494.00	1497.06	1500.00	1504.62	1508.94	1512.81	1516.94	1520.62	1525.00	1528.00	1531.25	1534.00	1536.31	1539.00	1541.31	1543.75	1546.62	1548.75	1551.38	1554.00	1555.69	1558.31	1560.50	1562.69	1565.25	1567.38	1569.31	1571.81	1573.50	1575.50	1577.25	1579.56	1582.00	1584.25	1587.00	1589.12	1591.25	1594.00	1596.50	1599.25	1602.56	1605.00	1608.00	1610.25	1612.12	1614.31	1615.75	1616.94	1618.12	1619.25	1620.25
1195.00	1195.00	1195.00	1194.25	1194.00	1193.00	1192.00	1191.25	1189.50	1188.25	1186.75	1185.25	1184.00	1183.25	1182.00	1181.25	1180.50	1179.75	1179.00	1178.00	1177.00	1176.75	1176.00	1176.00	1176.00	1176.00	1176.00	1176.00	1176.00	1176.00	1176.25	1177.00	1177.00	1178.00	1178.25	1179.00	1179.25	1180.00	1180.75	1182.00	1183.50	1184.75	1186.25	1188.25	1190.75	1193.50	1196.00	1199.25	1203.00	1206.25	1210.25	1214.00	1218.25	1222.00	1226.00	1230.00	1234.00	1237.00	1240.25	1243.50	1247.00	1250.00	1252.25	1255.00	1256.75	1258.75	1260.75	1262.50	1263.75	1265.25	1266.00	1266.75	1267.50	1268.50	1269.00	1269.25	1270.00	1270.00	1270.00	1270.50	1271.00	1271.00	1271.00	1271.50	1272.00	1272.25	1273.00	1273.50	1275.25	1276.50	1277.75	1279.25	1281.00	1282.25	1284.00	1285.50	1287.00	1289.50	1291.50	1293.75	1295.75	1298.00	1299.75	1301.50	1303.25	1304.50	1305.50	1306.75	1307.75	1308.75	1309.50	1311.25	1312.25	1313.50	1315.00	1315.75	1317.00	1318.50	1319.50	1321.25	1322.25	1324.00	1325.50	1327.25	1328.75	1330.25	1332.25	1333.50	1335.25	1337.00	1338.75	1340.75	1342.75	1344.50	1346.25	1347.75	1348.75	1350.50	1351.25	1352.25	1353.25	1354.50	1355.50	1356.75	1357.75	1359.50	1360.75	1362.75	1365.00	1366.25	1367.00	1367.75	1368.00	1368.50	1370.25	1372.50	1375.25	1377.75	1380.75	1383.75	1386.75	1390.50	1393.00	1396.50	1400.00	1403.25	1408.00	1411.00	1414.25	1417.50	1421.00	1424.50	1428.00	1431.75	1436.00	1439.00	1442.00	1445.75	1448.25	1452.00	1454.50	1457.25	1459.75	1461.25	1463.50	1464.50	1465.75	1466.75	1468.00	1469.00	1469.00	1469.75	1470.00	1471.00	1471.25	1472.25	1473.00	1474.50	1476.25	1478.25	1480.25	1482.75	1485.50	1488.00	1490.75	1493.25	1497.25	1501.50	1506.50	1511.00	1515.25	1519.75	1523.25	1528.00	1531.00	1532.75	1535.50	1537.25	1539.75	1541.50	1543.75	1546.25	1548.00	1550.25	1552.50	1554.00	1556.25	1558.25	1561.00	1563.75	1566.25	1568.75	1572.75	1575.00	1577.00	1579.50	1582.00	1585.00	1587.25	1589.25	1591.75	1594.25	1597.00	1599.50	1602.25	1605.00	1607.25	1610.25	1612.50	1614.00	1615.25	1616.50	1618.25	1619.25	1620.00	1621.00
1195.00	1195.00	1195.00	1194.25	1194.00	1193.00	1192.00	1191.25	1189.50	1188.25	1186.75	1185.25	1184.00	1183.25	1182.00	1181.25	1180.50	1179.75	1179.00	1178.00	1177.00	1176.75	1176.00	1176.00	1176.00	1176.00	1176.00	1176.00	1176.00	1176.00	1176.25	1177.00	1177.00	1178.00	1178.25	1179.00	1179.25	1180.00	1180.75	1182.00	1183.50	1184.75	1186.25	1188.25	1190.75	1193.50	1196.00	1199.25	1203.00	1206.25	1210.25	1214.00	1218.25	1222.00	1226.00	1230.00	1234.00	1237.00	1240.25	1243.50	1247.00	1250.00	1252.25	1255.00	1256.75	1258.75	1260.75	1262.50	1263.75	1265.25	1266.00	1266.75	1267.50	1268.50	1269.00	1269.25	1270.00	1270.00	1270.00	1270.50	1271.00	1271.00	1271.00	1271.50	1272.00	1272.25	1273.00	1273.50	1275.25	1276.50	1277.75	1279.25	1281.00	1282.25	1284.00	1285.50	1287.00	1289.50	1291.50	1293.75	1295.75	1298.00	1299.75	1301.50	1303.25	1304.50	1305.50	1306.75	1307.75	1308.75	1309.50	1311.25	1312.25	1313.50	1315.00	1315.75	1317.00	1318.50	1319.50	1321.25	1322.25	1324.00	1325.50	1327.25	1328.75	1330.25	1332.25	1333.50	1335.25	1337.00	1338.75	1340.75	1342.75	1344.50	1346.25	1347.75	1348.75	1350.50	1351.25	1352.25	1353.25	1354.50	1355.50	1356.75	1357.75	1359.50	1360.75	1362.75	1365.00	1366.25	1367.00	1367.75	1368.00	1368.50	1370.25	1372.50	1375.25	1377.75	1380.75	1383.75	1386.75	1390.50	1393.00	1396.50	1400.00	1403.25	1408.00	1411.00	1414.25	1417.50	1421.00	1424.50	1428.00	1431.75	1436.00	1439.00	1442.00	1445.75	1448.25	1452.00	1454.50	1457.25	1459.75	1461.25	1463.50	1464.50	1465.75	1466.75	1468.00	1469.00	1469.00	1469.75	1470.00	1471.00	1471.25	1472.25	1473.00	1474.50	1476.25	1478.25	1480.25	1482.75	1485.50	1488.00	1490.75	1493.25	1497.25	1501.50	1506.50	1511.00	1515.25	1519.75	1523.25	1528.00	1531.00	1532.75	1535.50	1537.25	1539.75	1541.50	1543.75	1546.25	1548.00	1550.25	1552.50	1554.00	1556.25	1558.25	1561.00	1563.75	1566.25	1568.75	1572.75	1575.00	1577.00	1579.50	1582.00	1585.00	1587.25	1589.25	1591.75	1594.25	1597.00	1599.50	1602.25	1605.00	1607.25	1610.25	1612.50	1614.00	1615.25	1616.50	1618.25	1619.25	1620.00	1621.00
1195.00	1195.00	1195.00	1194.25	1194.00	1193.00	1192.00	1191.25	1189.50	1188.25	1186.75	1185.25	1184.00	1183.25	1182.00	1181.25	1180.50	1179.75	1179.00	1178.00	1177.00	1176.75	1176.00	1176.00	1176.00	1176.00	1176.00	1176.00	1176.00	1176.00	1176.25	1177.00	1177.00	1178.00	1178.25	1179.00	1179.25	1180.00	1180.75	1182.00	1183.50	1184.75	1186.25	1188.25	1190.75	1193.50	1196.00	1199.25	1203.00	1206.25	1210.25	1214.00	1218.25	1222.00	1226.00	1230.00	1234.00	1237.00	1240.25	1243.50	1247.00	1250.00	1252.25	1255.00	1256.75	1258.75	1260.75	1262.50	1263.75	1265.25	1266.00	1266.75	1267.50	1268.50	1269.00	1269.25	1270.00	1270.00	1270.00	1270.50	1271.00	1271.00	1271.00	1271.50	1272.00	1272.25	1273.00	1273.50	1275.25	1276.50	1277.75	1279.25	1281.00	1282.25	1284.00	1285.50	1287.00	1289.50	1291.50	1293.75	1295.75	1298.00	1299.75	1301.50	1303.25	1304.50	1305.50	1306.75	1307.75	1308.75	1309.50	1311.25	1312.25	1313.50	1315.00	1315.75	1317.00	1318.50	1319.50	1321.25	1322.25	1324.00	1325.50	1327.25	1328.75	1330.25	1332.25	1333.50	1335.25	1337.00	1338.75	1340.75	1342.75	1344.50	1346.25	1347.75	1348.75	1350.50	1351.25	1352.25	1353.25	1354.50	1355.50	1356.75	1357.75	1359.50	1360.75	1362.75	1365.00	1366.25	1367.00	1367.75	1368.00	1368.50	1370.25	1372.50	1375.25	1377.75	1380.75	1383.75	1386.75	1390.50	1393.00	1396.50	1400.00	1403.25	1408.00	1411.00	1414.25	1417.50	1421.00	1424.50	1428.00	1431.75	1436.00	1439.00	1442.00	1445.75	1448.25	1452.00	1454.50	1457.25	1459.75	1461.25	1463.50	1464.50	1465.75	1466.75	1468.00	1469.00	1469.00	1469.75	1470.00	1471.00	1471.25	1472.25	1473.00	1474.50	1476.25	1478.25	1480.25	1482.75	1485.50	1488.00	1490.75	1493.25	1497.25	1501.50	1506.50	1511.00	1515.25	1519.75	1523.25	1528.00	1531.00	1532.75	1535.50	1537.25	1539.75	1541.50	1543.75	1546.25	1548.00	1550.25	1552.50	1554.00	1556.25	1558.25	1561.00	1563.75	1566.25	1568.75	1572.75	1575.00	1577.00	1579.50	1582.00	1585.00	1587.25	1589.25	1591.75	1594.25	1597.00	1599.50	1602.25	1605.00	1607.25	1610.25	1612.50	1614.00	1615.25	1616.50	1618.25	1619.25	1620.00	1621.00
1189.50	1190.00	1190.00	1190.00	1190.00	1189.00	1188.25	1187.50	1186.50	1185.00	1184.25	1183.00	1182.00	1181.00	1179.75	1179.00	1178.00	1177.00	1176.75	1176.00	1176.00	1175.00	1174.75	1174.00	1174.00	1174.00	1174.00	1174.25	1175.00	1175.00	1175.25	1176.00	1176.00	1176.75	1177.00	1177.50	1178.00	1178.75	1179.75	1180.50	1181.50	1183.00	1184.75	1186.75	1188.75	1191.50	1194.00	1196.75	1199.50	1202.75	1206.25	1210.00	1214.25	1218.00	1222.00	1225.00	1228.75	1231.75	1235.00	1238.50	1241.00	1244.00	1246.25	1249.00	1251.75	1253.25	1256.00	1257.50	1259.00	1260.25	1261.00	1262.00	1263.25	1264.00	1265.00	1265.50	1266.00	1266.75	1267.00	1267.00	1267.75	1268.00	1268.00	1269.00	1269.25	1270.00	1271.00	1272.00	1273.25	1274.50	1276.25	1277.75	1280.25	1282.00	1284.00	1286.50	1289.00	1291.00	1293.25	1296.25	1299.75	1303.00	1305.75	1308.50	1309.75	1311.50	1313.00	1314.25	1315.25	1316.00	1317.25	1318.50	1319.00	1320.00	1320.50	1321.00	1321.75	1322.50	1323.00	1324.00	1324.25	1325.75	1327.00	1328.25	1330.00	1331.50	1333.25	1334.50	1336.25	1338.00	1339.75	1341.75	1343.75	1345.50	1347.25	1348.75	1349.75	1351.50	1352.50	1353.75	1354.75	1356.00	1356.75	1358.25	1359.50	1360.75	1362.25	1363.25	1364.25	1365.50	1367.00	1367.75	1368.50	1369.50	1370.75	1371.50	1373.25	1375.75	1378.75	1381.00	1384.00	1387.50	1390.25	1393.75	1397.00	1400.00	1403.75	1406.75	1409.75	1413.50	1416.00	1419.00	1422.25	1425.25	1428.75	1431.00	1434.75	1438.00	1441.00	1445.25	1448.50	1452.25	1455.00	1457.25	1459.25	1460.75	1462.25	1463.75	1465.00	1466.75	1467.75	1468.50	1469.00	1470.00	1470.00	1470.25	1471.50	1472.50	1474.00	1475.50	1478.25	1481.25	1484.50	1487.00	1491.25	1495.50	1500.25	1505.00	1509.50	1515.00	1519.25	1524.00	1528.25	1531.50	1533.00	1535.75	1537.50	1539.75	1541.50	1543.25	1544.75	1546.75	1548.25	1550.25	1552.00	1553.25	1556.00	1558.25	1561.00	1564.25	1567.25	1570.75	1574.75	1577.75	1581.25	1584.50	1587.25	1591.00	1593.25	1596.25	1598.75	1601.25	1604.00	1606.00	1608.25	1610.25	1612.25	1614.50	1615.50	1617.00	1618.25	1619.50	1620.50	1621.00	1622.00	1622.75
