248.25	253.56	270.44	283.75	296.31	314.56	320.75	337.88	348.00	352.06	349.19	350.94	348.56	345.25	324.94	303.56	289.62	278.56	274.94	259.88	209.50	235.62	293.44	301.81	305.81	304.25	290.25	277.12	264.88	271.94	289.62	305.31	305.00	292.00	283.00	277.00	263.44	259.94	237.31	207.25	162.94	123.00	109.00	109.00	109.00	111.06	124.50	144.25	170.12	196.25	214.81	207.38	184.62	177.69	168.94	161.25	154.31	148.00	152.88	158.25	160.44	157.06	165.56	172.75	173.81	174.19	176.88	179.44	183.44	188.50	196.00	204.00	210.56	216.62	221.56	232.31	235.69	244.81	258.75	277.81	290.19	288.50	288.94	289.88	289.62	287.50	277.50	276.38	273.19	274.75	276.81	281.12	287.25	274.50	276.12	272.94	283.00	289.56	286.75	288.25	272.12	260.44	259.50	261.56	258.69	259.50	257.19	262.38	260.19	251.00	254.62	263.56	266.81	266.31	264.81	265.00	266.06	256.06	251.56	249.31	245.12	244.00	236.50	250.50	239.31	235.19	235.00	235.00	235.75	247.12	257.25	284.31	363.19	296.81	255.00	255.00	255.00	255.00	255.00	255.00	255.00	255.00	255.00	255.00	255.00	255.00	255.00	260.56	274.62	290.62	319.06	357.56	370.06	390.25	405.69	419.88	428.38	409.81	374.50	339.31	328.62	324.56	332.06	334.81	339.81	344.31	348.50	349.81	351.38	350.19	357.44	355.19	350.06	343.75	335.62	332.62	326.62	320.38	315.19	305.62	301.38	297.00	297.00	297.00	297.00	297.00	298.38	299.88	297.06	297.50	299.69	300.00	300.00	306.56	310.00	309.81	310.38	312.56	313.69	298.50	294.75	292.31	294.19	297.88	302.50	313.06	327.75	343.19	346.69	335.19	324.88	321.00	319.31	305.25	279.38	269.88	273.19	265.62	264.50	270.00	275.00	284.88	293.69	306.56	342.94	382.56	380.62	366.25	349.38	327.56	319.88	325.00	328.81	332.88	339.12	339.38	323.62	313.19	313.69	320.25	328.06	337.62	341.56	344.75	343.56	356.75	356.62	351.56	342.06	360.56	356.44	347.56	343.12	341.38	344.50	340.50
230.69	260.38	279.38	289.31	302.62	314.12	320.88	334.06	343.62	340.06	346.94	349.06	336.31	335.44	330.31	306.56	291.56	280.69	274.62	265.44	216.19	205.62	260.00	295.00	304.44	297.69	279.69	260.25	253.50	265.75	288.81	304.50	305.06	299.25	297.81	292.19	282.31	279.94	253.50	222.81	183.75	141.56	109.25	109.00	109.00	109.19	120.62	144.69	170.50	201.62	209.88	201.62	186.06	182.50	177.00	163.94	151.69	143.94	147.38	153.31	154.69	156.00	162.38	169.69	170.50	172.56	175.94	178.94	183.56	187.31	195.62	202.88	212.38	219.00	224.94	234.81	242.81	253.81	259.75	270.31	283.69	289.06	289.19	287.62	285.75	280.81	277.19	279.81	279.31	279.12	280.25	279.69	284.62	277.06	271.38	270.94	277.44	290.00	288.81	277.56	271.38	272.31	276.75	275.31	271.06	267.31	270.81	255.00	254.19	242.69	244.94	250.31	249.31	248.62	246.81	253.75	261.31	256.06	250.62	248.81	244.19	239.75	237.06	245.75	240.69	236.75	235.25	235.00	235.00	238.75	253.50	287.31	330.88	278.94	255.00	255.00	255.00	255.00	255.00	255.00	255.00	255.00	255.00	255.00	255.00	255.00	255.00	260.44	273.44	288.00	313.62	358.81	365.06	379.25	393.06	413.31	427.31	419.50	389.62	351.50	339.69	337.69	337.75	345.75	348.69	348.88	351.69	352.06	352.44	352.94	359.12	355.44	351.00	348.75	341.62	334.81	327.56	320.81	315.38	304.62	297.50	297.00	297.00	297.00	297.00	297.00	297.06	298.94	297.06	297.88	300.00	300.00	300.00	304.88	309.62	310.00	310.94	312.56	312.50	300.38	293.38	290.69	290.62	291.06	289.62	296.62	316.31	333.56	338.31	330.88	318.50	315.62	310.00	301.38	282.00	274.75	270.69	264.12	265.38	268.62	273.12	281.75	292.38	303.44	348.81	429.38	392.62	369.81	344.19	326.31	318.00	328.25	328.31	331.19	333.50	325.69	314.06	314.56	329.50	331.19	340.50	344.25	344.50	350.88	359.19	373.00	368.62	366.50	357.00	380.62	377.19	363.75	364.69	358.12	358.69	353.94
242.62	277.44	291.94	303.25	314.25	311.50	311.94	317.50	322.38	326.81	342.44	344.69	337.19	344.75	330.81	307.75	293.06	278.81	273.38	274.12	237.56	200.12	232.75	299.81	304.38	289.00	270.25	244.69	245.94	262.44	285.31	301.62	305.50	306.44	307.62	304.62	302.06	292.62	273.38	245.50	191.00	146.06	111.00	109.00	109.00	109.00	120.88	142.62	167.44	195.12	211.56	200.12	183.31	180.88	182.69	165.88	153.62	146.12	146.25	153.44	153.12	153.88	159.50	165.50	168.50	170.81	175.88	179.12	184.75	189.62	197.31	207.75	216.62	223.56	229.56	238.69	247.00	255.62	267.62	281.75	289.94	293.69	293.44	290.00	285.19	283.31	281.25	283.00	285.50	288.19	290.38	294.44	282.88	272.50	265.69	267.25	268.88	278.50	277.44	269.44	267.19	273.81	283.62	282.50	285.75	283.00	287.38	277.25	273.50	247.44	240.94	244.06	252.06	258.56	260.88	268.12	267.50	255.19	254.56	253.75	253.50	249.69	254.94	258.31	249.06	242.88	237.38	235.00	235.06	239.62	253.44	288.62	321.81	266.19	255.00	255.00	255.00	255.00	255.00	255.00	255.00	255.00	255.00	255.00	255.00	255.00	255.00	258.19	270.88	285.62	308.81	355.50	355.88	366.25	381.81	403.38	427.56	432.50	405.69	367.06	351.56	351.19	346.75	352.44	358.19	354.81	355.06	354.94	354.31	355.50	360.56	356.25	351.94	351.19	345.00	334.50	329.00	324.19	316.31	307.81	297.06	297.00	297.00	297.00	297.00	297.00	297.00	297.00	298.31	300.00	299.94	300.06	300.94	307.38	309.88	310.25	312.06	312.75	312.25	304.06	293.44	291.12	288.25	288.94	286.88	288.56	302.81	319.44	325.81	324.19	311.69	310.62	306.75	295.06	278.50	266.81	264.44	264.00	264.12	266.44	273.25	278.75	291.00	301.81	326.94	405.88	416.44	369.25	343.88	326.00	316.31	322.38	329.19	334.88	330.19	315.50	314.38	324.12	338.81	339.69	347.31	352.06	367.25	380.00	375.06	383.12	378.81	378.62	377.44	379.19	386.69	370.31	373.44	367.44	369.50	358.94
254.94	288.06	300.50	308.38	309.12	302.62	297.81	300.50	312.75	318.75	339.56	350.31	347.69	344.75	328.94	304.12	293.25	280.44	273.06	275.44	267.69	212.81	209.06	283.75	305.44	280.62	261.94	233.94	239.88	263.25	284.06	300.81	305.69	306.06	307.00	308.94	309.06	302.06	281.31	241.38	181.75	147.12	112.75	109.00	109.00	109.00	117.25	137.19	161.56	184.12	201.00	185.19	177.69	172.38	170.50	154.56	151.81	148.44	144.50	151.31	152.50	152.25	152.38	158.94	163.69	169.31	175.00	181.00	187.19	195.12	203.75	213.56	224.12	228.81	233.38	242.19	251.75	262.69	276.62	292.81	298.88	298.94	298.44	296.00	288.38	290.00	287.38	285.31	293.88	290.25	287.38	287.88	279.69	270.81	261.25	262.75	263.06	264.25	264.69	263.75	264.38	269.31	278.56	271.62	277.75	283.81	286.31	271.44	273.50	253.31	244.44	251.56	258.88	265.75	267.88	268.06	262.75	266.56	271.06	268.50	272.62	275.69	271.62	273.62	256.31	241.44	238.56	235.00	236.62	244.69	256.50	290.25	349.88	282.38	255.00	255.00	255.00	255.00	255.00	255.00	255.00	255.00	255.00	255.00	255.00	255.00	255.00	255.81	268.88	283.06	302.00	345.69	360.62	354.19	371.50	387.75	418.62	432.19	409.06	374.69	367.81	364.38	362.50	359.81	366.50	363.75	359.19	357.56	355.88	356.19	360.50	358.56	352.75	349.75	343.69	335.62	333.75	332.00	326.38	316.19	297.00	297.00	297.00	297.00	297.00	297.00	297.00	297.00	299.12	300.56	300.00	301.00	304.12	308.06	309.44	308.94	313.62	316.44	314.62	305.75	295.69	290.38	288.19	289.75	287.69	285.50	292.88	305.69	311.44	319.00	308.75	308.12	302.25	294.19	276.62	264.50	265.19	264.00	264.75	266.62	270.88	277.62	287.69	304.12	324.19	376.94	417.81	362.44	341.25	323.12	316.44	317.94	326.56	336.62	325.12	313.44	321.19	333.44	343.94	344.94	357.75	379.62	396.06	401.94	393.56	389.94	402.75	404.69	394.38	393.94	380.56	361.94	361.62	366.56	371.69	368.44
242.81	291.81	305.88	305.38	303.75	288.88	286.06	291.69	303.00	316.19	346.25	365.44	363.38	339.38	319.69	301.50	291.19	288.62	273.00	270.81	271.38	216.44	199.06	245.62	295.88	274.19	243.06	221.69	239.50	266.88	288.06	304.31	305.19	305.81	306.00	310.56	309.44	306.25	292.31	269.06	201.06	144.25	113.38	109.00	109.00	109.00	113.56	133.31	155.38	177.25	192.81	181.56	173.00	162.38	154.88	148.56	146.12	141.88	135.19	139.19	146.19	148.25	148.19	158.25	164.12	171.44	179.19	184.62	189.56	198.38	209.12	217.38	225.88	229.69	235.00	245.62	256.75	266.75	277.81	293.31	309.00	301.50	298.75	301.62	294.50	284.06	283.44	290.00	292.25	284.31	285.56	275.44	269.31	264.12	257.75	259.88	259.81	261.56	265.38	271.81	277.19	276.12	281.44	259.38	256.50	271.50	273.06	249.94	244.31	243.19	245.12	251.50	257.88	260.00	270.75	271.56	272.19	269.88	286.25	274.38	273.56	277.00	271.94	264.75	251.19	240.38	235.19	235.06	238.25	246.81	254.69	269.81	346.12	322.69	257.19	255.00	255.00	255.00	255.00	255.00	255.00	255.00	255.00	255.00	255.00	255.00	255.00	255.00	262.56	280.69	294.31	329.00	359.94	344.56	355.56	369.38	391.56	415.56	388.44	400.38	396.88	376.19	369.50	370.44	378.12	378.88	372.25	361.88	357.56	357.88	357.69	357.81	351.38	348.25	342.31	340.12	341.62	341.12	339.88	322.94	297.00	297.00	297.00	297.00	297.00	297.00	297.00	297.00	297.38	300.56	300.69	304.56	306.75	309.12	308.00	306.00	311.44	317.94	317.56	308.81	298.12	289.94	289.44	290.25	289.25	284.44	283.12	294.00	299.06	309.38	303.81	302.19	297.69	295.75	279.81	266.44	264.12	264.00	265.69	269.88	269.56	278.00	287.06	308.94	338.69	381.88	417.94	356.56	335.75	321.31	316.00	316.81	327.50	329.06	316.00	319.62	336.25	342.25	347.44	365.62	402.88	414.69	413.19	424.44	409.44	399.88	418.19	418.00	404.75	400.12	386.62	371.69	376.38	368.69	377.75	377.56
220.88	291.62	303.62	298.75	285.00	272.62	278.62	289.62	300.00	310.50	330.75	353.75	372.25	344.12	313.88	302.75	290.75	280.88	270.62	273.62	273.25	220.75	198.88	198.25	217.25	249.25	226.75	217.12	240.75	267.50	283.88	298.50	304.62	306.75	308.00	312.62	310.75	308.25	303.12	256.88	188.75	141.75	112.12	109.00	109.00	109.00	109.50	126.75	150.50	175.50	186.38	200.00	184.38	157.88	150.12	144.88	141.75	138.25	133.75	132.12	134.50	138.00	148.38	156.25	165.75	173.88	178.00	186.38	192.62	200.25	207.75	215.25	223.12	228.75	235.50	245.75	253.50	263.50	273.62	287.50	312.25	302.75	293.00	301.75	293.62	279.62	270.88	285.50	279.12	265.25	265.75	260.12	256.62	254.25	252.25	252.88	253.00	253.38	259.25	265.62	274.38	267.38	264.38	250.50	240.00	243.00	244.38	233.50	231.00	232.88	239.75	245.00	250.88	253.25	263.50	269.62	270.38	259.25	268.12	266.75	261.38	262.38	257.12	257.88	253.38	247.50	241.25	240.38	242.12	248.88	255.12	264.25	316.25	337.88	262.38	255.00	255.00	255.00	255.00	255.00	255.00	255.00	255.00	255.00	255.00	255.00	255.00	255.00	258.62	271.88	286.00	308.25	334.12	336.75	337.62	350.12	370.12	380.00	378.12	406.75	416.88	416.38	395.38	383.00	375.75	380.00	385.50	370.75	364.50	358.25	352.88	350.25	346.38	344.62	341.12	342.88	346.00	354.12	340.12	309.75	297.00	297.00	297.00	297.00	297.00	297.00	297.50	300.38	297.12	298.00	301.25	303.62	307.00	308.12	306.75	306.00	308.62	314.38	318.75	310.38	296.12	288.75	288.88	289.62	289.38	287.25	282.75	283.25	290.88	298.00	298.00	296.50	291.88	294.00	283.38	268.00	264.25	264.00	264.00	265.50	267.25	275.38	285.00	309.75	345.12	396.50	385.88	344.00	329.62	318.38	316.25	318.50	323.50	324.00	314.62	327.25	339.62	350.38	362.88	391.38	425.38	436.38	428.75	424.88	410.88	403.50	410.75	406.12	418.00	401.50	385.88	370.38	379.00	378.62	379.12	355.25
186.12	278.38	301.25	291.00	264.12	261.12	281.75	292.88	300.62	305.75	319.12	329.75	349.62	350.38	317.88	300.75	291.88	282.00	272.75	267.50	259.62	235.50	206.25	198.00	198.50	209.75	200.12	211.62	255.50	281.88	281.50	294.25	306.50	307.75	309.38	312.75	310.25	305.12	293.75	242.75	171.00	135.62	109.62	109.00	109.00	109.00	114.38	133.75	156.00	173.25	181.25	181.00	169.25	151.00	145.75	140.75	137.88	134.75	131.62	129.62	132.25	137.88	148.12	155.25	165.75	173.38	178.88	185.88	191.62	200.50	208.50	214.88	220.50	226.12	235.25	247.00	252.62	258.25	266.25	272.88	310.12	301.00	291.00	298.38	288.12	280.75	264.12	266.75	278.75	255.50	247.38	247.38	246.75	245.00	243.50	244.88	243.25	239.50	244.38	252.38	255.50	251.88	256.50	243.50	234.38	233.25	232.25	229.00	229.00	229.00	229.75	233.12	242.38	243.25	253.88	265.00	272.25	261.38	259.12	256.50	270.62	280.12	269.62	268.88	259.88	249.50	244.00	242.00	242.38	250.38	259.88	266.25	307.12	340.00	260.12	255.00	255.00	255.00	255.00	255.00	255.00	255.00	255.00	255.00	255.00	255.00	255.00	255.00	255.38	266.50	274.75	290.25	306.38	323.88	329.50	333.25	349.50	355.50	378.00	409.62	426.88	440.62	443.38	418.00	388.62	383.38	380.12	383.00	377.62	364.50	351.62	346.75	340.62	340.62	337.50	339.62	351.12	353.75	335.12	309.25	297.75	297.00	297.00	297.00	297.00	297.00	297.00	297.00	297.00	297.00	298.88	301.75	305.00	306.50	305.38	306.00	307.62	310.50	315.25	315.50	299.00	287.38	287.12	289.25	289.38	289.38	285.25	280.12	281.00	291.75	293.88	291.62	286.75	286.62	281.88	271.50	265.12	264.00	264.00	264.12	266.12	271.75	283.00	308.50	355.62	385.62	355.12	331.25	318.25	319.00	319.75	319.75	319.75	319.62	317.12	333.25	342.50	352.00	379.12	402.75	423.50	434.75	422.50	420.62	416.75	410.25	402.75	424.00	416.38	405.50	385.62	380.12	378.62	375.62	368.50	351.00
164.69	233.56	274.75	261.94	246.31	250.50	275.50	287.81	289.94	293.56	300.75	310.25	323.25	332.69	309.62	300.56	300.94	289.62	278.12	274.56	268.25	271.12	227.00	198.00	198.00	198.00	198.38	222.38	273.19	287.56	276.38	291.56	304.75	306.88	307.12	309.06	305.31	299.38	273.25	212.31	153.25	120.44	109.00	109.00	109.00	109.50	125.56	150.06	168.56	180.94	179.75	171.75	162.12	153.06	146.62	140.50	135.44	131.69	128.69	128.50	132.44	137.06	146.56	153.25	162.94	170.81	177.50	184.31	191.31	198.56	204.06	210.88	219.56	230.69	241.12	265.69	259.12	249.50	256.12	264.56	302.56	287.62	284.50	293.31	283.31	275.25	260.38	257.81	253.44	249.12	243.88	241.81	240.50	238.56	236.75	238.94	236.50	236.25	233.81	233.25	239.75	236.06	231.69	230.19	230.31	230.25	230.12	229.00	229.00	229.12	230.81	233.38	235.56	237.94	240.06	244.44	253.00	252.50	252.25	241.81	242.31	250.94	249.06	248.25	244.50	242.00	245.19	243.31	242.00	244.44	255.06	256.50	304.94	360.06	259.88	255.00	255.00	255.00	255.00	255.00	255.00	255.00	255.00	255.00	255.06	260.31	255.38	255.00	255.00	258.44	267.38	275.81	289.50	308.81	327.00	332.75	339.31	357.88	379.94	405.44	425.62	447.62	460.25	445.56	408.69	397.44	391.25	387.81	387.94	368.62	353.44	348.56	341.12	333.81	331.25	334.00	345.19	349.50	337.12	318.88	302.69	297.00	297.00	297.00	297.00	297.00	297.00	297.00	297.00	297.00	297.00	299.38	302.50	304.44	305.00	306.38	306.75	307.56	310.25	313.56	302.81	289.94	285.38	289.38	289.56	288.50	284.88	278.88	276.25	286.38	291.81	286.50	282.06	280.00	276.38	271.81	265.88	264.06	264.00	264.00	265.56	270.88	280.19	308.44	369.31	372.69	340.75	322.62	313.94	315.94	319.06	319.81	318.88	314.69	325.75	337.94	345.62	357.88	381.94	397.50	423.38	437.06	430.31	425.94	436.06	437.88	417.81	410.00	411.38	395.88	387.19	378.81	360.94	365.50	367.19	360.25
161.00	187.44	223.88	233.12	240.31	254.88	264.94	276.69	279.81	287.81	292.50	296.25	311.44	321.81	309.75	304.94	300.69	290.56	280.69	276.12	272.81	266.75	223.06	198.00	198.00	200.00	217.62	252.25	277.94	274.12	272.25	288.38	300.62	303.69	302.00	298.81	291.75	283.88	255.62	197.00	140.69	109.94	109.00	109.00	109.00	113.12	133.94	158.56	179.56	189.38	188.69	189.00	185.62	174.50	156.00	146.44	136.19	129.69	126.12	127.25	132.06	137.69	148.12	153.69	162.06	170.19	176.31	182.00	187.94	193.56	200.19	205.69	218.00	233.50	249.12	278.56	260.81	250.12	255.19	265.50	287.81	278.00	282.75	285.56	277.88	269.62	258.56	258.50	252.31	249.19	248.31	245.56	240.44	238.88	231.62	232.69	229.81	230.12	229.69	229.00	228.44	228.38	229.06	231.00	231.38	231.00	229.88	229.00	229.00	229.19	229.94	231.31	231.12	233.81	237.25	238.69	241.31	248.50	249.06	248.25	246.94	246.06	245.44	242.00	242.00	242.00	242.88	242.38	242.00	244.31	254.56	253.94	301.88	350.75	259.50	255.00	255.00	255.00	255.00	255.00	255.00	255.00	255.00	255.00	255.25	280.50	259.12	255.31	255.19	257.81	264.00	272.06	283.94	295.00	312.25	336.62	341.94	363.81	382.19	404.19	423.38	443.19	465.88	459.88	422.44	407.75	399.06	395.31	399.81	392.44	363.19	351.12	339.00	329.81	325.00	325.75	338.06	354.12	350.81	330.69	307.56	297.69	297.00	297.00	297.00	297.00	297.00	297.00	297.00	297.00	297.00	297.38	300.50	303.38	304.69	307.50	307.56	306.19	306.06	304.31	301.62	290.94	284.69	285.06	286.69	286.00	283.50	279.62	275.19	280.12	284.56	282.88	276.75	276.00	272.69	269.69	265.69	264.12	264.00	265.19	266.50	271.50	281.06	309.56	374.81	352.19	330.31	324.94	313.88	314.50	317.88	320.88	320.62	319.19	334.06	342.19	347.94	363.75	381.19	391.44	426.19	436.38	443.69	443.69	443.88	435.81	424.44	419.31	404.38	402.00	391.25	366.25	357.38	373.94	377.69	374.06
161.00	167.12	198.25	243.88	268.25	283.75	281.88	285.38	285.00	291.75	297.12	297.12	302.75	316.38	311.25	304.88	302.12	291.25	281.88	276.25	264.62	244.12	203.25	198.00	198.00	214.62	263.62	273.62	268.62	262.62	269.38	283.50	294.75	297.00	296.25	291.75	278.50	272.62	239.50	180.75	127.62	108.62	109.00	109.00	109.00	119.62	143.88	168.38	187.25	197.00	206.12	211.62	224.50	212.75	170.50	153.75	139.38	128.75	124.62	127.38	132.12	138.25	150.12	155.38	164.38	171.25	177.38	183.00	188.75	191.00	196.25	202.75	218.38	231.50	242.62	262.38	255.75	252.50	257.12	262.50	269.25	268.88	280.25	281.62	271.00	268.88	259.00	254.38	250.88	249.88	250.75	252.38	240.38	233.12	230.12	229.62	229.00	227.75	229.62	230.88	229.50	228.88	231.25	233.88	232.50	231.00	230.25	229.00	229.00	229.88	230.38	231.88	234.38	235.75	242.38	246.38	248.25	257.00	269.50	273.75	265.12	252.38	244.38	242.00	242.38	243.00	243.00	243.25	244.25	246.62	255.75	254.88	308.25	334.00	258.62	255.00	255.00	255.00	255.00	255.00	255.00	255.00	255.00	255.00	255.25	291.50	264.38	256.12	256.88	259.00	262.25	270.38	280.88	288.88	307.88	337.12	333.00	356.75	376.88	398.00	416.12	431.38	448.38	449.00	426.88	417.38	406.25	401.75	397.25	399.75	375.38	355.12	335.12	324.38	319.50	317.50	326.38	349.38	359.25	339.12	311.12	300.62	297.00	297.00	297.00	297.00	297.00	297.00	297.00	297.00	297.00	297.00	298.62	302.12	305.38	308.62	308.62	305.62	303.38	299.38	296.25	289.50	285.88	283.12	283.50	284.12	281.75	279.62	275.00	274.62	277.25	274.50	273.00	270.12	269.75	267.50	264.38	264.00	264.38	267.88	268.50	270.62	280.62	304.38	359.00	333.25	324.50	326.88	314.50	314.75	317.50	325.25	326.38	328.50	339.12	346.12	350.12	367.50	383.38	393.75	426.75	431.12	444.50	457.62	449.62	429.12	434.12	410.12	391.00	397.25	395.00	365.88	362.38	376.62	375.62	385.50
161.00	163.00	217.62	284.12	290.38	291.38	294.00	291.88	291.00	295.25	305.00	304.75	303.00	314.00	308.50	304.25	300.50	297.50	284.50	275.75	262.62	244.38	202.62	198.00	198.00	234.88	276.62	268.00	253.12	258.25	272.62	282.00	284.50	288.00	290.75	301.62	283.50	293.75	264.00	182.88	121.25	109.00	109.00	109.00	109.12	128.62	163.00	187.75	205.12	205.00	208.62	214.38	233.75	224.25	175.38	155.88	140.38	128.00	123.12	126.88	131.50	139.00	151.88	157.38	165.62	172.00	177.50	184.88	189.88	193.12	199.75	214.00	230.00	240.88	249.62	252.62	252.88	253.75	255.25	259.00	262.62	272.12	280.12	278.62	262.50	259.88	255.12	249.25	250.00	246.50	244.00	254.62	252.00	236.38	228.25	227.62	227.50	227.00	227.75	229.50	229.88	229.12	233.12	236.88	232.50	231.75	231.12	230.50	230.50	230.62	232.25	234.12	240.12	242.50	248.12	251.25	253.00	258.12	265.50	267.12	268.62	264.50	256.50	254.25	248.00	249.00	248.75	251.00	251.00	251.00	253.00	251.88	276.50	302.50	256.12	255.00	255.00	255.00	255.00	255.00	255.00	255.00	255.00	255.00	257.25	284.12	264.75	258.88	260.25	258.25	262.12	270.25	279.62	290.75	304.25	333.00	326.62	342.62	361.50	382.62	403.12	420.00	438.00	432.88	428.25	424.50	418.88	410.38	402.50	397.12	373.50	352.38	329.12	317.38	317.00	317.00	318.38	338.00	355.62	338.75	307.75	305.25	299.12	297.25	297.00	297.00	297.00	297.00	297.00	297.00	297.00	297.00	297.12	301.62	307.25	309.38	309.38	305.88	302.25	298.50	292.38	287.88	283.88	282.00	281.12	281.62	280.25	278.62	273.38	270.88	271.88	269.00	268.88	265.75	267.38	265.75	264.38	264.50	266.00	268.12	268.38	270.62	280.12	294.00	311.75	311.88	328.12	328.25	316.62	315.38	319.00	328.12	331.62	335.25	339.62	344.75	349.62	368.00	387.38	395.38	433.50	418.62	427.00	458.00	461.50	448.12	443.25	404.75	386.25	399.00	406.00	383.00	383.88	386.88	376.00	386.25
162.44	161.81	214.44	279.50	288.69	287.00	291.06	289.56	288.94	291.81	303.62	307.88	306.06	302.12	303.50	302.06	297.06	292.44	284.06	274.12	256.00	234.88	207.94	198.00	198.00	228.44	251.12	247.06	251.56	266.00	273.06	273.50	274.50	278.75	274.94	265.06	253.00	256.81	230.88	161.31	114.19	109.00	109.00	109.00	112.94	148.56	177.69	199.25	223.38	210.56	192.31	198.50	204.44	200.06	167.44	145.56	134.06	126.19	122.06	126.50	131.56	139.62	152.06	157.88	166.69	173.81	178.50	185.00	190.19	198.44	208.00	221.62	231.75	238.81	243.00	248.31	251.94	253.81	257.50	257.81	257.94	258.62	274.62	261.56	256.81	259.06	247.38	241.12	246.12	244.31	237.38	235.75	233.19	229.31	226.75	226.69	226.88	227.00	227.56	228.25	228.62	229.19	234.62	239.00	236.25	235.81	232.56	231.88	230.88	231.00	232.06	234.56	238.50	241.25	245.88	247.81	245.88	244.62	247.00	249.31	259.25	275.25	272.75	260.81	247.81	243.62	241.19	241.75	246.38	252.25	258.62	261.69	297.81	336.88	272.12	255.00	255.00	255.00	255.00	255.00	255.00	255.00	255.00	255.00	255.94	268.38	264.06	259.88	262.88	262.00	266.94	278.31	286.88	288.50	308.56	327.69	325.31	342.50	357.19	373.12	390.00	418.06	432.69	434.31	434.25	436.88	431.94	422.56	409.12	399.38	367.31	341.69	324.06	317.12	317.00	317.00	319.94	324.75	332.06	317.94	303.94	303.44	299.62	297.00	297.00	297.00	297.00	297.00	297.00	297.00	297.00	297.00	297.00	301.00	306.81	310.25	310.12	308.69	303.44	298.25	292.06	287.44	284.62	281.31	280.62	280.06	278.81	278.19	274.94	270.38	268.69	267.19	266.19	264.31	265.12	264.06	264.88	265.12	265.19	269.12	269.12	270.38	279.19	288.12	290.19	303.62	333.44	332.00	314.06	317.00	324.44	338.00	341.62	341.19	341.56	348.38	350.94	371.81	383.06	394.88	428.12	423.00	413.19	436.81	456.69	449.56	440.69	403.94	386.25	389.38	399.38	411.00	406.88	387.94	387.25	385.31
168.12	161.12	211.75	275.12	273.00	271.62	277.38	280.31	284.56	290.06	298.75	306.06	305.75	298.19	296.44	296.81	293.50	284.06	276.44	267.75	251.50	239.00	226.88	210.88	196.50	218.12	229.44	241.50	261.31	272.62	274.12	270.00	270.00	273.75	267.88	242.31	219.00	205.81	186.75	150.94	116.56	109.00	109.00	112.00	141.38	186.19	199.50	211.75	236.25	215.44	186.00	182.69	180.50	181.62	166.88	144.25	129.31	122.69	121.62	126.69	132.31	140.94	151.62	157.31	167.75	176.06	180.50	188.69	196.06	204.75	214.62	223.81	235.19	243.94	246.44	250.94	253.50	251.12	253.12	248.94	250.62	250.81	255.62	255.38	264.75	259.62	248.62	236.19	237.75	240.69	229.94	226.88	226.12	226.00	226.00	226.25	227.00	227.38	227.62	227.06	227.69	228.44	232.50	236.75	236.62	236.25	233.62	233.31	231.62	231.75	233.06	235.38	238.88	242.81	246.25	245.69	244.25	244.00	244.56	246.19	250.56	264.06	272.81	254.69	241.69	242.94	239.38	239.31	242.19	249.00	256.44	263.38	305.31	371.19	292.12	255.56	255.00	255.00	255.00	255.00	255.00	255.00	255.00	255.00	258.44	274.31	266.31	261.44	263.44	266.69	271.12	282.06	289.31	288.44	322.88	324.12	326.88	339.88	358.88	374.25	390.19	412.38	423.62	435.38	449.00	453.12	447.50	425.62	410.81	404.69	360.69	337.00	324.50	318.75	317.19	319.50	335.62	323.94	306.88	302.06	298.62	299.50	298.38	297.00	297.00	297.00	297.00	297.00	297.00	297.00	297.00	297.00	297.00	298.38	304.75	310.38	310.75	309.88	305.00	298.75	293.06	289.19	285.56	281.38	280.00	279.69	278.69	277.88	275.75	270.94	268.81	267.62	264.94	264.25	264.69	264.00	264.81	265.31	265.75	267.69	268.88	270.94	276.19	283.50	287.62	306.62	349.06	331.00	310.12	316.25	324.62	340.50	342.19	345.38	343.81	350.25	353.38	373.75	396.81	399.81	411.75	427.56	412.31	435.38	449.62	450.31	446.56	425.44	389.56	386.25	397.38	403.88	394.69	385.81	394.81	400.31
177.75	161.00	194.62	244.31	242.25	255.94	268.75	277.38	283.50	288.62	297.38	300.81	298.50	291.62	288.75	290.06	289.00	279.38	272.81	266.12	255.69	248.88	245.94	235.19	194.81	216.50	236.12	261.50	272.62	274.06	273.25	270.62	270.69	274.62	274.94	246.44	212.88	193.25	163.88	139.50	115.44	109.00	109.56	132.50	186.00	206.50	233.88	242.81	246.56	214.12	185.38	169.44	162.75	160.81	157.44	141.38	122.69	119.81	121.38	128.06	135.44	143.44	151.19	160.38	173.38	181.44	186.25	194.56	203.50	212.50	224.00	235.56	249.00	259.25	256.25	255.25	258.38	244.00	240.06	239.94	247.88	250.62	250.06	256.25	264.69	255.00	244.88	233.00	227.44	228.19	226.38	226.00	226.00	226.00	226.12	226.44	227.06	227.81	228.00	228.38	230.94	232.12	232.06	234.62	236.31	236.38	235.62	234.94	232.88	232.50	236.31	237.44	239.88	246.12	249.94	252.88	249.12	246.88	249.62	254.19	261.88	265.88	265.88	247.06	236.69	246.19	245.50	241.50	246.12	249.19	254.31	267.94	309.50	391.00	309.06	258.00	255.00	255.00	255.00	255.00	255.00	255.00	255.00	255.00	259.81	286.88	273.25	266.00	264.69	271.12	273.31	281.06	287.88	292.88	321.31	316.62	332.88	342.25	354.94	369.56	384.62	400.19	410.62	426.75	446.31	456.94	448.69	431.50	410.62	405.44	360.00	337.94	331.94	325.12	320.19	335.88	350.25	321.50	300.75	297.06	297.00	297.00	297.00	297.00	297.00	297.00	297.00	297.00	297.00	297.00	297.00	297.00	297.00	297.00	300.50	307.88	308.75	310.38	307.12	299.81	294.38	289.81	286.25	282.19	279.75	279.06	279.94	278.44	273.75	270.69	268.81	268.31	265.38	265.12	264.94	264.06	264.12	264.44	268.75	268.00	270.19	275.31	275.81	278.62	284.19	296.25	344.88	344.44	310.00	315.94	322.38	338.69	341.50	347.88	349.31	352.00	354.94	379.12	401.12	404.44	400.00	407.00	408.31	421.62	448.38	457.00	451.19	426.88	409.88	400.00	391.88	380.31	377.69	380.38	381.19	382.12
181.31	161.00	179.31	222.94	257.94	272.31	282.62	288.81	289.38	290.56	297.00	297.44	290.81	285.62	279.56	280.81	285.88	275.44	272.94	272.94	262.25	249.81	238.94	213.38	194.06	214.38	249.94	274.81	274.00	266.44	263.81	264.19	272.50	275.75	277.50	259.62	226.75	213.06	160.75	129.56	109.44	109.00	115.56	147.25	180.44	217.75	246.75	252.38	246.88	223.00	195.00	168.44	153.38	146.12	137.00	123.38	118.12	119.31	122.56	130.06	137.00	142.19	150.00	161.69	174.38	183.88	189.81	201.50	209.69	217.56	225.38	231.25	239.94	248.38	247.94	250.12	252.06	241.12	235.00	238.38	237.50	239.25	241.44	240.25	242.62	237.19	229.31	227.06	226.56	227.56	226.75	226.25	226.44	226.56	227.12	227.62	228.06	228.19	229.19	230.88	233.88	235.12	234.38	236.38	238.00	238.50	238.31	238.62	237.62	236.06	237.81	239.50	242.44	245.69	251.56	255.75	253.44	257.88	258.12	263.00	267.69	275.94	268.69	249.50	252.75	254.00	250.06	242.69	247.25	253.44	258.00	269.88	290.06	362.81	319.38	256.56	255.00	255.00	255.00	255.00	255.00	255.00	255.00	255.00	255.19	283.25	280.25	271.50	267.25	272.12	274.12	279.50	286.31	293.50	310.69	309.00	315.12	327.56	344.12	360.19	370.62	379.50	386.19	404.94	425.38	433.19	444.25	430.69	403.94	394.38	366.62	344.94	343.19	333.94	337.81	356.44	344.19	313.69	297.38	297.00	297.00	297.00	297.00	297.00	297.00	297.00	297.00	297.00	297.00	297.00	297.00	297.00	297.00	297.00	297.31	301.75	305.25	309.56	308.56	300.56	295.88	291.00	286.69	282.94	279.38	279.12	279.81	277.69	273.12	270.88	269.00	267.56	266.44	265.75	265.12	264.44	264.31	265.88	269.88	269.00	271.06	276.31	276.56	280.75	283.44	292.69	321.00	355.38	310.19	319.12	324.56	334.56	344.88	348.88	349.44	352.38	356.50	376.62	401.50	405.75	413.69	423.81	416.38	421.19	437.62	441.25	438.81	407.25	403.44	406.88	389.81	381.31	391.31	400.19	394.56	380.75
180.00	161.00	181.94	241.12	254.56	262.12	273.12	284.19	290.50	293.81	297.50	294.00	287.06	281.06	275.94	275.69	285.56	276.38	274.06	275.12	259.50	245.69	223.25	198.62	194.94	203.00	245.38	273.94	271.94	259.00	252.00	255.31	268.62	275.62	278.50	268.31	245.88	214.69	152.19	122.12	108.75	112.88	128.06	157.94	198.69	235.31	249.38	249.81	244.25	221.94	194.56	168.38	152.88	150.50	128.25	114.25	115.88	118.94	123.88	129.94	132.25	135.94	148.00	163.94	167.69	182.00	198.62	214.50	217.69	218.38	228.06	231.69	239.44	239.56	236.06	242.31	243.12	235.06	228.50	232.12	223.62	225.38	230.69	233.94	235.44	229.25	226.12	227.50	227.12	227.62	227.50	228.31	228.94	228.38	229.75	229.50	230.25	230.31	231.75	236.06	237.50	238.50	238.56	239.62	240.62	240.56	241.44	242.25	242.25	241.75	242.06	244.88	247.94	247.62	251.50	254.56	254.44	258.38	262.75	269.25	273.62	278.38	263.62	261.06	265.12	260.44	259.44	261.06	258.00	262.31	262.56	274.06	302.62	357.75	297.44	255.25	255.00	255.00	255.00	255.00	255.00	255.00	255.00	255.00	255.00	315.44	288.38	276.69	268.94	272.69	275.00	277.44	285.25	291.31	314.44	310.81	315.62	331.12	332.88	340.31	346.31	351.25	362.44	385.56	412.94	419.44	424.25	413.12	393.31	380.81	376.12	358.88	358.31	352.38	364.38	365.25	334.62	303.75	297.00	297.00	297.00	297.00	297.00	297.00	297.00	297.00	297.00	297.00	297.00	297.00	297.00	297.00	297.00	297.00	297.00	297.62	301.06	305.50	308.31	300.94	296.56	290.81	287.81	287.00	281.00	279.44	277.69	277.88	275.62	272.31	270.50	268.25	267.19	266.00	265.56	264.31	265.69	267.75	270.31	269.38	273.50	276.50	278.31	281.81	286.38	291.94	301.19	346.75	313.25	314.00	320.44	329.69	334.38	340.50	344.50	344.25	354.50	375.56	411.38	426.19	426.06	435.44	420.12	421.88	428.81	431.38	417.94	402.25	399.94	388.00	385.12	386.38	384.75	391.38	401.12	396.31
169.56	161.00	180.62	227.56	254.06	262.62	270.75	274.69	287.94	293.12	294.06	289.94	282.50	277.62	274.50	272.44	278.44	274.25	269.25	263.50	249.12	237.44	222.75	226.94	217.00	210.69	222.56	259.12	254.50	246.12	243.69	248.81	261.12	274.56	273.38	256.12	227.50	183.81	138.25	111.56	112.50	131.62	153.44	197.44	216.38	241.81	249.19	246.25	234.31	211.38	190.94	168.12	154.75	153.44	138.88	114.50	115.00	119.12	123.06	124.62	127.25	132.19	145.69	156.19	158.81	175.06	179.94	186.38	193.50	197.00	218.69	226.62	232.88	230.88	228.69	230.25	233.50	226.06	214.38	215.44	218.62	225.69	226.38	225.31	229.00	228.38	228.19	228.69	229.88	230.38	232.88	233.00	230.69	231.25	234.50	234.25	234.94	236.69	237.06	241.50	242.94	243.62	243.62	245.06	245.00	244.69	246.62	246.31	246.31	248.75	248.31	249.44	252.12	254.94	258.06	258.50	258.56	261.44	268.50	270.75	271.12	277.00	273.00	268.38	272.38	274.81	276.50	271.56	269.38	269.19	268.38	281.38	333.12	349.12	271.75	255.00	255.00	255.00	255.00	255.00	255.00	255.00	255.00	255.00	255.00	299.25	294.88	275.50	269.56	270.44	278.25	278.69	283.19	292.75	307.06	311.94	326.94	344.88	343.12	325.31	327.06	330.62	336.88	362.25	372.56	389.00	393.00	383.62	370.50	367.12	376.56	380.81	395.75	369.75	381.75	349.06	324.44	299.06	297.00	297.00	297.00	297.00	297.00	297.00	297.00	297.00	297.00	297.00	297.00	297.00	297.00	297.00	297.00	297.00	297.00	297.00	297.00	300.81	304.19	300.56	292.81	289.50	289.75	289.19	282.94	280.25	276.50	278.25	278.12	275.06	273.62	269.44	267.75	266.12	265.81	264.94	265.69	270.62	276.19	269.69	275.00	278.06	279.94	284.19	289.94	291.44	290.94	323.69	317.56	310.56	313.69	322.69	332.50	332.38	337.94	337.19	344.62	367.88	400.25	430.50	435.94	430.62	437.62	432.69	434.81	422.25	413.31	398.31	382.56	378.69	378.88	384.56	394.00	375.06	393.81	408.50
191.00	161.00	180.94	248.06	258.00	265.50	268.69	270.81	278.25	287.75	284.75	285.88	277.50	276.25	273.19	265.75	264.25	267.19	257.50	249.62	244.56	240.00	239.81	242.31	226.12	213.81	205.12	232.31	234.12	227.19	230.31	247.38	266.38	274.19	265.94	243.81	209.44	181.19	134.81	108.94	117.62	144.06	176.69	207.44	223.88	245.12	248.38	239.69	214.50	193.88	177.75	158.38	150.62	142.38	128.31	117.25	115.94	121.62	122.00	123.62	131.19	139.19	150.56	173.44	193.25	206.38	211.31	214.50	217.50	211.75	193.81	218.25	223.38	214.56	219.81	225.50	225.25	216.31	212.75	230.69	227.69	224.88	227.94	230.25	230.06	230.00	231.25	232.31	233.81	237.50	237.44	238.94	234.81	235.44	239.06	240.00	239.56	240.75	242.12	247.62	249.75	248.94	249.25	249.88	250.25	251.88	253.06	250.44	251.38	252.38	252.38	252.56	254.56	260.12	261.56	261.00	262.62	264.88	267.81	273.56	272.38	276.12	274.75	266.69	270.12	280.06	283.44	278.69	276.94	274.56	276.81	277.50	312.44	313.06	258.44	255.00	255.00	255.00	255.00	255.00	255.00	255.00	255.00	255.00	255.00	280.62	298.56	278.88	272.00	273.44	272.44	277.94	283.75	288.38	294.31	314.56	336.12	350.38	340.38	325.00	325.00	325.38	329.88	337.12	342.19	353.81	356.88	353.94	358.88	366.88	374.00	387.62	400.12	391.31	376.44	336.94	315.56	297.00	297.00	297.00	297.00	297.00	297.00	297.00	297.00	297.00	297.00	297.00	297.00	297.00	297.00	297.00	297.00	297.00	297.00	297.00	297.00	297.00	299.31	299.00	297.31	293.25	291.38	290.12	285.19	281.56	278.12	275.75	276.56	278.12	275.88	271.44	268.12	267.25	266.12	264.06	265.44	272.00	272.00	274.69	278.44	279.25	280.25	282.25	289.50	290.00	290.00	302.81	319.69	304.94	309.75	315.75	327.88	330.56	336.31	336.25	339.75	359.12	387.06	415.44	420.69	418.88	430.00	422.94	423.25	407.56	411.50	383.62	370.62	367.50	365.94	374.94	373.00	373.19	384.06	405.62
198.88	165.25	162.12	190.50	227.38	249.50	258.75	267.62	271.12	273.75	272.62	273.25	271.00	272.62	265.38	259.50	258.50	261.25	255.00	249.25	245.38	243.62	239.88	232.50	224.50	207.75	188.12	200.00	202.62	209.88	226.88	250.12	271.25	271.38	268.38	246.38	196.62	147.75	118.00	108.50	122.75	145.12	168.00	185.50	209.12	238.50	247.12	229.25	195.25	173.25	157.38	143.62	132.88	127.25	116.00	113.38	115.25	120.62	123.25	129.12	135.00	145.62	172.25	193.62	206.25	216.12	222.88	222.75	219.12	214.50	200.75	207.12	199.75	200.62	208.12	211.25	209.88	214.38	220.12	222.50	223.62	227.38	232.50	234.38	236.25	236.50	237.12	240.62	239.50	241.88	244.00	244.38	242.88	242.25	243.12	243.25	242.25	242.62	244.50	249.62	250.25	249.75	252.00	252.25	251.75	254.25	260.00	257.25	257.62	256.12	256.25	256.38	256.62	260.00	262.38	261.62	266.50	271.38	272.50	278.88	281.25	280.62	279.88	274.00	267.25	278.38	283.25	279.62	276.50	279.62	284.25	283.62	299.38	324.12	268.50	255.00	255.00	255.00	255.00	255.00	255.00	255.00	255.00	255.00	255.00	297.62	315.38	288.62	275.75	276.75	279.50	300.75	311.25	312.12	302.50	317.00	340.62	345.00	330.25	325.00	325.00	325.00	326.25	331.25	336.50	340.12	345.38	352.25	364.75	382.50	387.38	391.75	388.25	392.12	354.88	330.62	304.12	297.00	297.00	297.00	297.00	297.00	297.00	297.00	297.00	297.00	297.00	297.00	297.00	297.00	297.00	297.00	297.00	297.00	297.00	297.00	297.00	297.00	297.12	299.62	300.62	296.25	293.88	292.00	287.62	283.12	280.25	277.25	274.12	278.88	277.38	273.50	270.25	269.00	268.50	269.00	265.50	268.75	269.62	279.12	280.75	281.88	280.75	281.00	285.38	289.50	290.00	294.75	302.12	302.38	306.75	310.00	317.50	328.62	335.25	335.88	336.38	342.50	364.00	380.75	396.38	394.62	392.88	406.00	407.50	398.25	378.62	365.88	369.38	368.88	371.75	383.38	362.88	385.25	402.62	401.25
231.94	177.19	161.12	186.81	246.00	259.44	260.06	266.06	269.88	270.56	267.75	266.19	267.25	269.75	260.81	258.69	258.00	259.19	254.88	250.56	245.69	243.50	234.88	225.81	215.44	203.94	187.31	189.44	193.50	204.81	226.31	251.38	268.00	263.25	257.88	232.00	181.69	138.12	109.88	108.50	123.62	143.00	156.12	181.88	209.19	235.81	246.44	231.50	196.25	165.56	148.31	134.38	124.69	121.50	116.50	114.81	114.88	120.38	125.38	132.06	139.94	162.75	192.44	205.94	219.81	227.81	232.69	225.88	217.69	209.38	205.88	211.88	215.50	217.31	217.06	216.00	218.06	224.81	229.12	229.19	230.06	233.56	235.88	237.75	238.38	239.31	241.88	242.81	242.56	243.00	250.06	248.81	244.25	244.44	245.25	245.12	243.38	243.69	245.38	246.69	246.88	249.69	253.62	254.25	255.75	253.81	258.44	259.50	259.56	259.06	258.69	258.50	259.12	259.94	265.44	267.12	270.25	277.81	278.69	281.19	285.06	281.56	279.94	272.50	268.81	278.25	282.19	276.62	272.00	273.69	277.88	281.00	306.94	366.69	288.94	255.62	255.00	255.00	255.00	255.00	255.00	255.00	255.00	255.00	255.00	279.50	310.75	288.62	277.25	280.75	283.12	298.56	299.50	305.25	303.38	319.44	341.38	339.56	326.62	325.00	325.00	325.06	326.00	334.62	339.81	346.00	351.50	364.56	376.19	390.06	388.75	388.88	386.06	372.50	334.88	322.50	299.31	297.00	297.00	297.00	297.00	297.00	297.00	297.00	297.00	297.00	297.00	297.00	297.00	297.00	297.00	297.00	297.00	297.00	297.00	297.00	297.00	297.00	297.00	297.56	300.19	298.31	295.31	293.88	289.19	283.94	281.50	279.75	275.44	276.94	276.81	275.50	272.06	269.25	269.50	269.62	264.69	266.44	268.62	274.88	280.00	282.25	282.06	282.44	285.62	289.50	290.00	291.69	295.00	297.75	303.38	309.25	313.38	326.00	332.50	333.25	333.81	335.88	352.19	366.00	373.31	372.94	374.12	383.75	387.81	387.00	368.44	364.50	373.00	370.69	369.31	367.06	366.69	370.94	381.75	393.62
250.69	183.25	161.00	192.75	248.00	250.94	255.50	262.75	267.81	267.69	265.81	261.19	259.88	261.88	259.19	258.81	258.44	264.12	262.50	259.31	253.75	249.81	232.06	220.75	213.81	197.31	185.12	179.06	189.88	222.00	243.44	252.50	257.81	246.62	237.25	199.69	158.19	120.19	106.25	110.12	124.06	139.44	153.88	190.75	215.94	233.38	241.94	230.88	191.88	161.31	145.00	130.38	121.38	119.75	118.25	116.81	114.62	124.44	133.94	143.56	164.81	193.44	217.19	224.88	237.62	237.62	238.19	225.69	215.56	208.12	210.00	213.88	220.06	222.81	223.44	224.50	226.88	229.31	232.12	231.00	231.69	234.00	234.75	238.88	240.06	239.44	240.88	242.25	242.81	241.06	251.06	251.81	243.75	246.81	248.44	247.25	244.44	243.81	246.06	245.75	245.94	250.81	253.62	256.88	259.44	253.75	250.50	251.44	252.62	253.56	255.94	258.31	259.75	261.81	269.75	275.38	274.25	279.31	281.00	283.00	281.69	278.44	277.38	271.94	273.50	277.75	278.56	276.38	273.50	272.50	276.88	275.12	285.75	353.38	333.06	258.12	255.00	255.00	255.00	255.00	255.00	255.00	255.00	260.00	255.06	255.38	293.25	291.12	279.25	288.69	291.31	291.75	297.88	303.00	307.12	320.69	337.75	329.81	325.00	325.00	325.00	326.62	334.88	340.00	346.69	358.06	367.38	381.62	391.12	397.06	390.38	379.62	375.62	359.56	322.31	298.31	297.00	297.00	297.00	297.00	297.00	297.00	297.00	297.00	297.00	297.00	297.00	297.00	297.00	297.00	297.00	297.00	297.00	297.00	297.00	297.00	297.00	297.00	297.00	297.00	297.75	299.94	296.94	296.94	292.56	285.88	284.44	281.75	278.56	277.69	279.75	278.94	275.56	271.38	270.12	270.12	265.19	269.50	268.88	274.81	281.25	282.94	283.25	283.00	286.38	289.69	288.69	286.75	287.75	291.06	289.88	299.62	309.56	313.50	322.56	329.69	330.62	331.38	336.62	350.38	353.69	354.00	356.50	367.00	376.69	371.69	362.25	365.06	371.94	364.38	376.38	369.19	376.69	369.19	368.50	384.62
243.50	194.25	161.62	178.75	213.75	235.38	251.88	261.25	266.50	265.62	261.75	259.38	254.00	257.50	259.12	260.25	261.88	271.38	272.88	268.88	268.12	253.38	227.12	213.75	206.25	189.38	176.75	172.38	193.88	237.75	247.88	247.88	250.00	225.12	184.62	155.25	126.50	104.62	113.38	118.75	126.75	142.88	161.50	181.00	210.75	224.62	232.00	222.62	196.25	168.88	150.62	134.62	136.62	136.25	122.88	123.00	120.88	130.38	142.12	159.12	189.50	214.38	235.62	236.25	241.75	242.00	235.12	221.62	214.00	213.12	218.00	219.62	223.12	226.00	227.88	229.00	232.25	234.25	236.88	234.25	233.25	236.88	239.88	239.50	237.50	238.50	239.50	239.00	241.00	233.75	239.62	239.12	237.00	244.75	244.12	240.50	237.88	238.25	243.12	239.38	240.38	249.00	250.75	253.62	254.62	256.38	262.75	256.88	253.50	255.00	254.38	256.12	258.12	261.25	268.75	271.25	275.25	279.62	281.00	280.38	279.88	277.62	271.50	271.00	275.88	279.50	279.00	277.12	281.00	283.25	283.38	282.12	277.00	297.12	282.50	255.25	255.00	255.00	255.00	255.00	255.00	255.00	259.88	268.25	256.12	255.00	271.50	299.62	284.38	289.50	292.12	297.50	301.38	307.12	309.25	327.62	348.12	329.00	325.00	325.00	325.38	331.62	339.62	351.12	364.88	361.88	375.75	388.25	396.50	384.50	374.62	373.75	372.12	347.50	322.62	304.50	300.12	301.88	302.62	297.12	297.00	297.00	297.00	297.00	297.00	297.00	297.00	297.00	297.00	297.00	297.00	297.00	297.00	297.00	297.00	297.00	297.00	297.00	297.00	297.00	297.00	299.00	298.75	297.38	292.50	288.00	286.88	284.38	281.38	279.50	279.75	281.12	279.88	275.00	271.50	268.25	266.38	267.25	268.75	279.88	283.00	285.00	286.75	283.38	285.12	287.25	290.25	292.00	298.00	300.25	301.00	295.75	297.62	305.25	312.00	323.88	327.25	330.00	331.88	336.50	338.75	342.50	353.00	367.88	382.62	372.75	368.75	363.38	364.75	361.12	364.88	359.00	363.62	369.12	360.75	362.62
210.75	197.00	166.81	169.69	210.00	249.50	259.31	261.44	263.81	262.44	255.69	249.94	251.50	256.44	259.44	261.56	264.12	271.12	271.50	268.00	262.00	248.81	228.12	211.88	202.31	186.62	172.06	172.38	191.56	201.06	208.81	226.38	225.56	187.81	155.12	130.75	103.69	103.19	115.88	120.00	128.12	142.25	155.69	190.75	212.31	220.38	227.12	219.69	196.88	171.44	152.31	149.75	152.81	151.81	134.00	126.25	121.50	126.88	142.19	171.56	209.44	224.81	241.94	240.75	243.75	242.56	228.50	219.25	217.44	220.62	229.62	227.75	229.25	230.12	231.62	233.56	237.44	240.56	240.44	235.06	234.88	237.50	238.06	237.06	236.69	237.88	236.88	236.19	237.00	238.56	238.38	237.94	252.25	259.12	251.62	246.69	246.88	245.31	242.56	244.38	246.38	250.94	251.56	255.19	265.62	271.06	273.25	270.44	264.00	262.56	266.44	267.06	263.81	267.00	272.62	276.88	277.81	276.62	277.44	277.12	278.88	277.81	274.25	273.44	278.25	281.00	287.81	280.50	274.19	277.94	288.06	296.19	295.69	290.75	288.94	302.69	261.50	255.00	255.00	255.00	255.00	255.00	259.44	265.38	266.62	258.94	260.31	299.00	290.50	293.19	297.81	305.19	312.88	317.50	320.12	336.56	352.69	328.25	325.00	325.62	330.25	343.31	356.19	357.81	371.62	377.31	383.12	394.69	390.50	379.88	367.00	366.25	364.88	343.62	341.81	338.81	332.81	329.62	329.06	313.94	299.50	297.00	297.00	297.00	297.00	297.00	297.00	297.00	297.00	297.00	297.00	297.00	297.00	297.00	297.00	297.00	297.00	297.00	297.00	297.00	297.00	297.00	297.94	296.50	291.94	290.56	288.88	287.31	284.62	282.06	281.44	279.88	279.31	276.12	272.56	270.06	269.19	268.00	270.62	279.38	282.88	285.44	288.25	282.81	285.62	289.75	290.19	294.12	299.38	300.12	300.88	296.06	299.38	297.50	304.81	311.75	321.69	328.31	332.88	338.56	342.06	343.88	350.06	358.38	367.12	367.88	368.81	368.12	375.94	366.06	354.44	349.12	354.81	350.81	346.50	344.31
203.12	187.12	171.00	167.62	201.88	243.00	258.94	260.00	256.50	251.31	245.12	243.19	251.31	256.62	259.75	262.31	263.69	268.19	267.00	262.19	254.38	246.75	238.06	226.31	219.25	205.50	187.50	173.81	184.31	189.81	193.12	208.81	201.56	157.06	139.69	118.88	100.12	106.00	115.19	120.94	128.06	142.88	159.31	184.44	205.25	215.75	225.62	216.81	195.00	168.94	156.94	155.62	153.81	150.94	135.50	124.19	120.94	123.81	142.56	179.44	216.62	230.88	240.56	242.81	240.50	233.25	222.62	218.62	223.00	228.44	237.62	231.94	231.88	232.75	233.94	236.56	240.25	246.62	245.38	238.62	237.31	236.19	235.19	233.75	234.38	233.62	230.31	229.88	239.19	246.88	245.50	246.69	258.31	264.00	262.44	261.88	261.62	256.94	249.94	248.56	252.94	259.81	261.56	264.38	271.19	274.00	273.75	271.88	267.94	266.44	268.12	270.31	269.12	269.94	272.94	277.56	279.88	279.25	276.06	276.44	276.69	274.50	274.75	279.38	280.06	280.75	292.62	288.88	272.56	259.31	268.94	276.44	283.94	284.88	289.06	329.19	286.69	259.06	255.00	255.00	255.00	255.06	256.38	265.81	274.44	272.50	280.44	299.56	294.56	295.62	300.81	308.12	315.44	321.88	330.56	340.38	343.12	325.75	325.00	327.06	339.75	349.06	363.06	370.75	375.69	389.00	389.75	389.56	376.19	377.06	367.38	363.56	363.19	359.06	368.00	372.81	365.50	350.31	340.81	326.88	304.81	297.00	297.00	297.00	297.00	297.00	297.00	297.00	297.00	297.00	297.00	297.00	297.00	297.00	297.00	297.00	297.00	297.00	297.00	297.00	297.00	297.00	297.88	297.25	293.94	293.56	291.19	289.75	287.56	284.88	283.06	279.62	277.69	276.25	272.94	271.56	269.44	268.44	270.94	277.31	283.19	286.12	289.50	284.31	290.25	290.00	290.38	295.19	299.50	300.19	299.94	294.81	301.88	300.06	297.88	305.31	312.62	324.56	331.25	334.75	345.44	348.94	350.69	350.88	355.38	360.88	365.31	369.75	380.62	359.56	349.56	337.75	342.25	336.19	333.44	337.00
216.94	194.31	175.19	167.62	184.12	220.81	248.56	248.75	240.25	231.50	233.12	240.94	253.88	258.88	259.81	262.62	262.62	265.06	264.44	258.94	252.62	248.25	244.50	240.88	226.81	208.00	191.00	170.00	163.06	183.00	178.56	180.69	170.69	142.62	125.94	107.81	101.50	108.19	116.50	122.88	131.62	147.06	161.31	182.44	204.81	216.81	232.88	217.00	191.50	173.19	161.44	152.94	147.25	136.44	126.69	120.75	121.50	121.19	144.69	186.50	217.06	234.00	241.56	236.19	237.56	227.81	221.75	223.56	229.69	235.12	237.88	233.69	232.38	235.44	236.38	239.00	240.31	244.44	243.81	240.06	237.00	231.06	231.25	230.19	230.19	233.62	236.25	237.62	242.19	251.62	250.00	249.94	264.62	270.75	273.62	273.88	266.38	263.81	256.69	252.44	255.19	259.75	262.56	268.06	273.31	276.75	275.06	273.31	269.88	269.19	269.06	269.25	269.50	270.25	273.50	273.06	274.31	278.62	273.94	273.31	276.44	276.94	280.06	289.25	281.69	281.94	295.62	295.25	273.44	262.81	249.44	259.69	266.00	280.00	293.75	308.31	345.38	280.75	255.56	255.00	255.00	256.06	255.69	259.25	269.00	286.44	299.19	297.00	299.12	301.50	304.88	312.44	315.56	321.06	343.38	345.81	328.56	325.00	325.38	333.06	348.19	361.19	367.81	376.25	385.75	394.38	398.44	386.12	375.62	368.06	363.94	358.75	359.94	367.50	376.31	385.81	386.38	362.00	345.62	331.38	310.62	297.06	297.00	297.00	297.06	297.00	297.00	297.00	297.00	297.00	297.00	297.00	297.00	297.00	297.00	297.00	297.00	297.00	297.00	297.00	297.00	297.00	297.88	300.00	298.25	296.69	293.62	291.75	290.12	287.81	284.62	281.44	279.25	279.75	278.12	276.56	272.00	269.50	270.50	276.69	281.25	286.19	289.88	289.75	290.00	290.44	292.12	294.81	299.69	299.06	297.50	294.06	297.31	301.81	302.19	300.56	306.00	317.25	326.94	329.75	342.12	350.06	353.62	352.50	359.12	368.50	370.69	369.31	356.00	350.88	335.38	323.12	324.56	327.69	326.44	330.69
228.62	187.88	169.56	167.00	179.12	207.12	228.44	229.62	225.62	220.19	228.75	241.00	253.62	258.69	259.75	261.69	261.94	261.19	262.00	260.56	255.00	251.12	247.06	243.12	227.88	210.75	197.62	179.69	151.56	167.50	163.31	158.31	147.69	134.00	113.62	100.81	102.69	111.31	118.50	126.19	134.94	148.12	164.12	185.44	212.62	224.56	239.69	221.81	192.38	174.19	173.06	158.94	136.31	128.19	120.06	115.19	116.81	121.25	155.94	194.81	217.06	235.69	242.94	236.38	231.62	226.88	224.44	227.38	232.06	242.69	242.12	236.00	233.56	235.62	236.50	236.69	236.69	237.94	238.38	239.81	235.31	229.88	232.50	235.94	240.94	245.06	247.94	249.25	249.75	257.94	258.38	258.06	264.44	273.38	276.75	271.69	269.25	270.12	267.00	258.56	256.38	258.88	260.12	265.62	271.12	274.88	274.56	273.56	270.00	269.25	269.00	269.00	269.06	270.19	275.06	274.50	276.88	279.25	275.69	273.12	277.81	281.00	288.44	298.88	288.69	282.44	293.19	295.31	273.88	266.81	252.50	258.50	262.94	270.12	280.19	292.69	377.50	307.56	257.38	255.00	255.00	256.12	258.94	257.19	260.38	276.75	291.12	299.00	303.25	309.81	311.44	319.62	319.94	325.81	350.69	344.12	327.00	325.12	328.38	344.19	354.50	361.00	369.44	381.81	391.50	394.94	395.62	383.31	371.50	364.12	359.88	359.56	361.94	368.94	375.38	374.75	378.31	357.88	338.12	326.00	313.56	297.69	297.19	297.12	298.69	301.44	297.50	297.00	297.00	297.00	297.00	297.00	297.00	297.00	297.00	297.00	297.00	297.00	297.00	297.00	297.00	297.00	298.44	300.25	300.19	298.69	295.81	293.94	291.94	289.62	285.69	282.69	280.69	280.12	278.62	277.69	273.88	271.44	271.69	277.81	280.25	284.38	289.81	290.25	290.62	290.69	293.06	296.69	299.38	297.81	297.81	297.25	299.12	304.19	305.81	304.12	300.69	310.06	323.94	327.25	340.19	350.56	356.56	356.75	360.44	368.94	375.88	368.38	346.94	330.94	320.06	314.06	315.19	317.62	318.31	319.50
212.94	178.31	168.31	162.94	171.62	193.44	209.88	210.81	207.75	213.44	228.94	243.56	252.62	256.19	258.44	258.88	259.81	258.19	258.31	257.31	254.00	251.06	247.56	243.88	236.56	234.50	215.19	184.94	149.25	159.81	149.81	144.06	132.25	123.19	104.50	100.19	105.31	114.38	121.62	129.00	137.56	149.69	165.94	189.06	214.69	232.38	239.81	219.31	196.25	188.06	200.88	188.06	137.12	121.50	113.75	109.25	111.06	127.81	156.50	190.12	214.19	234.44	241.81	236.88	227.94	226.00	227.00	229.19	231.19	246.19	244.88	234.81	232.56	232.31	232.31	231.31	228.81	229.62	228.12	230.38	235.00	237.56	239.19	241.88	248.06	249.75	250.69	251.62	253.75	257.31	261.62	261.88	267.44	273.81	275.75	272.94	276.56	275.19	280.75	265.38	258.62	258.00	258.56	261.56	265.12	267.44	268.50	270.69	269.88	270.81	270.19	270.06	271.38	274.25	278.62	279.88	282.44	282.50	281.31	279.56	280.12	284.00	295.88	305.25	290.25	277.25	283.56	280.06	269.94	257.19	252.12	257.75	261.06	270.56	280.06	300.25	375.25	335.00	269.69	255.19	255.00	257.44	257.25	257.06	263.56	270.50	283.88	292.00	301.44	313.69	314.75	321.38	326.81	340.62	354.44	333.38	325.50	329.31	337.88	349.75	356.94	363.75	375.25	384.94	389.62	388.19	387.25	376.19	368.69	362.94	355.94	357.94	359.69	360.12	363.00	366.56	373.69	361.56	341.19	327.31	314.25	301.31	300.81	298.50	300.69	308.38	300.50	298.00	298.44	297.00	297.00	297.00	297.00	297.00	297.00	297.00	297.00	297.00	297.00	297.00	297.00	297.00	298.25	299.75	300.19	300.19	300.25	298.31	295.50	290.06	286.88	283.75	282.44	280.62	277.25	272.25	272.44	273.44	274.62	275.12	278.88	282.50	287.94	290.00	290.56	292.94	294.69	296.25	299.44	299.81	300.56	304.69	306.00	308.88	309.12	308.62	302.19	300.31	318.12	323.06	333.00	347.81	355.00	361.06	362.44	368.00	373.12	361.94	338.81	324.38	315.88	309.31	308.00	307.81	307.00	307.81
193.38	174.62	167.19	162.00	162.81	176.81	186.88	187.81	193.88	211.00	233.81	245.56	251.62	253.94	256.31	257.62	259.44	257.12	256.62	256.25	253.50	251.19	248.94	245.69	245.44	233.38	206.31	179.12	149.69	149.25	136.38	133.06	125.19	107.44	98.56	106.56	109.88	116.56	125.75	135.75	143.31	154.69	171.44	196.44	220.81	235.94	237.12	219.56	212.12	220.50	208.31	189.88	141.88	118.25	108.56	108.31	115.00	125.94	141.19	175.31	208.12	230.75	237.31	228.94	226.62	226.44	228.75	231.88	237.50	249.38	241.38	230.75	227.38	226.25	228.06	227.19	225.38	224.19	229.75	250.31	244.31	240.94	240.88	241.94	244.31	243.69	245.06	248.25	251.19	252.94	256.56	260.31	262.19	268.19	275.31	273.75	279.75	278.25	291.19	272.62	259.00	256.62	257.69	260.94	263.50	264.56	263.50	265.56	268.25	271.88	272.06	271.81	276.00	280.56	284.31	285.25	288.69	287.38	285.25	282.88	285.12	287.50	299.00	306.56	286.06	269.00	264.56	264.12	261.75	250.69	246.94	254.75	260.44	266.38	275.81	300.75	368.50	349.31	285.88	259.81	256.94	260.81	256.06	263.38	269.81	275.62	281.31	282.19	299.25	312.69	322.75	328.00	326.19	340.94	341.25	325.69	325.69	331.25	344.38	357.06	361.94	365.94	378.12	384.06	384.75	384.75	384.12	376.50	369.12	361.06	354.88	354.94	355.62	356.50	360.50	363.38	373.88	368.19	342.31	345.12	315.75	309.06	305.88	308.75	305.25	308.31	303.94	299.94	301.75	298.06	297.00	297.00	297.00	297.06	297.50	297.12	297.00	297.00	297.00	297.00	297.00	297.00	297.12	299.69	300.12	300.56	302.00	300.81	297.44	290.50	287.56	287.12	287.50	284.69	281.56	274.94	276.81	277.38	275.06	274.06	275.25	280.38	284.94	289.25	290.88	294.94	296.31	296.25	299.44	299.19	299.00	302.00	304.56	307.62	309.69	311.25	306.69	302.31	305.88	314.56	323.50	337.44	349.00	358.19	363.38	360.31	367.81	359.12	340.62	328.88	318.50	310.69	308.19	303.25	300.00	297.00
184.06	166.62	158.12	153.69	152.06	154.69	171.81	188.50	204.19	223.19	241.00	248.25	253.06	255.69	255.50	259.12	263.75	256.75	255.25	254.75	253.44	253.25	251.75	247.94	244.94	229.88	199.81	169.50	153.94	127.50	120.44	120.88	115.50	96.00	101.56	113.19	115.25	120.19	129.12	142.44	151.50	164.38	180.25	206.62	226.38	241.44	240.62	224.00	215.31	202.56	201.38	188.38	171.12	117.56	107.81	110.44	116.94	122.19	133.62	171.00	208.69	229.00	238.88	227.06	228.31	229.19	229.81	234.38	243.19	252.00	238.75	223.88	220.44	218.00	218.62	220.62	221.12	225.81	246.75	249.75	238.69	237.56	239.12	235.06	232.75	233.00	237.31	242.44	250.12	251.00	255.38	260.38	261.00	266.62	276.19	276.00	278.94	281.69	294.19	282.88	267.31	254.19	253.69	258.81	260.69	262.50	263.00	263.50	263.31	264.00	269.81	271.31	276.00	283.25	291.44	294.19	297.75	300.50	297.12	294.94	296.75	294.81	297.31	302.94	277.94	264.88	257.88	248.00	245.31	249.44	250.69	254.25	259.94	265.75	267.81	281.38	347.06	336.69	278.44	263.19	264.75	263.62	256.00	262.06	269.38	279.69	281.62	284.69	296.62	311.69	320.56	332.06	337.25	340.81	332.81	329.38	334.62	345.31	350.81	364.38	367.69	369.81	378.19	381.88	385.31	386.75	384.88	378.31	366.19	357.25	352.44	351.50	351.31	351.19	359.12	365.75	373.44	365.00	355.44	346.12	323.19	311.56	313.75	319.19	313.94	305.62	302.75	300.81	301.88	302.06	297.38	297.00	297.00	297.19	304.44	300.19	297.00	297.00	297.00	297.00	297.00	297.06	297.00	298.12	299.75	300.25	302.00	301.75	300.25	294.81	292.62	291.69	290.88	290.38	283.31	278.62	280.44	281.12	277.56	275.44	275.38	277.94	281.19	286.62	290.50	294.62	297.00	295.31	300.06	299.06	298.00	299.75	303.38	307.88	309.81	314.25	311.50	308.00	304.12	301.12	309.31	322.44	336.88	345.56	341.75	347.44	345.69	347.50	335.62	327.81	316.94	309.62	309.69	303.06	299.88	297.00
184.00	159.25	149.88	144.31	143.62	165.56	181.38	202.00	219.19	233.50	245.25	251.12	256.56	258.62	258.31	260.44	266.19	255.94	253.69	253.00	253.12	254.12	252.94	249.12	244.75	230.31	199.00	176.25	158.88	136.12	122.50	110.31	99.81	99.00	107.25	117.31	120.06	123.12	132.06	145.12	156.25	169.81	185.94	212.81	230.25	242.25	234.38	215.12	204.81	186.38	185.31	177.00	146.69	111.50	106.81	110.50	118.44	125.50	138.00	172.38	211.31	220.62	230.62	227.94	226.50	228.00	229.88	235.38	244.31	251.44	232.12	212.25	214.19	213.69	217.94	226.81	228.88	234.50	245.12	242.38	233.31	232.38	230.44	229.06	229.00	232.50	238.81	242.19	247.00	250.81	257.75	259.38	261.38	266.38	274.88	277.25	278.00	281.06	291.62	290.56	276.06	252.62	250.50	253.75	256.62	261.00	262.44	261.44	262.00	262.12	266.75	267.94	269.75	278.19	292.06	298.00	298.38	307.19	301.81	301.69	302.31	297.50	298.62	294.56	271.69	260.56	253.94	248.00	255.69	262.38	267.69	269.19	265.75	264.00	265.88	273.56	335.44	313.19	270.38	265.06	267.06	257.00	256.00	260.00	258.25	265.94	283.69	288.25	292.56	307.31	318.75	329.25	338.06	345.19	338.25	331.31	343.88	353.44	357.56	364.88	368.62	375.75	381.19	380.81	383.69	387.25	388.19	382.69	365.62	356.00	350.88	350.19	350.00	350.06	357.12	366.00	370.75	374.12	371.75	344.88	333.56	320.38	323.88	324.50	317.94	307.69	302.00	299.12	302.75	302.88	297.81	297.44	297.38	297.56	298.94	298.75	297.00	297.00	297.00	297.00	297.38	298.69	297.00	297.19	298.88	300.50	302.12	302.62	301.31	299.56	296.44	294.56	293.69	292.81	285.12	280.12	281.88	283.69	280.69	278.25	276.75	277.25	280.06	282.62	289.44	293.69	297.94	294.25	299.88	299.31	298.06	297.75	303.00	309.00	312.44	316.94	314.75	311.25	307.44	304.25	306.38	308.69	317.31	330.19	329.06	328.94	331.62	335.31	328.88	323.50	313.38	308.62	308.81	300.75	299.00	298.94
199.56	155.06	145.19	129.81	158.88	176.06	195.62	221.81	235.25	239.75	246.81	251.00	257.19	258.12	257.31	259.62	263.94	253.75	251.12	250.62	251.12	252.81	253.00	249.56	245.50	232.50	206.62	206.38	187.38	149.81	126.81	103.62	93.12	101.25	108.88	119.19	122.44	124.62	134.69	146.44	159.12	173.56	190.56	211.19	224.50	233.94	218.62	210.62	206.75	179.62	161.12	147.50	124.75	107.06	106.94	110.00	118.56	133.19	149.25	179.44	208.88	211.94	217.81	221.00	224.50	229.25	230.06	234.88	246.31	244.00	214.88	208.00	220.06	221.44	223.81	228.19	231.38	235.50	239.62	234.69	229.25	229.06	227.69	228.62	229.25	232.00	238.62	241.38	243.00	249.56	252.12	255.62	261.75	267.69	276.75	276.25	276.81	282.38	287.50	290.50	278.81	249.81	246.50	252.88	254.25	258.06	261.56	261.31	262.00	262.12	263.50	263.25	266.19	276.06	292.00	300.00	298.12	303.81	303.75	301.31	303.81	307.44	304.94	294.00	269.94	260.06	252.31	250.19	253.69	262.81	271.44	279.62	286.25	284.94	279.88	268.56	296.12	277.81	265.62	268.62	263.94	256.00	256.12	257.06	256.38	280.88	291.69	285.62	293.00	299.88	312.38	327.25	336.69	344.94	339.94	335.06	347.25	353.62	360.12	360.31	365.25	375.25	380.00	379.38	384.44	390.25	393.44	382.12	360.88	354.06	350.25	350.00	350.00	350.00	355.69	370.69	377.62	378.00	370.12	356.75	347.88	334.06	329.50	329.94	318.56	311.06	309.62	300.62	303.44	303.50	298.31	302.56	301.00	297.81	298.31	298.38	297.00	297.00	297.00	297.00	298.31	299.00	297.00	297.00	297.19	300.00	302.00	302.81	302.69	302.56	300.44	299.06	299.00	298.50	291.81	285.31	286.31	285.75	283.25	279.94	278.06	277.88	279.38	282.44	288.81	293.12	294.75	294.69	297.62	300.00	296.56	294.56	299.69	306.31	313.19	319.50	318.50	315.19	311.69	311.06	314.56	316.88	309.38	311.12	315.19	320.06	320.31	323.81	321.12	318.88	310.69	304.81	301.12	299.00	298.12	299.69
185.88	153.12	142.44	119.81	157.12	172.19	198.25	231.19	242.38	240.75	245.12	246.38	248.88	249.31	248.69	249.56	255.31	250.12	247.38	248.00	246.94	250.12	251.00	248.19	247.06	240.88	220.38	216.81	186.88	150.69	130.31	101.81	94.12	101.81	109.19	120.94	122.19	124.56	135.31	145.25	155.31	168.38	186.31	198.94	212.19	206.00	182.06	181.06	194.88	175.62	152.75	128.75	111.81	103.88	106.62	111.62	120.69	142.94	169.50	198.88	210.88	206.56	216.56	208.19	208.12	224.06	231.38	230.19	230.12	220.00	217.81	222.25	222.38	221.38	221.81	221.75	223.12	227.88	228.75	228.88	227.62	229.50	225.06	224.69	226.38	229.94	232.50	236.69	238.88	244.88	252.75	259.50	265.06	270.19	270.69	271.88	272.19	279.25	287.19	293.69	283.38	248.06	233.75	241.69	247.25	250.44	257.50	262.75	261.19	261.75	259.94	260.62	266.50	276.94	295.12	298.38	299.31	296.56	300.56	298.75	310.00	322.81	307.44	291.19	268.94	268.69	257.00	246.31	245.25	249.75	250.00	256.31	265.19	279.19	289.31	297.38	296.88	334.31	280.62	261.12	260.44	256.12	256.00	264.75	287.94	296.69	288.62	289.94	295.12	301.25	299.50	316.06	332.00	335.19	337.00	343.94	352.31	356.19	360.94	363.94	368.44	369.06	373.19	380.31	390.88	394.75	396.31	375.56	358.44	350.88	350.00	350.00	350.00	351.06	362.12	385.12	387.25	371.88	368.88	376.12	371.62	346.62	332.62	328.62	332.75	323.31	308.75	301.19	298.19	299.19	302.38	307.56	307.50	300.88	298.75	297.81	297.00	297.00	298.38	297.94	297.00	299.12	297.06	297.00	297.00	297.69	301.81	302.00	303.38	304.19	304.50	303.44	302.94	303.31	298.69	293.19	292.56	289.00	286.00	281.19	279.69	278.94	278.75	282.31	286.94	290.38	291.44	295.31	298.81	299.69	296.81	293.50	294.38	302.00	311.31	318.00	319.94	318.44	316.12	316.06	317.75	318.19	310.56	309.00	306.50	305.75	309.25	313.25	311.81	309.69	306.69	302.12	299.69	299.00	298.25	299.19
178.88	160.00	144.38	121.00	129.38	160.88	191.38	224.75	232.88	232.88	239.00	240.75	243.50	244.12	245.62	246.12	247.12	245.50	245.62	246.25	246.25	247.25	247.88	245.25	245.62	239.75	226.00	200.50	162.12	140.12	126.00	100.25	94.75	100.88	107.75	119.12	120.38	123.75	133.00	141.25	149.12	159.38	173.75	178.25	199.88	199.00	177.25	170.75	177.00	165.88	151.38	122.62	104.75	102.50	107.00	114.38	126.50	162.38	200.00	230.25	227.88	206.00	203.62	202.38	196.12	205.00	215.88	220.62	241.62	237.50	225.00	224.00	220.75	216.25	216.25	216.50	218.12	224.25	225.62	225.75	226.12	224.88	222.12	221.25	222.50	223.88	222.12	227.75	236.12	239.88	248.38	254.25	261.88	265.50	268.62	269.62	270.38	285.00	299.25	301.50	296.62	268.38	239.12	229.12	230.25	234.00	238.00	257.25	254.75	257.25	253.75	257.25	266.00	273.88	292.12	299.62	301.75	301.38	295.00	301.75	313.62	313.88	309.75	311.88	303.38	277.88	276.62	261.88	253.50	247.75	246.50	249.25	250.12	255.12	262.25	266.25	275.25	330.75	310.88	274.12	269.50	272.75	270.38	288.25	287.75	281.38	288.00	292.75	300.88	302.75	307.50	305.62	321.38	323.75	330.50	343.25	354.50	360.25	360.62	364.25	370.62	376.25	381.50	380.38	387.88	385.62	388.62	370.00	359.75	352.88	351.12	352.75	358.75	359.12	368.25	387.88	382.00	368.75	372.75	371.38	386.00	363.00	338.00	330.88	334.75	319.12	300.75	297.12	297.00	297.38	303.88	310.25	310.25	306.25	306.62	300.38	297.00	297.00	306.25	304.50	298.75	299.88	297.75	297.00	297.00	297.25	300.50	303.12	304.75	305.62	309.50	306.38	304.75	305.00	301.62	301.00	297.38	293.12	288.12	283.12	281.75	280.38	279.00	279.88	283.25	288.25	290.38	294.62	297.88	311.12	303.00	294.88	293.12	295.62	304.12	313.25	322.12	319.38	320.12	319.00	319.88	318.38	313.75	310.62	303.00	300.50	300.25	305.00	303.00	300.75	299.25	299.50	299.88	299.75	300.00	300.12
194.12	174.31	154.94	116.12	123.69	156.06	193.62	221.75	225.25	225.19	229.81	233.50	236.88	237.75	241.19	240.25	240.12	240.25	242.06	243.56	240.25	241.62	242.94	239.00	230.44	222.50	215.31	190.56	154.44	130.06	115.56	94.19	93.75	97.69	105.56	118.62	118.00	121.12	129.50	138.69	149.94	154.00	169.00	191.12	212.38	189.00	171.56	159.31	156.19	148.19	143.88	114.94	103.00	100.94	112.19	120.94	149.62	196.69	227.38	247.62	233.88	210.81	195.56	209.81	207.75	213.12	223.88	241.19	244.50	231.00	224.00	223.69	220.94	217.19	213.56	214.56	217.56	221.56	222.94	223.44	225.31	222.38	220.31	219.38	219.12	219.31	215.19	215.31	221.62	233.31	241.06	245.56	254.12	261.81	272.12	276.88	272.88	273.38	286.06	296.56	302.31	274.38	239.44	229.00	229.00	229.25	235.38	253.38	248.75	248.69	251.62	254.31	263.06	264.50	279.38	294.00	301.44	303.62	292.31	298.94	304.06	303.81	313.75	318.44	313.00	294.81	290.56	277.75	263.94	249.94	247.06	249.50	246.31	248.88	249.88	258.38	276.69	313.38	295.88	277.62	270.50	264.19	268.81	272.62	272.00	281.94	293.31	296.75	302.19	308.44	313.69	316.38	314.88	317.19	329.38	341.69	351.31	357.44	361.69	366.88	372.25	378.50	381.56	380.69	380.06	379.88	376.06	366.88	361.88	361.94	359.56	359.62	362.75	369.00	380.81	388.31	374.44	371.88	372.69	370.12	377.44	360.06	336.06	340.75	339.00	328.19	319.75	299.38	297.00	297.06	300.56	307.56	310.25	309.75	310.38	305.38	297.00	297.00	304.69	309.62	305.62	304.75	302.94	299.12	297.12	297.00	299.69	303.00	306.31	306.62	309.75	309.31	308.94	308.75	306.69	305.94	303.12	296.94	291.31	287.38	283.38	282.12	280.38	280.44	281.31	285.62	290.12	294.88	295.50	318.75	304.44	295.88	293.06	293.00	295.69	304.75	314.25	321.12	322.06	320.62	319.94	318.81	311.50	307.44	303.31	298.06	297.25	298.00	297.50	297.38	297.38	297.31	298.62	299.44	299.56	299.56
196.44	172.94	151.38	109.62	124.19	155.81	194.88	217.88	215.38	213.94	218.12	224.19	231.62	233.81	235.44	234.38	233.06	232.56	231.75	236.19	231.94	233.19	233.81	230.31	226.69	220.25	213.31	183.94	147.38	122.12	104.25	91.31	91.38	94.81	102.00	110.06	113.62	119.25	128.06	137.31	148.12	157.31	178.81	199.75	204.94	181.19	170.31	157.62	145.69	137.25	133.38	109.06	100.38	103.19	121.00	141.44	179.81	215.12	231.56	244.25	219.62	189.00	199.19	210.00	213.81	223.44	229.44	242.62	244.31	228.50	223.25	221.94	218.69	212.19	210.75	212.94	215.88	219.44	219.94	222.44	223.44	222.44	222.75	220.50	218.94	217.19	211.81	209.00	208.75	222.44	232.69	249.56	259.44	265.25	270.62	272.06	268.38	267.31	265.25	269.94	300.94	275.12	238.25	229.44	227.88	229.94	238.00	250.56	249.69	252.25	258.19	256.31	262.75	264.81	282.56	296.75	302.62	295.12	280.88	294.62	315.56	311.88	320.12	319.00	307.75	295.88	280.38	277.31	268.25	258.00	251.25	250.25	249.12	248.00	248.00	250.94	288.44	343.69	325.38	292.88	278.12	272.38	270.88	271.88	276.25	285.38	295.06	299.19	304.38	311.19	318.00	323.75	322.81	327.62	326.88	336.31	347.44	355.62	362.38	368.25	372.38	375.00	376.12	378.12	374.62	371.62	369.25	371.56	374.62	376.12	372.81	369.69	371.50	384.06	387.12	379.00	371.19	372.31	371.94	368.75	371.50	368.56	337.88	335.69	331.38	323.38	317.88	300.38	297.00	297.12	298.44	303.06	308.94	310.81	310.00	306.06	297.62	297.00	302.75	310.75	309.69	307.69	308.56	305.75	299.62	297.19	297.62	302.31	309.25	309.19	309.00	309.88	309.94	309.88	309.25	311.31	308.62	301.75	295.75	291.75	287.19	284.81	283.50	281.88	281.19	283.75	288.88	293.94	294.81	314.38	302.75	296.50	293.62	293.06	293.12	297.94	304.62	311.50	311.44	315.38	315.88	313.12	309.06	305.94	302.19	297.94	297.00	297.00	297.00	297.00	297.00	297.00	297.62	299.12	299.12	299.19
191.19	182.75	156.44	111.44	120.06	158.69	192.62	211.06	203.81	199.31	205.50	214.75	228.69	231.38	232.94	229.50	226.69	222.56	219.75	223.62	222.38	222.12	222.56	221.06	218.06	216.31	210.44	172.19	126.25	104.06	91.44	89.94	89.38	92.06	99.19	103.31	110.75	118.38	130.12	140.06	150.50	165.00	182.69	191.31	192.06	183.12	183.06	164.81	143.69	130.75	121.25	102.81	99.44	112.56	143.25	172.94	199.62	212.06	213.62	212.31	182.81	187.06	207.62	209.75	210.69	218.38	231.62	254.00	241.62	225.19	219.94	217.38	213.94	209.19	209.56	212.00	214.75	216.62	217.25	221.38	223.75	227.88	228.25	222.44	218.88	215.62	211.62	211.31	207.44	214.06	236.44	255.81	267.81	274.44	282.75	284.75	280.06	289.19	272.31	261.88	271.88	264.81	242.75	225.81	219.50	224.69	231.62	253.19	256.94	253.81	260.00	260.94	265.00	271.44	286.94	296.19	296.19	283.19	273.00	306.31	328.38	316.06	314.56	313.06	297.81	281.88	277.06	273.56	266.19	266.19	263.12	258.69	256.25	255.50	253.31	255.25	291.81	342.62	353.00	319.19	294.44	283.75	279.75	278.81	285.06	291.12	298.19	300.94	305.25	311.56	319.19	325.62	333.44	346.00	335.00	337.12	345.31	357.81	362.44	367.75	368.06	367.50	368.38	371.12	361.31	359.38	368.56	379.94	388.19	391.25	386.38	378.81	388.88	392.69	379.12	368.88	370.31	370.19	370.81	369.00	377.88	386.56	350.00	326.81	317.38	311.81	300.19	297.00	297.00	297.50	301.56	302.81	307.06	310.12	309.69	305.44	300.56	297.56	301.38	311.19	314.50	310.31	310.69	311.69	308.25	301.00	297.00	298.81	307.12	309.56	309.00	309.44	309.94	310.56	312.44	313.31	312.62	307.62	300.75	298.25	292.88	288.94	287.12	283.38	282.06	285.38	285.50	292.50	296.12	308.50	302.31	297.06	294.94	293.69	293.06	293.62	298.62	299.25	296.88	297.88	299.12	299.44	299.88	298.56	296.75	298.06	297.00	297.00	297.00	297.00	297.00	297.00	297.00	298.25	299.81	299.75
202.88	188.81	155.44	96.25	115.12	154.88	179.25	202.56	199.31	191.31	200.62	213.25	225.50	229.19	231.00	227.00	217.12	214.31	208.12	209.00	208.19	210.31	212.81	213.00	209.81	209.94	198.50	161.94	114.00	94.00	86.00	86.50	85.88	88.31	96.38	104.12	112.25	119.06	134.81	145.12	157.69	174.62	184.19	185.25	186.12	178.62	179.31	167.88	147.50	129.69	112.00	111.38	119.94	135.19	155.94	179.25	195.75	200.19	185.00	179.00	185.44	187.00	201.38	207.19	209.38	211.44	225.12	247.50	231.38	219.50	213.88	212.00	209.75	208.88	210.12	211.62	214.38	216.81	219.25	220.31	223.00	226.56	226.44	220.38	218.38	214.69	214.94	218.50	214.62	207.38	223.31	251.25	263.81	272.75	284.69	291.69	288.06	288.25	277.06	263.50	251.81	245.94	233.62	220.12	217.06	220.25	228.19	251.56	254.06	251.44	255.19	256.44	261.88	269.00	275.44	298.31	281.00	278.56	292.94	323.56	338.88	325.88	323.00	318.19	287.50	276.88	266.50	263.56	265.19	267.38	273.75	274.25	275.81	277.19	272.88	268.56	286.31	322.31	351.94	339.88	311.06	294.69	291.00	286.50	286.38	293.75	299.88	303.69	307.12	311.88	316.19	327.56	346.44	353.94	338.69	346.00	347.12	354.31	359.81	367.25	363.31	360.44	363.06	364.25	357.69	361.50	368.12	381.88	393.94	399.56	393.38	395.25	398.56	388.31	372.88	365.75	368.31	369.38	368.62	368.25	378.94	380.50	362.62	327.50	311.75	309.06	298.00	298.00	307.44	304.88	306.88	306.56	308.69	309.44	308.38	307.44	306.75	302.31	300.12	308.19	314.38	316.62	314.56	317.12	316.75	311.19	298.94	297.31	300.75	311.19	309.19	309.44	309.19	311.19	314.31	316.56	314.81	311.88	305.50	302.81	298.62	293.44	288.12	284.00	283.88	288.50	284.69	290.44	294.88	308.06	303.06	297.81	296.38	295.62	294.56	294.75	295.00	296.69	295.38	293.00	293.00	293.00	293.69	293.44	294.00	297.00	297.00	297.00	297.00	297.00	297.00	297.00	297.50	298.81	299.88	299.94
173.25	158.12	129.62	70.50	116.62	150.31	182.06	202.06	197.25	185.56	195.56	210.19	222.25	228.56	230.75	227.38	214.19	206.69	195.06	193.75	189.69	192.50	200.50	204.00	200.88	198.69	186.19	151.69	107.56	88.75	83.81	83.94	81.69	86.75	97.06	105.62	113.88	121.50	137.94	149.88	164.56	181.31	185.38	185.81	184.88	177.44	162.38	156.62	145.81	127.44	110.81	124.44	138.38	151.62	156.56	169.62	177.38	181.25	172.50	187.31	183.31	184.12	196.38	206.50	208.12	209.00	216.56	229.56	223.38	215.06	209.06	207.75	207.94	208.19	209.62	212.69	216.81	220.56	219.38	218.00	219.62	219.81	220.38	218.81	218.00	214.62	216.44	220.81	221.38	209.25	209.00	231.81	242.62	253.31	258.88	277.31	295.00	292.06	281.25	260.88	246.69	244.81	232.69	218.75	218.25	222.00	235.62	252.50	251.00	251.00	251.00	253.31	254.38	262.25	267.19	285.69	276.69	288.44	313.00	335.38	345.75	329.44	322.38	315.12	285.44	271.88	261.50	258.31	248.69	261.81	272.12	277.56	285.50	288.56	286.00	287.19	292.75	306.62	343.50	350.31	323.88	310.00	300.50	293.06	289.94	295.69	300.94	305.25	310.31	316.25	320.62	333.25	363.19	359.81	340.75	347.00	349.69	352.06	357.06	360.88	359.69	358.06	359.12	360.94	359.50	364.88	370.94	380.69	389.00	397.38	399.88	400.25	396.00	377.94	365.75	363.38	366.19	368.69	366.75	368.75	372.81	366.69	369.31	337.94	310.06	304.44	301.94	299.56	320.62	306.12	305.56	310.44	312.81	308.69	308.69	310.06	309.81	308.00	304.56	307.44	311.12	318.69	318.12	319.69	323.50	321.44	307.38	299.69	297.56	309.06	310.19	310.50	309.56	310.88	315.88	317.44	315.81	314.50	309.19	305.75	303.12	298.50	291.25	286.38	285.50	289.88	287.19	288.19	292.88	303.75	302.81	298.50	296.62	296.12	296.44	295.62	295.81	296.69	294.56	293.00	293.00	293.00	293.00	293.00	294.00	297.00	297.00	297.00	297.00	297.00	297.00	297.00	298.19	299.69	300.12	300.44
120.62	132.88	82.75	69.62	115.31	157.06	187.50	198.62	194.00	181.25	185.00	199.06	218.62	228.75	230.50	231.00	215.50	206.69	194.75	206.50	196.94	185.81	188.44	193.31	192.94	188.25	180.75	141.00	97.75	81.44	82.00	82.56	76.38	90.19	99.44	109.06	117.38	128.44	144.75	154.94	170.38	180.00	183.88	185.88	185.25	183.19	154.75	145.00	137.12	123.81	115.81	123.94	150.06	154.38	153.44	163.62	165.44	185.69	190.19	182.75	182.25	182.62	190.94	199.62	205.44	209.38	214.88	220.19	216.44	210.94	204.62	206.25	206.69	207.62	208.62	212.81	217.62	216.50	213.50	215.00	218.94	220.44	221.75	219.44	218.25	214.50	213.00	218.44	219.81	208.25	206.19	215.50	228.62	244.19	260.56	284.44	298.25	294.50	281.75	263.75	242.50	240.69	233.19	217.88	220.19	233.19	245.19	252.44	250.62	250.50	250.25	250.88	254.00	265.75	266.12	270.44	272.69	294.69	323.25	339.50	342.50	324.62	313.44	294.88	270.38	262.75	258.06	255.50	242.06	251.88	269.38	275.19	284.88	287.12	289.44	299.25	304.50	303.81	345.25	349.88	330.50	319.06	308.06	299.50	292.25	295.75	303.50	307.38	312.00	320.88	328.50	341.19	374.00	365.62	341.31	343.38	347.06	352.75	355.88	353.88	354.00	356.69	354.75	359.12	361.12	367.19	372.44	379.25	384.06	392.88	394.00	392.31	382.94	363.50	359.44	360.50	360.88	364.06	367.88	367.62	363.69	360.06	366.31	348.75	318.75	308.62	305.12	307.88	319.25	298.44	301.12	313.50	314.50	304.50	307.06	312.06	311.81	310.56	309.50	309.00	308.88	318.50	319.69	321.88	328.06	331.50	324.88	311.06	300.19	301.88	309.12	312.62	312.88	312.62	315.62	316.50	313.62	314.81	311.69	308.50	306.50	302.19	295.88	290.44	287.56	291.44	291.19	287.12	290.06	296.25	299.44	299.50	297.69	296.44	297.00	296.06	296.38	298.88	295.31	293.00	293.00	293.00	294.94	295.06	294.00	297.00	297.00	297.00	297.00	297.00	297.00	298.06	301.25	301.00	302.31	303.50
30.62	60.75	39.25	76.75	122.25	171.50	191.25	194.81	192.75	180.56	175.56	177.50	205.94	218.56	226.12	232.56	223.25	214.44	212.62	219.38	219.56	206.19	180.25	180.56	183.00	178.38	178.75	133.25	82.00	74.44	80.81	80.19	74.06	93.94	104.44	115.00	126.00	143.62	153.25	160.50	167.81	174.06	184.06	184.25	182.75	175.88	157.12	150.81	136.12	131.62	118.50	117.62	128.69	140.88	168.81	184.94	186.50	186.25	183.75	181.75	182.81	182.56	188.75	201.44	209.12	211.81	213.62	215.06	209.56	206.44	203.94	208.38	208.88	208.81	208.75	209.81	210.44	209.50	212.38	219.00	226.75	230.12	230.06	226.75	222.38	216.88	213.00	210.44	208.19	203.19	205.00	214.38	223.38	240.50	267.06	290.44	297.69	296.75	276.94	263.81	243.25	232.38	224.69	211.25	215.50	236.50	249.19	251.00	250.38	249.25	247.25	246.88	249.06	251.50	252.62	252.19	262.50	298.94	319.62	333.00	329.25	316.38	317.88	300.50	237.62	238.25	252.75	244.56	237.44	261.25	276.50	282.69	288.00	284.69	287.62	298.50	313.50	316.94	337.06	349.38	337.75	324.69	310.81	305.75	294.00	301.50	307.81	309.81	311.94	320.94	328.50	339.12	367.19	365.19	341.50	339.50	340.25	347.06	349.69	348.88	349.31	351.81	350.56	352.94	360.12	363.88	369.31	374.69	378.50	385.19	384.81	376.38	358.12	352.75	354.88	356.12	357.06	358.62	359.06	354.50	352.19	358.06	352.31	344.94	323.81	309.12	308.06	311.69	313.62	297.56	297.25	305.50	307.69	302.06	303.19	309.81	315.81	316.56	314.00	311.62	309.00	316.88	319.50	320.88	330.56	336.50	340.06	336.25	314.62	304.75	308.62	317.62	318.19	317.81	316.69	316.75	313.56	315.44	312.75	308.75	309.19	306.56	303.25	298.31	293.56	295.94	298.12	293.62	289.00	291.50	295.75	299.06	299.62	297.31	297.12	298.31	298.31	300.75	298.88	294.25	293.06	293.69	299.31	300.75	298.25	297.56	297.12	298.00	299.25	297.56	298.56	302.44	304.88	304.69	305.94	308.44
23.00	23.00	24.25	43.94	109.88	164.50	188.38	191.25	192.88	181.44	167.12	159.25	178.00	193.00	219.06	226.38	223.81	216.94	212.75	218.00	219.31	217.38	179.06	167.06	166.25	158.31	162.12	121.75	74.38	74.50	75.00	74.50	74.69	99.88	109.81	120.88	132.62	150.25	155.38	159.31	158.50	164.00	182.25	182.31	177.75	169.25	155.50	148.44	145.00	147.19	130.38	116.00	143.19	152.00	172.50	179.50	180.12	178.12	180.00	182.69	182.69	182.44	198.81	207.38	209.88	210.81	210.62	209.62	205.81	204.31	203.62	207.62	208.94	208.94	209.00	209.06	209.81	214.19	220.44	226.44	231.75	234.81	234.94	236.75	229.25	223.50	220.62	219.31	218.00	206.38	202.00	208.56	222.62	245.12	274.44	295.12	294.38	289.62	264.50	252.06	237.12	223.62	216.12	208.31	213.19	225.62	234.75	238.75	241.00	243.12	245.00	245.69	249.38	239.75	244.31	261.12	273.56	295.31	313.12	324.25	321.56	309.69	314.00	301.88	228.31	243.25	259.56	262.50	264.88	276.94	286.44	290.00	294.62	296.56	300.25	308.69	322.38	333.81	345.56	341.44	337.25	326.25	319.25	312.31	300.81	306.62	308.12	312.19	314.94	320.75	329.44	334.00	353.12	361.75	340.75	339.69	341.19	343.94	346.31	345.38	345.06	345.19	344.88	351.50	356.38	360.00	365.62	369.25	373.19	380.94	382.75	370.38	348.88	348.50	349.69	350.69	353.62	351.31	341.69	340.44	339.19	346.69	338.19	324.12	318.00	308.94	307.88	305.12	301.12	300.44	294.19	294.62	295.19	298.31	300.75	305.88	316.31	322.00	319.62	315.56	312.12	311.94	317.62	317.50	331.12	338.31	343.50	350.81	333.94	316.50	312.81	317.56	323.44	322.81	320.38	317.50	315.81	312.19	311.00	311.00	310.62	309.69	308.50	303.81	295.62	299.00	304.44	303.38	295.12	290.56	293.06	297.50	299.81	296.69	298.75	300.25	300.81	302.62	301.38	301.19	298.31	298.75	301.00	303.81	304.44	303.19	300.62	303.50	306.06	303.06	303.56	307.62	308.06	309.81	310.62	310.62
23.19	23.00	23.00	23.19	45.88	103.19	142.56	161.19	180.50	177.50	154.88	122.81	156.06	195.06	217.19	225.69	223.62	219.44	214.56	215.69	210.56	204.75	170.25	154.12	144.12	147.50	143.00	102.62	74.00	74.00	74.00	74.81	86.06	109.62	120.50	124.06	135.12	146.19	153.50	153.81	153.56	160.25	175.44	183.88	182.56	180.75	158.50	153.25	153.94	147.62	136.81	117.69	148.88	157.94	168.12	172.25	172.00	171.00	175.06	179.00	179.56	178.75	192.38	203.50	209.38	206.75	204.94	204.44	202.81	202.44	204.38	209.06	212.62	210.75	210.19	212.56	216.62	223.06	228.12	230.88	235.12	238.31	237.94	238.44	233.00	229.56	229.81	229.25	228.75	218.56	203.31	214.25	229.75	257.12	286.75	297.31	290.25	280.62	255.38	244.81	238.56	231.38	218.31	208.19	207.38	215.94	230.69	236.81	238.00	239.56	244.88	243.31	247.62	236.00	237.69	262.38	272.88	281.12	289.75	305.19	311.12	302.44	268.44	265.81	200.06	255.88	265.00	274.44	274.88	275.88	286.94	300.25	304.69	306.44	318.31	339.12	356.62	362.81	371.69	347.81	336.81	332.06	333.62	318.94	303.75	306.75	310.12	314.00	316.81	320.88	327.44	333.75	341.19	352.06	340.62	338.50	339.31	341.25	343.62	341.75	341.25	340.50	340.81	350.44	353.06	357.12	361.44	364.81	369.94	379.00	378.31	363.56	351.38	346.69	345.62	353.06	356.69	347.75	338.69	334.50	341.62	336.38	321.75	315.31	314.44	309.12	308.56	303.12	298.94	301.31	291.38	294.88	294.19	295.75	299.88	304.44	313.06	322.00	325.75	319.44	316.12	308.75	311.31	314.94	326.81	336.94	341.38	351.25	349.31	333.69	323.31	321.75	323.75	328.44	326.12	321.69	316.38	318.00	316.75	318.06	313.56	310.94	310.06	308.00	301.50	299.19	308.81	311.62	307.44	296.81	293.88	295.00	297.75	299.44	300.31	300.94	303.31	304.00	303.94	305.00	303.69	305.75	305.19	306.56	305.75	309.81	310.50	311.19	312.69	312.25	310.50	312.25	313.88	314.62	316.00	313.56
28.25	23.44	23.00	23.00	23.00	29.81	61.50	92.00	113.19	126.94	103.69	87.31	166.94	196.62	216.19	220.94	219.88	218.88	216.06	213.62	192.31	174.88	154.56	136.44	127.62	142.88	121.81	84.06	74.00	74.00	75.12	89.44	95.50	117.00	122.75	126.75	136.81	135.50	144.31	151.88	163.44	177.62	187.50	188.31	184.81	183.56	170.75	163.69	159.69	153.00	147.81	113.94	144.81	158.31	162.56	163.75	163.50	166.06	168.19	172.75	172.62	172.94	198.56	209.06	207.06	201.31	198.75	199.00	201.69	203.81	204.50	210.00	218.56	216.38	213.88	222.56	227.88	229.12	224.44	230.19	231.81	235.25	237.81	238.56	236.38	233.19	232.94	234.69	238.31	229.25	205.38	201.88	218.88	243.00	263.75	276.94	282.50	286.00	269.56	252.12	247.00	236.31	227.44	223.38	207.81	212.75	238.44	243.44	246.88	246.56	247.94	238.88	238.94	236.19	237.69	247.62	264.06	281.38	292.88	300.50	295.19	281.38	191.00	191.88	206.31	218.62	273.62	281.94	285.62	278.12	280.62	299.69	305.00	313.00	342.81	368.88	386.94	387.50	371.69	360.38	351.94	339.81	338.25	317.25	301.81	309.06	308.69	312.38	318.50	320.94	327.56	333.19	336.06	341.69	341.94	335.06	334.25	338.62	341.44	338.25	339.25	337.00	340.75	348.56	350.69	354.44	357.94	365.56	373.00	378.12	364.44	350.62	348.88	343.19	341.88	355.38	350.62	343.50	347.88	337.44	330.12	332.44	320.38	307.75	302.19	295.75	306.00	308.00	298.44	297.69	290.56	289.12	293.56	295.75	299.19	304.62	307.12	317.19	325.06	327.56	319.62	313.12	311.56	314.62	323.00	334.31	340.25	352.81	357.25	349.50	340.88	334.12	330.25	336.50	334.31	327.44	319.94	319.75	320.00	319.06	315.56	313.00	310.56	310.12	308.56	298.81	310.19	318.31	318.75	312.19	301.69	295.19	297.62	302.12	302.94	302.06	305.94	305.00	305.19	308.56	308.69	308.88	310.00	310.38	312.38	320.12	320.75	319.81	321.75	321.50	318.62	320.12	322.25	322.00	321.94	319.75
41.38	34.25	26.62	23.00	23.00	24.25	38.50	50.25	54.38	59.25	65.88	79.12	105.50	125.00	168.75	213.75	222.00	220.50	216.00	213.75	210.75	183.12	171.25	154.50	122.12	124.12	106.50	76.62	74.00	75.62	88.88	92.25	99.38	120.12	120.38	130.00	138.00	145.25	165.75	175.75	185.88	193.62	199.62	199.25	197.75	207.12	183.88	174.12	168.75	156.88	146.88	114.88	140.88	154.62	155.88	156.88	159.38	159.50	161.12	166.00	165.25	173.75	198.25	206.50	205.00	199.62	195.88	197.25	201.25	201.62	203.38	209.62	214.62	216.88	220.50	224.50	224.12	223.88	222.00	225.88	227.88	231.25	233.88	238.12	240.88	235.75	229.38	221.25	213.75	211.12	201.00	189.75	206.00	241.50	258.12	267.75	279.62	315.00	290.88	274.75	254.38	250.12	252.38	236.62	208.25	198.88	221.00	252.75	258.00	245.25	231.38	236.88	246.12	249.75	250.75	249.75	269.62	283.62	290.62	247.00	202.75	179.25	219.88	241.62	239.88	252.88	273.38	281.50	284.75	289.00	288.12	297.50	294.25	305.38	336.12	371.38	393.62	404.38	380.75	363.50	352.75	346.62	338.12	313.88	301.00	305.12	304.00	308.12	313.75	318.75	322.50	329.50	331.62	334.50	352.88	337.75	330.50	334.12	336.88	333.75	333.25	334.00	340.12	343.00	347.62	350.88	356.12	366.75	372.62	355.25	341.62	339.62	339.75	341.75	346.88	347.00	343.62	340.88	340.88	338.50	337.25	332.25	321.38	309.62	300.62	299.25	300.00	304.38	295.00	298.38	287.00	279.62	282.00	289.50	293.38	299.88	306.62	313.25	320.38	325.38	326.62	319.75	315.00	318.12	321.12	329.62	341.75	353.38	361.00	360.25	356.75	351.62	344.50	341.62	343.88	337.12	325.12	319.12	317.75	317.12	317.00	315.12	310.25	310.88	310.88	301.88	308.00	317.50	323.50	326.12	319.00	309.00	300.88	304.00	304.75	303.00	306.38	307.75	308.50	308.88	312.38	314.62	317.00	318.62	322.25	328.62	331.25	332.62	332.88	332.38	329.12	328.62	330.25	329.00	330.00	327.38
47.88	42.50	32.00	23.56	23.00	23.00	34.31	47.25	51.94	56.88	57.38	63.94	78.75	101.88	134.19	194.00	215.94	216.12	214.75	213.81	207.94	195.50	181.00	152.12	126.50	107.06	95.00	76.38	76.31	88.69	92.50	93.12	103.00	117.88	123.12	127.44	141.31	158.94	178.50	190.50	196.50	204.38	209.38	209.50	215.56	211.19	195.25	184.19	178.12	163.62	148.69	115.44	135.00	151.00	153.38	155.19	155.56	153.62	154.94	159.69	162.94	172.50	184.19	196.75	203.19	200.56	195.12	195.12	200.44	200.50	201.25	208.50	208.44	209.75	214.50	217.25	218.56	216.62	221.00	220.19	223.38	228.75	232.81	239.06	242.50	243.31	236.38	237.69	236.31	219.94	204.00	184.62	180.56	211.88	238.44	256.31	277.31	301.38	296.31	289.88	278.25	282.31	283.31	245.25	206.56	198.94	219.88	256.19	259.69	245.06	238.50	250.00	258.75	258.75	254.25	240.81	250.25	260.56	267.50	232.56	182.31	241.69	283.75	276.75	271.50	271.88	272.38	272.12	276.06	285.94	287.12	287.25	279.19	281.75	304.31	348.12	382.44	404.88	379.75	359.31	349.25	341.75	336.56	313.50	298.50	300.06	300.56	302.12	310.81	314.19	318.50	322.12	325.31	332.06	351.62	338.88	330.00	327.62	329.38	329.38	330.19	331.75	335.94	339.31	345.62	350.19	356.94	362.06	347.88	335.06	336.31	340.50	342.50	344.25	347.44	343.38	334.44	336.75	338.88	339.50	340.81	338.69	327.38	320.12	308.19	300.94	297.50	290.94	290.12	298.19	292.44	280.19	278.50	281.31	283.69	291.12	305.00	311.81	315.69	317.94	327.00	324.44	319.06	317.25	321.38	327.31	340.38	352.19	360.56	365.50	369.06	370.19	361.50	355.88	351.75	347.31	332.56	322.12	315.12	314.19	316.75	315.44	310.31	311.19	313.62	306.75	301.44	312.62	326.81	332.25	333.00	325.00	314.31	309.69	308.31	305.75	307.19	309.31	309.75	310.06	317.94	320.94	324.50	331.50	334.88	338.81	339.69	344.44	344.81	344.19	340.19	337.69	340.31	340.62	335.19	334.19
51.75	45.44	36.19	26.50	23.00	23.00	28.38	47.88	54.88	59.81	61.69	64.81	71.44	81.19	102.69	153.06	197.44	211.94	214.50	211.50	200.38	192.31	169.62	147.00	121.12	104.94	91.50	74.56	86.94	95.31	87.50	102.25	115.69	125.50	131.31	139.50	155.31	167.88	182.50	199.69	205.94	212.56	214.50	211.62	210.81	201.31	194.75	184.00	176.69	162.12	144.62	109.81	133.75	150.81	152.00	149.56	147.56	147.38	151.56	156.56	164.06	171.31	178.69	192.12	201.38	199.25	194.56	193.38	199.06	200.00	197.25	203.44	201.94	202.62	205.31	214.00	214.62	214.12	213.81	211.81	216.88	221.50	227.94	234.81	240.00	242.19	240.19	244.69	253.12	241.50	220.25	197.31	175.69	203.81	239.06	270.88	277.19	262.38	274.69	287.75	281.69	277.44	253.94	235.00	211.56	198.38	220.50	252.06	256.12	236.94	232.19	246.88	257.88	255.69	242.88	223.81	219.38	228.19	228.00	209.88	179.62	248.94	281.75	271.38	264.94	268.00	268.69	268.62	270.75	280.12	280.88	273.38	264.44	257.62	275.12	314.00	356.69	382.19	372.56	352.44	340.81	334.12	333.69	313.88	297.12	294.25	297.81	298.75	304.62	311.00	314.94	318.75	320.56	325.56	339.81	332.94	325.31	321.88	325.00	326.88	327.06	330.62	332.38	337.19	348.31	354.31	354.31	346.75	334.31	338.81	342.12	344.44	339.44	331.75	342.06	344.62	336.44	336.25	340.44	335.25	341.00	339.25	326.62	321.94	306.06	296.62	297.12	289.62	288.38	295.19	299.38	290.19	277.81	282.19	286.00	289.25	298.81	311.00	312.56	314.62	322.44	327.69	323.44	318.50	321.38	327.50	338.81	349.94	359.44	366.06	374.44	382.81	378.06	369.88	362.69	363.75	347.69	328.56	315.12	311.75	313.88	315.62	310.62	311.19	314.62	309.81	297.50	311.62	324.50	333.44	338.81	331.88	325.69	318.06	313.06	315.38	312.44	311.62	310.00	313.19	320.50	325.81	330.31	337.31	343.31	349.25	350.06	355.00	357.62	357.06	354.88	349.00	352.88	352.44	346.31	341.38
57.12	52.56	50.12	37.69	24.19	23.00	23.56	42.12	61.62	66.56	70.31	70.25	74.00	90.06	111.00	115.50	180.69	209.00	214.00	205.44	191.06	179.31	159.44	138.31	116.25	104.38	92.31	83.56	95.50	90.94	97.69	114.19	124.31	130.81	139.12	148.62	166.25	179.12	193.56	209.94	213.38	215.81	217.19	210.31	201.56	189.62	180.81	173.00	165.06	157.06	149.12	112.69	142.81	145.31	136.88	134.88	137.00	142.12	146.88	157.25	168.31	178.19	178.56	188.50	201.19	199.00	193.81	191.62	195.25	196.62	187.81	194.69	195.69	198.38	203.19	207.25	208.75	206.62	200.62	201.31	210.62	217.88	225.94	229.75	230.50	230.62	228.19	226.56	234.25	224.88	195.88	184.06	172.06	182.12	215.44	263.81	273.94	229.94	221.69	264.81	266.00	264.75	236.50	211.19	205.31	196.94	213.44	234.94	237.12	229.81	240.12	256.94	262.94	250.56	226.06	201.12	197.00	201.44	178.00	161.25	187.31	251.19	272.19	262.44	250.75	256.62	262.56	263.25	259.69	267.50	266.31	261.69	254.75	247.06	253.88	282.94	315.25	351.19	339.25	332.25	329.69	322.12	318.56	303.38	294.56	291.19	293.62	295.56	297.12	303.44	308.19	313.12	315.00	318.44	329.69	327.56	320.75	319.19	322.44	324.81	324.94	328.44	332.88	346.88	351.62	350.31	336.94	335.19	338.69	334.62	331.31	328.38	334.62	326.25	335.56	336.94	337.88	340.19	341.94	335.69	335.00	333.25	322.62	327.12	313.88	288.56	290.69	290.31	285.31	296.12	307.56	296.00	281.12	279.56	277.94	285.00	295.19	302.31	308.75	310.69	316.31	327.50	328.50	321.56	320.25	328.12	336.62	345.56	358.56	366.00	374.25	389.19	394.75	388.06	376.94	374.38	367.94	343.81	320.38	306.75	309.94	313.00	310.75	308.75	310.31	306.81	297.38	310.69	324.50	332.75	339.62	337.81	335.44	329.44	326.12	324.44	320.94	318.56	312.19	316.44	321.81	328.38	332.00	341.00	349.25	356.94	363.62	366.31	373.62	376.00	375.50	368.25	369.75	369.75	363.12	351.50
65.44	63.12	57.38	46.81	34.00	23.00	23.00	36.88	65.44	72.19	79.69	82.19	85.62	100.69	112.75	106.00	162.44	197.56	208.75	200.38	188.44	169.31	147.75	127.06	113.19	103.12	94.25	90.81	89.81	93.00	109.12	124.00	127.62	133.62	143.19	156.00	174.88	188.56	204.94	214.31	215.31	215.38	217.44	212.69	207.25	189.38	178.12	170.81	159.94	153.50	152.06	117.12	136.69	138.38	127.19	130.50	134.44	137.69	146.19	160.25	172.12	183.38	180.69	188.25	205.75	202.56	196.12	191.12	191.44	188.94	179.25	188.69	192.12	194.62	196.88	198.50	197.38	195.56	195.56	199.69	210.62	217.56	223.75	226.69	228.56	226.25	217.31	199.81	188.50	182.38	174.69	168.88	166.00	184.62	209.00	243.06	264.44	234.88	203.38	232.81	229.69	234.19	216.12	199.56	195.62	195.69	203.19	212.31	215.50	230.56	255.56	266.81	268.06	251.25	218.06	196.50	189.81	192.88	161.25	166.25	204.38	240.88	254.56	257.19	245.31	256.94	258.62	262.81	254.81	257.81	252.06	246.00	246.12	244.88	246.19	262.69	287.81	311.25	311.44	312.94	314.94	313.00	314.94	297.69	291.62	288.88	290.56	292.50	294.94	300.75	304.75	307.62	309.00	313.06	322.44	323.94	317.31	317.50	321.44	325.94	326.00	332.12	345.69	352.81	341.12	339.44	338.56	337.38	329.75	320.94	319.56	315.00	325.31	325.94	327.69	324.94	333.38	337.62	338.88	328.31	331.88	339.69	325.25	334.25	332.19	303.38	289.06	292.38	283.94	286.56	296.69	288.75	284.25	283.00	282.44	280.81	294.00	298.56	304.19	309.62	312.19	322.31	326.75	325.75	320.38	326.31	332.44	343.50	358.88	366.81	370.94	387.81	395.62	398.12	387.94	382.31	378.56	364.19	337.19	308.06	306.69	308.12	310.19	308.44	303.94	300.56	299.94	310.50	323.06	329.88	337.06	339.50	341.88	333.19	333.25	331.31	327.81	321.69	317.31	313.75	321.50	328.94	332.44	341.31	352.31	360.19	370.69	374.62	383.06	388.00	390.44	384.25	384.75	385.00	379.25	364.06
73.06	70.12	64.00	62.19	55.69	32.56	23.00	27.06	60.88	78.69	87.38	89.38	93.75	100.50	99.25	100.38	151.81	181.31	192.75	189.62	185.81	175.00	144.00	120.12	109.31	101.56	94.94	91.31	90.12	97.44	113.38	129.00	133.12	138.44	146.75	164.19	185.31	202.62	213.75	215.31	214.88	212.62	216.00	213.56	212.25	199.50	193.00	180.56	162.56	148.94	146.12	112.88	130.31	129.94	124.25	127.00	129.00	136.19	148.44	166.12	177.12	188.06	186.94	193.38	215.19	212.44	200.69	187.44	183.81	180.25	172.31	184.62	187.06	187.12	187.81	185.94	184.19	188.56	196.62	199.69	207.56	215.31	221.19	222.88	226.44	228.31	228.31	219.06	203.50	188.25	164.94	150.06	167.19	200.12	234.00	246.88	247.75	220.44	185.81	195.12	192.12	199.44	193.31	195.44	201.38	210.25	222.25	224.12	226.25	252.00	260.69	276.25	280.69	269.38	225.44	205.00	190.25	197.19	163.06	166.69	183.19	204.69	232.94	243.00	234.31	260.31	256.56	255.25	244.81	241.75	234.00	228.00	229.19	237.06	241.12	247.00	255.75	283.12	331.00	323.44	312.25	311.69	307.00	287.00	286.50	283.12	284.62	286.56	289.94	294.06	295.31	299.44	301.94	303.62	312.19	322.38	316.06	318.69	322.56	324.50	330.69	342.62	350.56	338.50	349.88	347.69	332.00	322.75	316.62	309.56	307.88	308.50	323.50	330.62	324.00	319.31	323.62	326.12	330.31	323.69	329.56	327.69	319.81	329.81	333.88	323.69	299.69	285.50	295.31	290.12	279.56	284.19	288.06	286.44	287.50	280.38	285.06	296.62	306.31	309.19	309.12	316.00	322.56	331.38	327.88	326.06	328.81	340.00	360.75	368.38	368.62	378.12	385.69	395.75	399.50	393.81	389.25	383.19	362.25	324.81	308.94	305.50	307.69	306.69	305.50	302.50	307.94	308.88	318.38	327.25	334.25	340.06	345.94	342.12	341.88	338.94	334.00	325.88	321.94	316.75	318.75	328.31	331.75	342.88	353.31	363.69	374.44	381.94	390.12	396.38	402.44	402.19	402.12	403.12	398.44	382.75
82.81	79.69	74.56	73.12	73.56	69.12	37.12	23.06	25.75	39.06	56.25	67.19	86.19	94.00	95.62	119.50	138.31	146.50	151.06	157.50	158.00	149.69	133.69	112.19	103.75	99.31	96.25	91.00	96.56	100.44	114.06	130.31	138.81	144.12	154.44	175.81	195.25	212.06	215.75	212.75	207.69	210.12	213.81	213.62	214.38	209.19	204.06	193.25	167.25	140.25	129.12	97.81	110.88	115.75	120.00	122.38	125.31	138.25	151.56	173.56	183.44	195.38	198.44	208.94	227.50	213.94	197.75	182.19	175.12	178.62	168.50	170.94	179.50	175.94	174.25	179.19	183.50	189.00	196.00	198.06	203.31	209.75	216.50	215.75	217.19	221.88	228.94	227.88	213.62	193.25	169.50	141.81	157.12	196.94	217.56	197.69	201.75	196.31	179.62	161.12	160.38	170.50	178.25	192.00	219.00	236.56	248.00	250.44	262.94	277.50	272.75	281.00	283.06	259.38	230.31	211.00	189.50	205.00	196.94	178.25	157.19	150.12	180.81	210.44	232.06	259.31	258.38	248.44	233.88	225.06	217.50	209.56	215.44	235.38	236.06	249.38	264.06	303.75	340.00	347.12	332.19	313.62	291.25	275.56	276.81	266.94	263.00	267.88	269.00	270.12	276.38	288.12	294.69	295.31	302.38	317.31	313.25	314.69	318.69	316.88	325.69	329.94	320.56	323.94	341.00	318.31	308.56	310.81	307.25	298.38	302.69	304.50	315.06	318.50	319.62	318.75	317.19	319.56	321.75	327.50	335.31	332.19	322.25	316.38	319.94	328.69	323.06	304.38	282.06	299.06	286.00	279.75	288.88	289.38	287.94	287.94	282.44	285.69	298.88	304.75	307.25	309.06	319.50	333.94	335.56	327.56	325.69	333.00	352.12	358.56	363.81	366.75	375.00	388.81	400.00	405.94	403.88	397.94	391.38	351.56	319.38	311.44	309.25	307.25	302.75	298.88	301.69	308.31	318.00	323.00	331.88	345.25	350.25	351.12	349.12	344.19	339.75	330.12	321.94	319.50	315.25	322.81	332.69	342.88	356.00	365.00	374.75	386.94	389.56	398.25	407.31	413.88	416.44	413.31	411.69	403.50
92.06	93.00	87.19	82.56	80.00	80.75	75.94	35.81	23.50	23.25	23.25	23.69	34.06	60.94	101.94	111.62	115.50	122.25	130.56	133.56	126.06	124.31	119.38	103.94	99.38	95.81	92.44	87.69	97.44	103.50	116.12	132.25	143.12	151.88	168.25	189.31	207.38	214.25	209.06	205.81	205.31	208.31	212.50	214.00	208.94	195.38	185.50	185.50	168.00	142.12	125.44	98.06	112.31	116.50	107.56	117.75	124.88	138.31	152.38	177.44	190.75	204.38	204.44	213.94	231.88	216.00	196.00	178.19	172.25	173.88	159.00	164.25	163.12	159.56	168.12	180.56	186.69	191.38	199.12	203.38	207.19	209.25	213.12	215.62	210.31	209.88	223.12	224.56	217.81	206.62	180.31	139.50	148.50	179.50	180.00	161.38	152.75	158.62	153.12	150.12	161.88	165.19	174.75	195.88	216.19	228.12	254.12	265.56	272.06	278.69	279.38	283.62	278.88	261.31	229.88	198.75	189.00	206.38	221.00	215.81	206.25	159.00	159.00	211.12	246.12	256.69	251.12	243.44	225.62	212.38	206.94	204.38	211.25	229.19	243.88	269.69	286.25	314.94	343.69	355.31	341.12	315.56	282.06	273.19	262.69	248.75	271.50	275.00	273.56	278.88	288.25	283.75	288.56	297.38	301.31	317.19	321.00	299.88	298.31	297.75	304.44	309.44	302.94	304.44	309.31	300.69	302.38	304.94	301.00	293.00	298.94	301.25	307.25	313.44	316.69	327.69	327.75	332.31	330.12	326.38	335.38	333.00	321.12	324.69	317.00	322.38	324.12	306.81	281.88	307.19	289.75	280.62	288.12	290.19	290.12	292.12	285.00	288.12	288.56	297.44	300.88	306.88	314.19	337.44	343.19	329.44	324.44	324.75	343.38	350.94	355.75	359.25	363.75	379.75	396.38	410.88	408.81	408.56	404.19	375.81	330.94	313.50	309.38	306.12	296.88	293.31	293.56	307.88	313.38	320.75	334.62	345.25	350.12	352.69	352.44	348.81	344.62	334.50	324.25	319.06	319.44	317.38	331.00	342.12	354.00	363.00	373.12	389.00	393.94	401.75	410.62	416.25	419.12	419.50	419.31	412.31
101.56	106.38	104.69	95.00	87.62	85.44	88.75	79.75	49.50	30.62	26.00	23.88	23.19	24.31	57.50	98.44	100.56	111.44	115.69	117.75	115.00	113.44	107.69	97.12	96.94	92.00	84.12	95.12	99.38	107.94	121.00	138.00	147.00	166.69	183.38	204.50	213.88	211.94	205.00	205.75	207.69	212.75	212.81	208.75	194.25	182.50	172.44	165.62	156.12	141.00	124.31	101.00	124.50	124.81	114.31	118.69	128.38	142.00	154.94	174.81	189.50	207.94	210.12	202.94	231.94	218.81	197.69	178.69	167.44	170.81	159.12	141.31	146.00	152.19	169.38	184.25	191.31	197.69	199.44	206.69	205.12	208.44	211.31	215.69	214.19	202.00	190.25	195.06	208.56	196.06	162.25	127.12	142.19	164.00	152.31	148.69	141.94	140.12	148.19	173.75	192.44	182.75	200.44	222.69	239.69	235.44	252.75	266.56	279.81	283.00	284.56	288.81	287.00	271.44	224.06	195.88	192.44	206.25	219.31	220.06	216.88	200.12	150.31	181.38	231.88	249.31	241.06	234.62	215.25	198.31	197.12	201.19	208.06	223.06	245.25	262.38	278.00	301.19	331.56	347.94	338.81	300.50	275.19	269.44	245.31	257.94	272.25	279.81	275.38	278.75	284.88	286.75	288.56	288.62	292.81	304.38	310.19	292.81	280.19	284.94	286.12	290.19	291.75	291.25	298.50	295.56	295.56	295.69	294.94	289.81	298.31	298.56	303.38	311.25	324.81	330.12	335.00	337.12	342.50	328.81	331.62	327.44	327.44	325.44	329.31	318.56	317.06	298.69	284.88	308.94	289.38	282.88	288.50	289.75	292.00	289.69	281.19	291.00	301.75	305.75	304.38	308.44	319.81	347.00	348.62	332.62	323.31	317.81	329.38	345.56	346.94	351.44	357.00	369.19	390.06	398.31	413.06	420.88	413.25	398.06	350.12	316.50	308.88	306.25	292.81	283.25	290.75	305.94	311.50	321.38	334.19	342.69	350.19	353.50	353.31	353.06	349.06	339.62	329.38	324.81	323.31	322.25	326.25	333.75	349.75	360.25	366.12	389.25	394.25	402.75	410.06	418.88	421.44	422.88	420.44	418.75
108.88	112.25	113.56	109.50	100.88	91.19	92.50	88.00	86.00	73.38	50.19	34.56	25.75	23.00	23.00	74.06	83.88	99.12	101.12	108.50	105.75	104.56	99.12	93.69	95.38	85.38	81.50	93.75	99.38	111.06	125.94	143.38	155.44	183.62	196.12	208.12	204.62	209.44	214.50	215.62	214.38	214.56	214.12	206.81	185.69	174.44	164.25	149.88	135.62	126.12	104.50	103.44	118.44	121.44	112.94	119.75	128.56	140.62	153.88	168.25	189.12	200.81	195.00	189.81	195.19	196.12	190.56	165.88	166.38	168.25	161.00	148.06	136.25	151.25	165.69	178.69	183.62	191.06	198.69	204.12	195.62	196.00	198.25	207.94	213.94	212.81	195.25	160.38	144.50	143.06	124.81	112.25	117.38	136.94	127.00	133.06	141.00	159.19	175.88	187.06	211.75	201.44	229.88	253.69	262.50	252.38	236.19	249.00	278.12	286.81	291.19	292.25	289.94	254.56	216.31	197.94	201.38	215.69	214.19	218.56	223.88	222.56	161.88	138.56	176.56	242.69	232.38	217.19	200.50	182.81	187.31	191.38	204.75	228.19	241.38	248.75	259.44	279.25	319.00	335.44	325.31	282.75	268.06	262.25	230.88	260.75	267.56	267.69	266.06	270.31	279.25	282.25	290.06	292.88	275.31	294.50	319.62	285.38	266.25	266.12	269.25	274.88	278.19	282.56	291.38	290.88	290.88	286.62	283.50	286.00	298.12	297.88	302.44	313.19	324.81	311.62	315.06	318.69	324.94	322.31	334.69	326.12	323.06	319.12	321.25	319.44	317.38	299.31	277.19	291.94	295.50	281.94	288.31	289.06	287.44	286.44	282.06	287.81	297.44	312.31	311.56	304.94	316.06	349.06	358.62	336.00	326.19	314.69	318.88	330.75	337.06	344.69	353.44	360.19	376.88	394.38	419.00	429.50	425.88	412.06	376.75	322.88	306.94	300.75	288.75	283.06	288.56	304.94	316.94	321.25	333.31	345.38	350.94	354.81	354.06	355.31	352.25	345.06	331.44	328.81	323.31	315.62	311.06	322.88	333.44	356.06	361.75	379.25	392.81	394.06	414.00	424.00	426.75	423.94	419.38	414.44
