538.38	549.56	548.94	559.81	578.06	598.31	606.81	593.50	600.62	612.56	607.94	593.12	579.94	567.06	555.44	543.38	532.00	531.81	544.00	550.25	543.75	552.44	565.38	579.44	593.38	597.94	592.75	584.25	573.69	569.94	554.88	551.38	558.12	568.12	571.50	562.56	554.06	564.38	563.06	555.00	550.31	562.19	562.56	566.31	574.38	601.38	609.06	641.50	633.62	608.62	598.19	614.88	645.19	676.31	650.25	620.81	617.06	603.38	551.19	553.81	565.56	586.75	598.19	568.94	577.06	645.50	591.00	549.00	556.94	522.75	504.56	504.75	512.25	521.75	517.62	505.88	494.94	476.19	475.81	482.25	478.44	472.44	455.12	448.44	448.50	536.69	598.19	567.31	583.12	614.31	621.75	641.44	671.00	636.62	628.56	616.25	604.94	587.81	577.25	563.19	567.75	541.38	532.00	516.12	523.62	546.44	540.31	596.06	614.19	528.62	481.44	471.69	472.50	453.44	427.88	413.69	408.25	411.50	409.81	412.38	415.75	418.12	420.94	421.69	424.06	425.75	427.56	430.50	434.00	499.56	484.06	472.69	466.81	463.94	461.31	456.38	457.19	461.69	455.44	458.31	455.12	451.94	449.31	447.38	447.38	450.69	451.44	456.06	506.62	509.00	511.75	512.44	510.50	512.69	512.31	510.06	514.75	510.00	509.81	508.12	516.06	513.88	514.56	510.50	505.94	501.94	492.75	470.56	508.50	511.88	512.75	509.88	509.75	506.69	491.50	512.44	530.31	524.94	529.31	518.62	491.06	460.69	459.19	462.06	465.06	470.25	475.00	482.12	491.69	512.94	512.81	514.94	514.38	528.25	542.25	553.44	547.25	546.94	588.94	619.00	626.81	625.62	632.06	645.25	654.06	653.25	663.69	667.69	668.31	668.44	667.44	667.56	659.25	598.31	643.06	613.56	569.81	565.00	530.44	535.19	546.44	541.69	547.88	587.50	590.06	577.88	568.44	560.12	563.06	555.38	558.81	561.12	570.25	595.00	596.19	682.81	717.25	659.62	727.38	727.19	731.25	682.31	681.94	670.12	619.44	624.06	618.12	608.56	619.69	625.25	615.94	634.62	704.38	749.94	765.81	742.56
524.75	530.31	538.88	549.19	569.50	592.25	602.19	586.31	591.75	597.75	605.81	598.06	583.56	574.81	564.25	549.50	535.69	523.75	537.62	536.19	540.12	553.69	565.12	581.81	597.94	598.56	589.12	577.31	570.25	564.19	554.88	547.00	552.19	561.75	565.38	553.75	551.12	561.31	555.75	546.56	557.75	681.06	643.62	648.31	592.69	589.38	599.12	629.19	595.25	586.56	582.31	598.12	646.88	664.69	639.31	625.44	614.56	594.06	560.94	551.31	562.62	590.75	583.56	564.44	554.50	576.94	558.31	528.88	514.88	507.38	518.56	505.12	497.25	485.94	496.00	495.00	483.50	467.94	451.50	446.56	450.12	443.00	441.69	445.94	458.56	491.06	554.81	552.62	566.75	588.12	603.81	642.56	651.50	651.56	626.12	622.31	622.06	607.50	584.56	566.62	550.19	520.81	527.62	515.31	514.25	531.94	548.19	611.94	585.50	583.81	480.81	470.81	458.25	448.69	441.25	416.25	406.31	410.25	409.19	412.81	426.56	420.75	421.62	425.12	426.00	427.44	427.75	431.94	457.44	502.94	454.12	439.25	457.56	463.06	461.38	455.00	455.19	464.12	453.56	454.19	453.50	448.44	447.00	446.50	446.75	448.75	449.56	449.81	456.94	488.25	495.56	504.81	506.56	509.31	511.56	512.44	513.69	509.00	508.94	514.50	521.31	517.38	514.75	513.00	510.38	508.12	499.56	488.38	509.25	503.25	513.69	513.06	515.56	514.69	509.25	515.38	512.62	524.06	500.56	476.12	449.06	452.44	461.00	464.81	465.44	461.56	460.25	475.62	526.31	541.88	536.38	541.12	553.06	556.44	550.19	533.44	524.69	527.38	542.56	573.75	624.44	628.38	630.31	632.69	651.00	648.06	655.44	650.31	659.00	663.44	663.25	655.50	607.94	550.38	560.88	547.50	537.88	533.62	527.75	535.94	542.81	548.19	554.00	585.56	653.56	652.50	630.00	598.38	590.56	563.31	579.25	594.44	582.56	618.38	596.75	650.19	667.38	625.56	672.62	745.12	694.25	665.56	666.56	638.31	635.44	628.75	616.12	617.62	635.38	671.00	625.12	629.88	646.69	689.62	773.81	764.00
531.38	538.00	540.06	548.00	568.38	586.69	596.50	581.56	574.25	579.25	595.50	597.88	583.06	580.94	570.12	555.06	541.12	522.12	528.25	530.25	541.25	554.00	566.69	581.69	599.56	602.88	591.12	577.38	571.38	557.88	557.69	545.94	546.81	550.69	550.94	544.81	549.44	552.75	544.81	541.44	556.12	660.44	633.31	670.56	653.69	635.81	596.75	601.06	584.38	575.88	582.62	598.69	649.12	649.31	634.81	602.69	604.31	612.06	564.00	541.06	553.56	573.44	585.00	562.00	538.12	539.38	537.31	521.19	513.31	506.50	509.81	491.88	478.81	472.19	473.06	476.81	470.25	454.12	444.25	437.62	431.00	433.88	433.12	433.75	438.12	468.00	542.56	539.62	556.06	586.94	606.94	625.38	661.62	658.06	664.19	640.69	638.81	622.19	590.38	561.12	535.75	525.69	523.06	517.75	500.81	536.06	529.06	534.75	529.12	500.38	489.75	488.38	475.12	451.94	437.94	419.88	406.75	406.56	408.94	413.25	422.06	419.75	422.88	423.56	424.81	427.31	429.50	432.31	434.44	439.88	442.62	452.12	451.12	454.62	458.81	456.19	459.31	461.62	453.00	451.44	451.06	449.19	443.00	445.56	445.94	447.56	448.12	446.81	448.06	447.69	445.75	452.56	477.25	485.12	484.19	488.81	508.69	502.50	469.38	493.88	513.12	512.25	512.00	512.94	513.00	509.06	507.62	510.19	511.38	509.94	507.81	499.00	515.38	514.38	511.88	519.38	503.38	465.50	439.31	434.00	444.12	456.12	459.19	463.81	450.50	423.00	419.00	430.88	513.38	531.19	549.00	516.44	526.69	552.38	537.06	521.06	520.25	524.25	533.38	551.88	556.56	571.50	611.38	645.25	646.81	651.25	637.81	623.00	627.12	623.94	605.75	608.06	557.00	537.44	530.06	533.44	530.81	527.25	527.75	534.31	535.94	546.69	557.94	565.88	629.25	680.44	643.56	647.62	640.38	570.12	609.25	665.12	602.88	614.44	611.69	624.56	687.06	682.56	688.00	725.12	693.25	719.50	673.00	653.94	647.38	632.56	616.75	607.19	612.56	634.31	639.00	646.19	635.12	653.06	698.19	800.19
539.00	545.19	553.19	550.00	564.00	579.44	589.56	578.81	564.00	567.44	584.00	582.44	573.31	581.31	572.56	558.25	542.44	527.06	517.38	534.12	548.62	556.38	564.50	577.88	594.12	605.56	592.75	578.06	563.88	554.19	553.06	546.38	540.56	538.81	540.12	537.56	542.38	547.44	537.50	536.06	537.75	549.88	559.94	582.62	633.31	637.25	577.69	574.88	602.81	600.19	566.00	597.38	606.44	629.75	606.44	582.19	581.94	580.19	565.81	535.81	538.19	560.88	582.12	570.81	549.06	545.19	522.50	509.19	512.00	495.12	495.31	492.81	473.69	464.56	451.75	460.44	458.81	450.75	442.06	440.06	429.94	425.38	426.81	427.94	452.19	469.94	508.50	534.56	576.69	602.50	597.25	626.00	644.19	654.44	677.38	662.56	635.94	618.81	602.12	572.88	543.88	523.06	530.44	504.38	500.56	570.38	572.50	537.94	551.31	563.81	572.56	525.50	480.75	463.62	455.56	436.56	421.38	405.69	409.94	413.50	416.81	419.19	422.12	423.81	424.50	432.44	437.00	436.44	437.62	439.38	442.50	447.94	447.50	447.94	453.94	448.06	459.62	469.12	455.69	451.69	449.88	452.12	443.81	444.69	445.44	446.56	446.50	445.31	445.00	449.81	449.38	450.12	441.25	440.06	434.12	431.31	462.69	480.25	423.88	430.44	477.06	510.44	511.44	512.62	510.00	510.25	510.69	511.88	511.44	511.31	507.69	506.88	516.00	515.69	513.38	519.12	500.44	473.25	444.44	442.38	445.81	459.31	455.31	454.81	439.00	424.12	416.31	421.88	445.31	474.19	515.88	535.00	510.38	550.12	512.00	513.94	533.75	532.88	532.19	537.25	538.00	551.62	596.50	614.81	617.88	627.00	598.19	595.44	574.75	558.00	552.56	570.81	547.75	529.44	522.00	520.50	520.00	525.50	531.12	534.62	538.94	548.19	566.25	588.75	594.19	642.00	672.31	663.31	632.38	575.50	583.56	647.44	676.69	643.56	663.19	637.00	661.19	714.19	726.94	724.44	714.94	692.25	680.62	668.06	660.12	636.69	620.25	608.25	608.31	620.19	644.56	691.19	655.88	654.19	672.81	767.31
534.50	536.88	545.50	545.88	557.69	572.25	583.50	580.38	564.44	563.69	575.12	571.25	562.19	574.56	575.88	561.00	545.50	528.94	515.38	529.31	537.50	544.56	557.56	577.88	593.06	597.69	587.19	573.12	559.56	547.38	551.88	545.81	534.75	533.00	530.81	530.56	537.38	543.06	531.50	531.94	535.56	583.12	583.38	567.12	575.00	587.00	574.12	568.88	588.25	599.19	573.00	580.00	609.19	607.62	568.38	584.12	560.50	558.94	551.38	537.06	540.69	546.50	556.44	580.25	570.69	554.94	524.81	498.44	498.88	496.25	487.56	473.75	463.00	459.00	450.81	454.62	450.69	447.88	441.25	431.69	441.38	422.44	421.88	428.06	439.19	452.12	483.88	529.69	553.62	554.31	585.94	610.31	640.38	607.94	656.94	637.12	609.00	582.56	574.81	559.62	554.69	516.81	520.62	506.31	534.56	603.50	626.00	588.38	600.69	578.88	611.62	600.75	517.25	477.75	459.25	451.56	435.31	410.19	409.25	414.31	417.31	419.38	421.00	423.25	424.62	435.81	452.06	451.50	450.75	449.88	448.56	456.75	448.06	446.81	447.94	450.31	463.25	473.94	470.38	460.31	452.50	450.44	450.69	445.19	445.19	444.94	444.31	444.00	443.00	441.69	441.06	442.94	440.38	437.94	435.00	433.06	430.06	427.62	425.56	422.31	421.69	444.69	481.25	484.50	471.19	496.75	510.81	510.94	509.69	511.06	507.88	508.19	513.75	516.25	518.50	509.25	482.19	458.62	445.81	452.06	451.12	452.69	450.00	456.56	452.25	439.75	434.44	436.50	440.44	443.81	474.81	518.69	502.75	495.69	511.88	535.81	543.31	531.38	522.12	523.50	537.75	562.88	594.12	593.69	643.06	639.62	637.19	593.25	548.56	535.38	529.62	528.75	524.50	516.31	514.31	515.06	524.69	529.12	531.12	541.19	542.00	550.50	564.38	578.25	592.38	639.81	686.31	705.94	651.94	584.00	592.75	591.88	640.75	671.31	677.56	703.75	672.12	705.00	737.12	720.31	705.94	725.00	721.50	695.00	696.81	657.94	621.75	610.94	609.50	618.06	634.06	654.81	662.69	673.81	683.81	725.31
525.44	527.12	535.06	541.44	554.81	567.75	578.06	577.50	562.31	556.62	568.50	562.56	555.06	564.81	571.25	558.12	546.56	529.56	513.44	522.19	535.06	545.44	554.31	570.81	588.56	593.88	584.50	572.81	558.19	544.12	548.06	548.44	535.44	530.12	527.69	525.50	539.12	538.06	528.81	530.25	544.25	598.50	614.50	571.12	572.69	590.94	579.38	557.00	560.81	587.38	569.44	568.88	592.00	581.62	557.62	554.62	552.38	542.12	539.12	526.88	528.44	534.31	550.25	554.62	564.31	547.19	514.50	494.19	480.75	481.38	472.81	460.94	457.19	455.88	449.81	448.50	450.44	445.50	434.25	433.69	438.75	428.31	424.88	429.94	417.25	419.12	450.88	518.19	534.50	540.50	560.38	591.88	613.50	578.44	636.31	615.12	592.19	578.06	556.62	535.75	529.50	523.12	525.56	523.25	570.38	641.88	597.75	580.38	599.25	605.50	589.06	575.38	543.81	464.75	451.62	468.19	437.25	415.69	409.94	414.06	416.62	418.94	420.62	421.56	422.62	454.19	508.06	476.69	475.75	465.81	453.12	452.75	444.25	444.81	446.38	466.50	473.69	472.00	468.69	469.69	458.44	450.75	447.06	446.31	444.19	442.81	442.50	442.88	441.69	440.06	439.94	437.94	436.81	436.06	434.69	432.62	430.81	427.56	425.56	422.06	418.44	415.31	419.62	432.44	427.50	495.25	511.12	510.50	505.69	508.75	500.69	491.56	511.44	515.56	511.69	476.44	455.19	437.00	439.44	451.81	452.31	460.56	455.56	454.19	449.00	447.44	444.31	442.94	447.50	448.38	456.31	469.00	491.81	495.50	517.44	526.44	522.44	519.38	515.25	517.62	533.56	581.50	576.31	600.19	647.31	623.44	585.06	550.00	535.56	529.12	524.19	522.25	514.12	512.00	512.94	516.75	523.94	526.94	532.00	539.75	544.81	556.75	573.38	603.75	602.00	622.06	703.62	698.19	613.19	610.38	656.94	605.25	621.12	688.50	701.94	699.62	711.81	717.44	740.44	742.19	747.38	743.12	755.25	722.62	722.31	699.75	642.31	616.38	611.06	619.44	629.25	641.31	653.62	664.50	712.81	684.44
515.44	525.31	537.75	544.38	554.38	560.00	568.69	576.38	561.69	549.12	560.19	557.38	548.00	558.88	567.75	557.56	541.62	525.00	512.00	523.19	531.44	536.94	552.44	567.25	581.44	585.00	578.00	575.38	557.81	544.69	540.75	542.94	533.25	527.50	525.75	526.94	552.12	532.69	527.44	537.50	560.50	561.62	562.56	562.81	568.69	620.38	586.69	552.38	547.38	565.44	571.31	564.38	560.19	544.62	550.38	543.12	543.00	537.12	533.75	528.19	522.50	545.31	560.81	553.31	543.75	516.19	493.88	498.00	479.06	469.25	466.44	455.19	451.25	448.38	447.56	443.38	437.12	425.62	429.12	425.31	430.69	441.38	417.12	412.94	413.56	413.62	432.94	464.38	508.69	537.69	550.62	565.88	561.50	581.81	589.25	606.25	608.12	595.69	554.12	517.50	508.44	501.88	508.38	540.50	635.62	582.94	598.81	630.38	629.62	561.69	558.25	519.44	498.12	479.25	469.06	440.81	451.38	424.06	410.94	413.50	415.56	417.62	419.38	419.69	420.06	442.44	479.69	554.06	532.75	477.81	464.06	450.19	442.56	445.19	442.94	451.94	479.69	498.69	479.94	475.94	458.81	450.31	447.19	445.19	442.94	441.12	440.69	440.19	440.25	438.75	438.94	437.06	435.88	433.88	433.06	431.44	429.44	427.25	425.44	422.31	420.06	417.19	413.69	407.50	409.50	483.25	503.88	507.19	509.06	505.88	490.50	486.19	505.12	513.19	499.31	457.94	448.44	449.00	454.94	460.38	464.31	467.94	468.25	461.94	458.31	453.94	452.00	454.69	455.94	456.31	460.75	466.56	475.19	482.88	492.50	503.81	507.94	505.62	509.44	512.44	535.44	628.62	583.31	547.88	521.19	513.19	515.94	522.88	522.44	520.00	519.12	515.38	510.88	512.44	512.88	515.69	515.06	520.94	532.94	550.94	598.69	611.69	603.94	626.75	634.88	685.06	708.00	665.31	602.25	593.25	672.31	700.88	613.06	680.88	735.69	740.19	719.31	743.56	765.81	769.12	768.75	769.38	746.25	736.44	759.69	761.19	678.12	621.75	611.50	630.75	631.62	640.88	643.94	650.81	655.38	656.56
514.00	522.25	534.31	545.88	546.50	546.62	549.06	566.12	563.19	550.62	544.81	541.88	539.44	551.50	563.44	555.00	540.19	523.12	510.50	516.50	528.00	541.06	554.06	565.25	571.25	573.25	570.06	567.50	550.94	539.81	533.81	539.38	534.12	524.00	522.38	519.50	530.75	531.06	535.56	571.25	593.81	564.25	562.19	564.88	577.69	599.31	564.19	546.56	542.06	552.31	554.44	537.19	530.50	528.00	540.25	529.19	534.44	532.00	526.44	516.19	515.06	546.56	569.44	549.38	533.94	495.94	480.50	484.62	472.88	459.12	455.69	447.44	445.06	441.31	438.31	433.06	424.44	424.31	418.75	421.75	418.25	422.31	408.50	408.25	406.38	401.38	415.69	421.00	450.25	511.81	576.50	587.75	608.94	594.06	594.69	567.81	589.00	611.81	573.31	529.38	514.44	507.44	509.88	524.06	625.94	577.50	642.88	636.12	628.56	527.06	525.62	516.25	483.94	477.44	478.19	465.81	421.31	425.44	416.00	411.38	413.19	414.31	416.56	417.12	416.94	415.56	418.94	459.12	512.44	480.00	511.56	454.06	442.38	448.19	440.62	445.94	493.12	494.19	494.75	483.12	453.56	445.44	444.06	444.38	444.62	442.81	440.56	438.88	438.50	437.31	436.44	436.25	434.44	433.44	432.12	430.25	428.31	427.25	425.31	423.44	421.00	418.38	416.50	408.81	399.38	402.31	415.12	461.31	475.81	466.00	464.44	478.94	494.12	496.69	477.25	443.31	462.94	463.31	469.81	482.31	478.88	489.12	489.00	475.06	480.06	475.19	464.69	466.06	464.62	467.00	469.12	475.81	480.94	486.00	501.88	497.19	491.69	495.12	504.12	509.06	551.88	544.00	537.94	516.12	498.88	498.31	504.12	512.38	515.06	513.00	512.25	509.06	507.94	510.00	509.75	510.94	512.19	514.38	529.19	569.81	594.88	581.12	591.38	599.75	565.38	600.69	663.00	672.56	606.81	599.25	615.56	706.19	651.44	681.12	757.00	768.69	765.88	759.00	767.00	778.00	778.06	780.62	777.12	751.06	751.31	750.31	697.38	640.00	615.25	618.88	627.62	630.88	632.75	638.31	647.94	676.94
510.12	518.38	533.44	542.12	537.12	533.69	541.00	554.88	564.81	564.81	554.62	537.88	532.69	544.06	556.44	551.62	539.06	520.62	506.19	514.88	528.94	540.56	547.81	554.75	558.31	562.88	562.69	559.19	545.69	535.06	527.44	535.56	531.25	520.25	518.12	516.81	517.56	536.44	543.19	561.06	582.06	567.75	563.06	560.88	570.19	598.50	577.50	561.12	556.81	547.56	530.50	514.88	510.88	509.44	519.88	504.75	515.06	524.50	521.62	508.81	506.56	513.38	537.44	524.19	521.56	503.00	475.31	468.12	465.31	454.88	448.50	440.88	440.19	435.62	431.00	427.12	421.50	420.50	416.31	413.25	407.81	403.50	402.38	404.44	404.00	410.38	419.44	417.94	421.19	440.56	543.19	575.81	585.62	611.75	609.81	582.81	559.31	599.56	627.88	567.75	527.44	505.69	519.56	523.56	575.81	574.00	578.56	629.62	593.69	503.25	498.00	485.00	482.38	502.81	503.94	495.94	412.12	404.88	411.81	409.56	410.81	412.62	413.81	415.12	416.56	417.56	418.94	423.75	434.19	468.44	546.44	449.38	435.75	438.69	439.12	444.81	433.44	430.31	454.31	496.69	460.88	441.00	441.38	458.50	461.44	447.25	445.38	441.56	440.00	436.75	437.25	437.50	432.69	431.81	431.44	430.12	427.88	426.00	425.06	423.19	422.06	419.12	416.31	406.81	399.25	392.31	407.25	421.38	420.75	422.88	422.19	441.88	436.56	431.19	434.94	441.75	473.31	494.44	495.94	484.44	478.75	493.94	500.75	501.81	500.06	499.62	480.25	480.00	480.31	483.31	506.31	518.81	497.50	517.50	514.00	497.19	492.12	494.50	496.88	501.38	510.81	514.56	518.00	507.19	494.75	491.44	493.75	501.50	507.69	508.94	507.31	506.50	508.06	506.62	503.81	501.25	501.88	499.44	515.94	610.62	665.00	627.38	571.50	540.94	555.00	608.56	691.62	674.38	653.75	635.31	625.81	703.94	687.12	636.12	724.38	779.00	781.38	779.81	770.75	774.25	781.81	793.69	791.19	774.81	736.31	707.12	749.19	656.00	618.50	610.81	620.56	628.56	629.00	628.12	642.56	705.19
504.25	516.06	529.69	537.19	528.81	524.62	534.25	545.38	558.00	561.88	552.00	537.31	529.12	539.88	545.94	542.81	535.94	519.12	504.12	514.56	529.12	535.81	538.94	542.62	545.19	551.00	551.88	554.88	545.56	531.75	522.81	527.62	524.25	517.75	514.00	512.12	513.44	513.69	529.19	545.94	562.88	565.12	557.12	545.81	546.38	574.44	569.25	558.88	565.31	553.38	524.62	502.31	499.00	494.56	496.19	494.00	501.56	531.81	510.25	507.94	504.56	494.88	493.44	495.88	497.00	491.56	475.19	462.56	454.75	448.25	439.62	433.75	433.44	432.44	427.19	424.12	420.56	417.69	408.56	407.50	404.31	400.44	397.56	398.88	401.06	408.31	427.00	422.12	428.31	464.69	520.38	521.62	566.56	610.94	613.75	592.56	569.88	573.88	571.94	577.00	522.81	498.25	513.62	520.75	525.38	535.44	516.56	514.62	500.81	500.62	474.62	494.75	470.94	452.69	466.12	481.81	423.12	401.56	403.38	406.19	408.06	410.50	412.38	413.50	415.50	418.31	424.69	428.38	428.94	446.50	453.62	459.94	436.25	447.00	488.62	495.62	438.50	427.12	417.62	422.94	441.62	441.94	439.56	466.44	468.88	454.44	450.25	431.44	448.31	452.50	454.62	453.44	440.56	433.38	430.31	428.56	428.31	427.62	425.38	422.56	422.56	420.31	417.38	412.81	392.88	397.12	402.19	414.50	422.25	429.25	425.94	425.75	423.88	430.19	445.62	423.31	440.19	458.38	461.94	471.88	490.06	496.00	499.31	503.25	508.31	520.00	510.25	520.12	511.69	515.06	541.75	524.88	505.19	520.81	518.06	500.06	492.44	489.62	493.25	496.88	501.06	509.38	507.31	502.75	496.94	492.25	485.06	500.19	504.12	503.12	503.44	505.94	505.62	504.62	500.56	498.69	497.19	493.56	515.06	613.25	661.88	588.69	573.88	532.06	562.75	682.00	728.69	675.88	693.75	682.56	713.62	687.81	725.44	666.19	673.50	759.25	784.44	781.94	780.88	782.12	788.25	793.62	797.81	799.06	760.06	660.88	678.06	632.88	604.06	594.94	615.56	674.38	623.50	612.50	635.69	759.38
502.00	513.69	528.81	528.94	519.19	518.81	527.88	536.69	550.44	556.81	546.38	536.19	526.50	537.75	541.75	533.06	524.50	515.88	501.94	516.62	529.00	530.69	530.25	530.62	533.62	538.12	547.06	551.88	544.50	533.19	518.69	518.38	516.69	515.19	511.44	508.75	507.12	513.94	517.56	529.12	546.81	559.12	539.94	541.62	526.00	542.94	555.50	536.25	551.50	552.06	515.31	485.81	487.31	489.94	492.81	489.00	491.50	503.50	501.06	510.19	501.38	492.75	488.00	493.12	487.31	481.00	467.94	461.44	455.69	448.06	437.69	432.62	429.25	427.69	422.69	421.81	419.00	415.25	409.56	405.00	404.75	398.94	397.62	397.06	400.06	403.38	410.44	412.69	444.50	507.06	488.06	488.31	536.12	580.38	548.62	561.25	569.75	532.00	557.50	556.69	528.44	511.56	540.38	527.44	517.94	515.69	509.31	504.25	486.56	464.19	471.50	466.50	460.50	443.62	432.44	419.69	429.06	400.31	421.31	403.69	405.31	410.31	412.00	413.94	415.81	418.56	424.31	428.44	429.81	426.38	427.50	429.56	431.31	467.69	527.19	499.31	483.69	448.94	432.06	419.88	428.25	441.31	438.12	458.94	467.88	471.62	460.06	417.62	421.06	443.88	452.25	454.56	448.31	440.88	435.44	430.62	426.94	426.38	425.81	424.25	422.38	421.88	418.75	414.00	396.19	387.69	398.50	437.81	439.62	440.56	441.69	437.06	437.94	445.25	447.62	449.12	450.12	470.88	468.00	485.00	499.25	507.81	501.88	504.81	509.50	523.12	531.12	532.69	540.25	544.50	537.38	534.56	533.00	544.44	519.12	501.31	493.88	487.69	489.31	490.81	497.62	512.88	503.31	497.44	491.06	492.25	495.00	500.44	500.56	503.00	505.19	501.19	499.69	500.25	499.38	498.38	496.50	489.75	502.06	520.69	539.50	524.69	516.19	522.94	613.50	713.19	705.56	686.38	670.25	651.12	679.75	704.38	739.50	729.31	768.81	785.19	782.25	784.00	785.50	792.12	792.88	796.81	804.12	784.50	720.81	652.75	621.62	606.62	597.12	587.75	602.25	651.81	616.44	603.25	621.88	645.25
499.88	510.62	517.38	515.44	510.12	515.12	521.12	525.12	539.62	550.31	540.69	527.44	522.19	535.12	537.62	532.81	519.75	503.31	501.88	522.00	526.88	524.06	521.69	522.88	524.44	532.38	542.00	552.69	546.62	532.88	518.81	510.19	510.31	511.94	509.56	505.94	504.94	513.31	514.88	519.81	531.06	534.19	533.44	543.44	531.81	521.44	521.94	514.19	524.94	518.00	484.62	480.12	481.88	484.31	483.69	485.06	488.12	488.44	491.44	497.81	496.25	490.94	496.62	505.31	483.31	467.75	463.12	455.62	448.38	446.38	444.94	435.88	426.88	422.69	419.25	416.50	417.62	418.56	411.19	408.00	401.25	395.81	400.06	397.00	397.44	391.69	397.62	423.44	446.56	515.12	468.94	470.31	505.38	526.38	527.88	529.00	530.81	521.75	538.88	520.12	535.94	530.88	583.94	544.00	534.38	496.75	497.81	469.62	459.00	453.75	451.88	450.44	446.38	433.75	426.00	403.94	417.06	433.06	446.25	405.62	404.00	409.75	413.38	414.56	417.19	418.88	420.81	421.25	422.25	423.88	427.94	430.88	433.81	462.69	478.88	479.38	515.31	513.25	489.25	434.56	434.62	440.56	437.31	438.19	433.44	446.25	474.56	456.94	423.62	417.44	447.06	451.31	455.06	450.25	453.50	447.69	436.75	428.88	424.50	423.00	423.50	421.31	418.94	413.12	393.62	384.69	384.06	403.06	421.81	425.69	428.88	437.44	447.31	447.38	438.25	445.06	460.19	471.75	474.56	487.50	498.44	508.69	509.31	521.38	519.06	516.19	519.88	529.62	533.75	537.94	543.56	538.50	552.38	564.44	533.06	508.19	503.19	498.19	494.81	494.62	497.44	491.19	490.62	489.88	487.38	488.81	494.38	497.94	501.19	500.62	498.81	497.19	494.12	491.25	493.56	495.44	493.38	492.75	501.81	504.44	508.62	505.25	508.00	518.12	538.88	640.50	648.25	656.25	667.06	592.06	586.69	746.88	759.69	753.25	753.12	756.38	776.25	785.69	786.62	794.50	797.50	797.94	741.12	686.19	682.12	686.56	619.75	598.94	588.69	581.19	591.44	607.12	605.62	594.75	603.62	611.88
495.44	500.94	499.69	500.12	505.81	510.69	513.19	515.81	529.69	544.56	538.44	522.31	516.69	530.94	529.69	519.00	510.75	496.19	509.75	530.38	528.31	519.00	513.38	514.25	521.44	539.31	547.81	550.12	542.94	529.62	516.69	509.44	508.88	512.12	505.94	503.62	505.31	508.56	510.06	515.38	515.81	519.88	522.75	530.44	524.31	523.75	495.81	487.38	493.25	485.62	475.94	476.31	476.44	485.38	480.62	484.25	478.94	481.69	483.06	475.50	475.12	481.44	495.50	500.56	466.94	451.00	437.31	448.00	444.12	461.56	451.25	435.62	426.81	420.06	417.31	415.00	412.19	411.69	410.25	406.06	398.94	394.25	389.00	388.31	392.50	402.56	412.12	428.38	449.19	446.56	444.69	453.06	470.44	482.75	487.19	505.00	503.69	512.06	523.25	513.19	515.62	516.19	598.44	531.31	509.94	494.50	482.44	469.75	451.81	455.38	459.62	454.81	447.81	446.75	440.44	420.88	408.12	459.12	497.44	408.38	403.88	409.31	413.12	414.62	415.81	418.81	420.38	420.75	420.44	423.06	427.38	427.94	441.94	436.81	443.38	489.69	502.06	515.69	509.12	457.56	455.81	441.94	436.06	433.75	430.19	449.62	486.75	470.12	453.94	454.50	473.12	468.69	470.56	465.81	478.00	471.12	457.31	441.38	429.06	424.38	422.50	421.50	418.81	417.62	403.12	395.94	403.50	397.12	410.38	418.94	423.31	437.25	447.12	445.75	440.50	438.81	440.00	444.88	430.06	465.56	495.00	485.56	491.06	516.69	529.50	505.69	520.94	530.00	541.56	544.38	542.75	535.44	534.69	546.50	534.62	531.06	546.00	524.88	503.44	498.56	492.12	488.81	489.88	486.56	491.06	495.94	499.00	501.00	498.38	494.31	490.88	490.19	488.06	488.62	491.19	492.12	497.38	506.00	497.25	500.88	495.75	495.50	501.19	513.50	516.06	530.06	548.31	558.12	558.81	555.44	564.88	691.06	761.00	699.50	621.25	622.75	656.00	701.69	711.69	722.69	782.38	809.75	773.00	670.12	631.56	619.69	601.50	587.94	581.81	575.50	585.00	592.38	593.94	587.00	598.25	610.00
490.25	485.94	486.88	491.81	497.81	503.81	505.62	511.38	526.62	541.19	531.44	518.25	511.38	524.31	523.38	508.75	499.31	495.38	513.12	533.94	530.81	516.50	507.56	508.81	515.12	535.38	544.12	551.19	544.88	532.44	518.44	516.12	514.31	504.38	501.56	503.44	503.56	502.94	505.56	509.44	510.62	511.00	515.06	508.38	504.75	503.56	483.88	474.12	479.75	488.31	489.94	483.88	493.88	477.69	475.31	474.94	483.19	489.00	475.81	472.38	467.50	473.81	475.69	470.69	459.38	451.88	438.56	434.00	431.81	455.81	473.19	458.69	449.12	422.56	415.88	413.12	409.19	406.06	408.56	404.81	396.12	393.25	386.06	396.75	428.38	426.56	413.19	434.19	436.44	427.69	426.75	429.94	445.12	452.06	461.88	487.12	491.75	525.50	511.19	497.44	506.00	541.19	568.94	541.19	509.56	483.19	478.06	460.06	445.31	458.38	462.50	462.69	453.31	437.38	445.56	428.19	422.62	440.38	473.12	424.06	407.19	411.00	412.44	414.12	416.00	418.50	419.69	419.19	424.06	435.31	435.81	426.62	439.50	442.44	439.06	463.38	499.81	520.50	524.00	511.62	491.56	450.06	440.38	433.69	433.62	455.00	486.56	487.88	455.00	478.38	486.31	481.25	475.50	467.31	493.25	487.56	477.00	461.31	443.31	424.88	431.06	422.81	418.06	415.12	411.50	408.94	406.94	406.44	411.50	427.50	440.88	445.81	442.25	443.94	447.50	451.44	442.31	426.50	421.06	434.06	457.56	419.06	426.19	502.75	496.69	479.56	482.81	530.19	537.62	547.94	553.06	558.31	553.56	547.56	532.94	546.06	579.69	560.44	503.88	496.25	495.19	491.69	486.00	493.56	500.06	499.69	498.50	498.00	486.06	482.38	488.56	485.00	486.12	488.44	489.31	489.38	497.19	498.56	489.88	487.50	486.31	489.38	496.81	501.75	506.88	511.88	524.81	537.38	537.44	546.81	563.50	604.94	652.75	638.25	609.69	637.31	665.31	652.25	664.31	667.75	747.25	709.56	765.06	706.31	621.56	599.25	588.00	579.31	573.75	570.38	577.31	582.50	582.25	578.56	598.50	610.88
483.44	476.88	478.44	483.94	492.00	494.25	500.00	513.06	526.06	539.25	529.00	516.56	512.00	521.50	512.50	501.19	491.19	500.25	515.69	532.25	528.56	515.19	505.38	507.75	511.94	524.69	534.88	546.62	545.75	535.06	523.38	518.25	515.00	513.00	498.12	500.00	514.69	503.94	507.12	507.25	504.62	504.75	507.88	511.25	503.75	489.56	484.94	490.56	487.94	491.56	481.62	496.75	496.06	475.94	474.69	471.19	477.81	486.88	492.50	475.62	480.75	477.81	461.19	457.38	454.88	447.81	440.31	437.50	432.56	439.25	448.31	455.94	459.31	428.44	414.25	416.50	412.81	409.38	412.12	400.56	395.00	399.69	389.69	407.38	444.69	403.56	386.44	413.06	425.00	417.75	412.31	420.38	424.69	437.25	449.44	441.81	469.94	491.31	493.38	498.56	503.50	510.62	532.12	509.25	519.88	490.25	473.31	481.50	459.12	466.62	466.50	470.88	463.38	434.06	419.75	432.81	440.44	443.31	441.88	452.81	408.25	411.00	412.62	414.25	415.31	417.19	418.31	418.50	427.38	439.75	430.69	421.88	435.88	438.88	429.12	415.38	419.12	461.56	498.56	481.62	505.12	499.44	476.00	435.81	435.44	428.25	423.75	423.25	452.69	493.38	497.88	493.31	488.94	469.44	472.00	477.12	468.06	450.38	433.50	422.69	440.00	424.69	419.94	418.00	417.12	424.56	419.00	409.38	436.06	443.19	444.62	446.06	441.31	433.00	408.88	444.44	436.12	437.00	435.75	432.62	397.88	352.19	355.00	420.75	455.38	459.50	474.12	502.06	488.94	503.19	517.94	561.00	566.94	563.50	547.38	553.56	556.19	517.81	493.19	493.00	491.94	493.38	496.75	501.19	499.56	498.62	492.12	496.12	485.00	484.75	483.94	482.44	485.62	486.69	486.44	487.25	486.50	482.81	493.25	482.88	482.25	484.62	492.06	497.12	501.06	505.31	517.75	522.81	543.25	558.44	606.25	630.50	577.12	592.62	641.94	761.69	759.06	707.69	721.81	727.94	804.12	641.00	652.56	608.31	593.81	587.62	578.81	570.38	566.44	563.25	568.00	567.88	568.38	570.88	572.94	585.12
473.69	471.62	477.12	480.75	487.81	490.25	500.19	512.56	524.44	534.25	528.62	514.88	512.75	520.38	508.19	496.06	488.62	504.44	523.62	533.38	525.50	514.06	506.75	511.56	513.44	524.44	533.69	546.19	547.62	534.12	523.06	519.56	516.88	510.12	499.00	501.38	511.19	503.69	505.62	505.50	504.88	505.69	502.38	498.50	494.62	485.81	489.44	487.75	479.25	483.38	488.69	488.31	485.19	475.62	474.00	476.81	484.25	472.75	482.31	486.19	494.69	477.94	459.25	455.50	452.25	447.38	444.38	454.38	442.12	439.25	426.81	436.25	426.31	416.31	427.81	423.81	419.69	409.06	407.06	399.62	416.19	423.12	407.00	397.31	385.88	376.81	364.25	384.44	398.31	401.94	404.75	414.38	414.50	425.75	431.75	440.88	451.19	464.25	470.62	475.69	474.75	504.56	520.38	467.81	508.50	509.50	476.00	479.50	495.00	480.19	481.94	468.38	451.81	436.25	410.12	426.50	412.69	440.19	421.06	419.06	407.12	409.12	410.88	412.62	414.50	418.19	417.88	420.38	433.31	436.44	427.56	420.44	432.00	440.44	433.56	416.56	407.25	410.06	429.62	431.94	483.38	500.94	494.00	434.88	456.62	429.44	429.12	419.81	419.62	480.81	504.44	505.69	498.12	467.69	450.56	457.00	449.00	445.62	442.12	435.31	437.94	423.81	420.62	423.25	424.62	426.06	420.81	417.88	432.88	437.19	440.12	438.75	441.00	425.06	405.75	426.25	411.19	438.56	444.00	401.06	364.25	348.88	352.00	378.00	440.25	457.88	466.56	471.56	469.25	466.19	471.12	518.25	540.12	544.38	531.06	552.12	514.31	488.12	490.75	498.25	490.69	493.75	500.88	499.50	497.94	492.44	471.62	488.62	499.56	513.06	493.75	480.19	486.38	486.31	484.19	485.00	483.19	482.00	485.81	479.12	480.56	486.56	495.19	497.44	502.31	506.50	512.69	514.81	540.50	558.31	612.19	570.94	574.19	596.31	620.19	727.56	655.50	709.69	745.94	701.50	710.62	620.38	608.75	588.56	578.88	577.69	572.12	564.00	560.06	558.56	561.00	559.31	562.00	569.56	570.12	583.25
466.25	472.69	476.38	479.94	485.31	489.69	501.31	511.00	520.69	527.31	524.00	507.62	512.69	516.62	504.62	491.56	488.25	511.81	526.81	534.44	526.06	514.75	505.19	507.19	511.06	519.00	525.62	537.56	546.06	531.69	516.19	511.81	513.19	512.19	509.31	532.00	506.75	501.31	501.38	508.06	511.12	508.12	496.62	492.25	487.62	491.25	499.62	485.44	479.50	465.56	471.62	478.62	487.94	477.12	472.69	470.62	471.50	457.12	451.38	484.00	491.12	479.75	463.88	455.31	451.56	451.62	454.94	437.12	424.75	417.81	407.12	409.75	419.81	426.75	433.62	394.75	397.62	398.81	396.69	401.12	409.69	409.81	414.25	392.50	369.94	356.31	359.19	336.81	336.31	345.81	363.62	401.00	410.31	412.00	418.50	430.81	441.75	452.75	475.56	452.94	510.75	502.81	500.12	481.56	469.00	510.31	511.44	481.25	483.62	488.31	494.19	466.00	455.94	439.31	405.75	419.75	419.06	433.12	412.81	399.81	409.00	407.81	410.75	413.12	412.94	418.25	417.44	418.38	432.56	434.56	422.25	420.31	434.56	441.38	442.31	428.06	413.62	405.88	397.25	396.56	445.69	507.94	512.56	446.31	431.75	437.81	497.56	481.81	430.00	433.94	497.94	491.25	462.81	449.12	472.12	503.62	487.38	460.94	440.56	436.81	424.25	422.25	425.69	437.88	434.88	433.94	432.69	431.19	433.06	420.81	418.81	423.31	437.06	438.75	423.56	427.81	429.38	426.31	436.94	431.94	415.31	395.50	400.62	395.88	426.38	439.50	455.12	470.75	474.75	469.88	446.31	440.25	451.75	439.44	440.69	448.44	445.94	455.44	500.75	487.06	492.81	498.06	495.12	491.69	489.25	495.81	498.81	504.38	509.94	615.69	526.19	484.12	485.38	481.44	482.38	480.94	481.25	483.25	481.69	477.38	481.50	490.88	495.44	492.06	497.88	503.62	505.44	507.69	517.38	578.12	597.38	558.31	563.19	593.75	641.75	670.94	606.94	669.94	743.00	700.88	603.75	604.06	592.12	574.62	566.12	565.75	562.06	555.19	554.50	554.50	554.12	556.81	564.75	577.38	580.19	588.38
462.25	468.75	475.62	477.88	482.88	489.62	499.38	512.31	519.94	523.69	522.12	503.94	507.62	514.94	504.62	489.94	488.19	499.56	512.00	527.19	528.19	521.44	504.38	505.81	511.69	519.62	521.62	525.94	530.75	524.31	514.06	504.94	504.12	510.88	520.19	511.88	504.69	502.69	501.62	505.38	504.44	499.19	493.44	487.06	482.31	486.69	492.38	487.31	477.38	463.12	462.69	468.31	476.50	475.69	466.94	464.88	463.88	465.50	461.88	466.31	478.75	475.19	468.62	455.12	447.56	433.75	426.75	414.88	406.38	398.94	382.69	389.81	406.56	420.00	416.19	373.75	383.00	370.88	376.50	376.25	386.75	382.19	376.56	375.19	359.50	345.00	337.25	332.88	330.12	331.38	350.88	354.06	379.50	394.19	397.25	413.12	415.81	436.75	458.06	465.62	481.00	494.44	462.44	452.31	427.19	458.88	477.81	456.94	475.31	482.44	483.81	470.88	450.06	460.69	417.69	406.12	428.81	453.69	429.00	407.06	404.88	406.75	411.25	411.88	413.69	416.19	412.88	418.75	427.12	431.00	419.44	422.62	426.19	435.69	440.88	440.88	433.81	415.19	402.31	396.69	398.75	436.62	472.75	468.88	456.50	436.19	464.56	501.81	495.94	484.12	479.94	466.38	452.38	437.88	428.31	443.38	476.88	426.19	420.00	417.12	416.94	421.12	434.38	447.12	446.56	444.56	443.44	438.56	424.62	409.94	404.31	412.25	431.38	437.44	440.88	440.56	443.19	440.94	441.56	447.69	449.50	453.75	458.88	461.00	463.44	464.38	466.50	466.88	470.25	476.56	479.62	466.81	472.94	436.38	419.31	428.44	459.38	477.50	482.56	489.19	492.88	496.62	494.88	486.38	479.00	502.75	495.06	517.62	470.56	502.62	484.38	485.19	479.25	480.12	481.44	478.31	481.56	479.56	474.62	476.50	482.81	481.75	489.50	489.06	495.69	499.00	501.25	503.38	515.56	570.38	566.94	553.94	557.00	566.94	618.25	590.12	596.12	672.94	716.19	620.56	588.69	588.44	574.25	562.25	555.75	554.25	549.69	547.44	548.94	552.44	555.94	567.00	580.56	586.31	593.00	605.50
463.81	473.00	481.56	484.19	481.44	484.44	494.62	509.00	516.25	515.06	504.38	496.00	503.88	514.31	507.56	492.69	483.62	494.25	507.44	516.06	531.94	526.44	504.75	495.88	509.00	519.50	524.19	528.81	520.00	512.31	504.00	495.62	490.75	500.94	510.69	501.44	503.62	503.12	498.06	498.69	496.25	495.44	489.44	476.69	473.38	475.12	476.06	475.31	478.56	469.94	465.50	463.56	468.19	466.81	473.31	459.88	449.81	452.06	452.69	451.88	463.69	470.81	467.94	459.19	450.81	431.69	411.50	396.06	387.62	383.44	380.81	393.50	381.94	380.38	388.12	373.31	373.56	373.50	367.38	377.38	364.19	368.38	365.69	360.44	351.19	339.25	332.81	330.25	327.56	331.19	339.00	326.25	332.81	393.69	389.44	406.75	411.50	410.62	416.94	433.31	445.50	465.44	479.06	445.25	442.38	472.31	452.62	437.50	446.19	467.25	453.75	468.69	472.81	458.75	427.56	388.25	417.50	443.12	414.69	412.00	400.75	404.50	407.62	409.00	410.88	414.75	416.75	421.50	426.69	421.75	417.19	421.38	422.38	423.00	431.44	445.38	441.81	427.06	412.69	403.56	395.88	393.06	394.31	441.25	508.06	452.25	471.81	494.56	507.88	514.00	509.50	463.31	439.81	425.50	409.56	425.75	427.75	423.56	421.44	420.81	415.31	418.31	424.38	446.50	445.31	446.00	457.06	445.19	435.12	422.69	417.50	403.69	407.81	414.31	433.31	441.44	449.06	451.00	451.44	451.06	448.25	445.19	446.81	449.12	453.12	460.75	468.00	474.50	475.31	478.81	481.50	482.12	480.44	478.00	469.38	466.69	473.25	479.19	488.88	491.12	495.88	498.62	498.94	475.19	434.50	420.94	438.56	457.56	467.31	471.44	478.44	478.75	479.38	481.62	480.25	479.31	476.19	472.00	473.44	472.75	482.44	479.12	485.44	489.06	493.88	497.81	500.81	507.25	514.62	524.75	530.94	543.81	561.19	574.88	572.19	579.44	588.31	644.75	656.94	583.00	576.38	577.06	561.06	549.56	543.31	544.00	545.44	552.44	560.38	563.69	569.75	579.44	591.19	600.75	613.75	626.44
466.62	475.25	476.44	470.06	472.00	484.56	494.44	510.69	517.81	512.25	498.81	491.19	496.00	509.62	506.94	493.44	482.00	491.50	499.06	511.81	520.44	509.44	494.81	491.31	504.25	516.38	516.44	519.06	513.19	504.94	495.25	486.88	479.31	490.25	500.12	498.25	487.94	496.31	498.69	497.38	500.56	494.38	491.00	481.88	472.44	472.38	476.31	474.31	476.31	470.44	461.31	455.00	452.38	455.81	462.81	457.69	442.81	443.38	448.56	454.06	464.25	471.81	467.62	452.69	459.88	425.69	406.81	388.88	384.50	378.81	377.62	375.69	370.94	373.88	391.44	384.12	383.19	370.56	370.38	392.81	375.75	379.88	382.88	357.19	345.19	337.94	335.31	332.19	326.44	331.75	322.00	323.69	325.31	368.06	378.62	396.56	401.31	401.06	407.00	416.12	424.69	424.38	420.25	455.00	437.94	437.25	446.62	423.31	449.62	466.19	428.88	451.88	422.50	417.50	421.12	397.19	420.69	434.25	394.56	409.25	399.94	401.88	406.81	407.44	407.56	422.00	421.50	422.06	419.25	416.06	415.50	419.25	422.00	416.81	424.12	433.56	437.31	439.31	421.31	413.25	400.56	395.62	399.25	409.75	432.62	420.81	422.88	465.44	502.88	511.62	505.56	456.06	447.25	434.94	412.62	417.44	418.75	421.75	412.94	412.38	412.62	411.06	412.50	452.38	455.25	452.56	463.94	462.19	457.19	448.94	433.12	421.81	415.06	405.69	411.06	450.56	459.31	462.50	462.06	456.00	460.62	460.00	457.06	444.62	440.56	440.12	454.56	468.56	476.31	478.62	479.62	477.06	477.06	476.69	470.56	476.31	484.06	493.19	494.94	495.12	497.12	498.62	498.56	473.56	460.81	457.81	459.75	464.62	469.56	476.25	477.94	478.12	477.56	479.69	478.69	481.62	485.19	484.38	487.12	495.94	494.56	502.38	486.31	477.62	488.81	494.62	500.56	507.00	511.50	517.38	522.75	539.19	562.12	566.69	569.00	574.62	585.50	575.25	574.25	567.50	577.69	564.19	549.69	542.38	540.94	549.50	562.19	569.31	578.00	575.25	583.38	593.50	604.19	609.88	607.62	612.75
465.19	466.12	460.12	462.75	473.19	479.31	493.00	504.56	518.94	509.88	495.88	487.69	494.62	510.81	514.12	500.50	486.25	483.06	493.56	509.56	516.88	504.12	489.56	490.81	501.69	511.38	507.88	511.38	507.88	500.75	492.12	482.94	481.69	494.94	498.75	487.62	485.50	493.06	499.44	502.12	500.88	497.00	497.81	482.50	478.62	482.25	476.94	469.56	470.31	473.06	468.56	470.69	457.50	445.69	453.31	457.19	442.75	440.69	447.62	453.00	455.00	460.88	461.62	445.75	440.06	422.88	408.88	387.12	378.56	373.94	381.50	384.25	381.25	390.12	374.81	379.19	380.06	379.81	388.75	381.69	373.44	377.25	363.88	346.62	340.12	335.81	336.19	336.88	332.38	330.44	324.88	320.38	317.94	328.81	372.25	390.38	391.75	396.00	396.94	413.75	404.94	397.56	417.38	437.94	423.88	403.31	426.81	415.12	439.56	449.06	423.06	434.81	434.81	406.44	426.38	450.12	441.31	443.56	417.31	399.44	398.94	400.31	403.25	405.19	405.00	408.19	412.62	420.81	418.19	412.81	413.56	417.44	417.44	411.88	420.19	418.50	428.19	434.75	429.44	423.44	407.56	402.81	413.62	418.44	418.94	420.69	417.56	431.38	434.75	489.69	486.38	441.19	424.44	412.31	411.25	416.06	433.06	443.88	420.50	408.88	408.19	407.31	408.94	449.56	462.00	471.31	471.75	478.81	474.94	469.81	462.12	448.19	433.81	422.50	417.88	426.38	449.62	451.75	436.56	430.75	453.19	466.12	467.31	464.62	458.94	432.12	438.19	444.81	461.00	468.25	465.69	468.44	475.12	485.25	487.38	491.50	496.19	495.69	494.25	495.44	497.62	495.56	480.50	467.94	467.62	459.56	460.56	470.06	486.81	488.31	492.44	494.12	479.25	479.19	485.88	493.88	497.94	499.50	501.69	507.69	498.75	504.06	491.38	486.19	487.50	491.38	497.12	501.38	503.38	508.50	518.56	537.19	559.88	562.38	558.75	570.75	575.31	566.00	558.81	557.56	562.44	540.94	536.56	536.12	547.06	574.56	581.38	577.38	582.69	586.62	597.75	607.62	609.19	600.06	588.12	611.75
456.25	452.56	450.81	457.19	468.62	477.25	492.81	512.44	521.69	501.38	491.56	486.06	498.31	512.06	517.81	503.94	489.44	478.94	489.62	508.31	510.06	495.06	484.94	490.69	498.12	504.56	505.12	509.06	507.81	499.12	492.56	486.00	491.62	496.12	493.50	484.06	491.62	485.00	488.88	496.31	502.06	501.19	491.44	480.06	478.56	478.56	474.62	463.44	461.62	473.12	475.31	473.06	458.88	447.50	449.50	452.56	443.31	438.94	441.50	445.31	450.19	454.62	457.12	452.56	435.31	424.19	412.00	394.88	381.50	382.12	403.75	407.31	425.19	395.25	398.25	413.31	406.56	396.69	394.44	399.19	388.06	377.69	356.62	343.12	337.62	333.06	329.31	329.12	323.94	327.94	329.75	315.19	315.44	319.62	343.88	378.06	391.38	389.94	390.94	389.75	389.12	386.75	392.56	396.06	396.81	392.00	408.94	423.38	433.81	429.62	433.62	420.25	417.56	422.69	416.81	453.25	428.69	454.75	437.94	414.62	395.81	396.56	402.38	403.69	402.88	400.50	403.38	416.31	417.56	411.44	413.50	412.69	411.94	405.81	401.00	408.50	419.81	439.00	430.69	426.56	425.25	419.94	423.69	424.44	418.88	422.69	420.88	418.56	412.44	425.19	420.19	423.25	431.50	412.81	408.50	407.38	420.50	442.81	425.56	415.88	419.69	414.62	408.81	433.50	469.31	475.88	478.75	477.50	481.06	476.62	480.06	477.88	462.38	456.50	453.12	447.50	440.94	436.00	427.31	432.00	436.19	458.69	468.38	471.94	469.94	433.06	448.62	441.50	444.38	449.56	454.38	474.06	485.06	487.88	490.88	494.44	493.94	492.81	493.56	494.25	495.12	496.12	480.94	463.00	462.12	464.56	479.62	495.38	501.75	500.69	498.94	500.06	496.44	496.38	502.88	500.31	494.44	493.50	480.75	523.00	515.38	512.12	510.25	502.88	488.94	490.12	492.25	496.62	505.75	508.81	510.69	547.00	556.19	554.00	552.75	564.31	563.69	553.94	551.44	553.75	549.31	531.06	533.56	534.62	546.75	575.69	575.38	580.25	585.31	595.38	604.94	605.00	597.62	585.50	583.75	590.88
445.62	448.38	458.31	466.44	478.12	488.94	502.44	508.06	508.69	503.44	486.06	485.56	495.12	507.31	519.00	510.00	490.19	474.25	481.94	499.00	509.94	499.81	484.88	483.75	488.75	499.50	508.88	506.44	504.94	500.44	493.50	487.50	494.38	493.44	481.69	479.88	485.69	478.38	481.12	490.38	498.44	500.06	490.50	469.94	473.25	471.25	464.38	464.50	466.25	473.00	468.19	467.56	456.75	452.25	446.62	448.12	441.38	438.00	440.44	444.62	457.12	469.31	459.31	446.12	430.75	406.19	393.38	393.19	402.25	435.44	452.94	435.69	418.88	402.62	416.56	417.88	405.44	391.19	378.81	378.00	369.69	370.31	373.81	348.00	333.75	327.81	317.25	316.19	325.19	326.62	324.69	313.50	315.00	317.44	332.00	392.00	394.94	399.75	389.25	387.56	382.62	376.56	375.44	375.56	375.25	377.81	384.44	410.00	415.31	407.25	419.62	409.56	426.69	416.06	382.81	381.62	403.75	433.62	434.06	414.56	398.69	401.31	404.62	401.81	400.12	397.62	397.56	400.56	409.56	415.00	408.88	406.00	409.56	405.31	399.62	401.69	409.25	414.88	433.81	429.25	425.19	424.62	423.75	422.62	417.00	421.81	419.81	421.06	421.62	414.94	409.19	407.81	411.69	412.31	412.81	432.25	417.19	405.75	420.12	456.31	478.56	458.25	437.62	436.88	481.06	484.94	481.69	471.19	487.69	491.06	490.56	489.94	478.19	483.69	483.81	476.62	472.44	461.69	450.94	452.62	456.19	464.56	475.00	478.00	468.75	442.62	458.56	440.62	440.19	450.81	467.94	473.25	470.94	485.62	490.69	490.50	489.69	490.44	491.25	490.25	492.31	489.50	480.69	479.81	485.56	493.25	496.25	497.56	499.44	500.31	500.31	495.69	498.81	505.62	501.06	525.44	484.25	471.44	495.12	634.31	532.94	505.50	508.25	500.25	504.69	511.38	514.75	501.50	509.06	517.38	539.50	542.56	552.06	553.06	547.75	555.00	554.00	543.25	542.50	559.69	539.38	530.69	534.00	549.19	572.88	577.62	580.56	583.12	593.38	599.50	597.50	588.94	580.25	580.19	579.06	582.81
441.12	452.75	462.75	466.88	475.88	489.81	509.62	502.31	502.75	494.50	483.12	481.50	489.94	502.69	513.94	502.81	489.88	475.50	470.94	485.81	505.69	497.31	485.94	478.62	486.12	501.06	511.75	503.38	498.31	497.88	494.81	489.06	486.00	487.62	473.12	473.12	479.12	473.00	477.81	491.88	499.81	495.31	481.44	468.56	475.56	471.94	458.44	461.25	463.75	468.44	467.00	469.00	460.19	452.62	443.25	440.06	446.31	440.12	444.88	449.50	464.12	470.38	459.50	448.81	421.12	397.00	384.44	408.69	448.62	445.06	447.00	443.88	418.94	403.44	405.94	393.25	402.19	396.62	367.94	357.06	360.31	367.88	374.12	349.75	330.19	321.06	313.38	325.19	328.94	325.00	315.94	313.69	317.44	317.75	333.06	387.88	408.88	411.31	393.94	389.06	379.56	375.00	373.12	370.56	375.00	372.38	377.06	397.31	400.81	391.62	405.56	398.25	405.19	422.94	389.69	373.62	390.19	412.06	432.12	414.06	398.88	400.88	404.31	401.31	399.06	398.50	397.19	396.12	409.69	408.19	407.56	404.00	405.25	403.81	392.31	393.25	398.00	406.44	419.19	419.31	419.25	421.25	421.69	422.19	417.12	420.56	420.00	421.06	421.25	417.69	410.12	407.25	413.75	409.88	446.19	466.81	463.62	424.06	422.12	479.56	509.00	498.50	467.19	446.50	487.38	499.56	490.00	486.38	490.31	497.31	503.00	503.19	496.69	492.94	492.56	497.69	494.88	486.38	483.56	480.31	475.75	477.62	482.19	477.62	473.50	467.00	462.94	457.19	450.81	475.00	494.06	490.44	480.88	473.44	481.06	486.25	486.44	488.38	490.19	487.69	485.88	482.00	481.94	488.12	490.56	492.81	494.38	497.06	499.69	497.19	497.62	501.69	497.56	493.75	490.12	496.56	460.06	435.31	448.81	573.06	511.81	481.12	517.56	509.94	517.75	512.94	501.81	505.81	514.19	524.12	552.12	541.12	549.25	551.38	546.12	544.50	543.44	535.12	547.50	555.69	526.75	531.81	549.06	560.50	573.25	576.06	579.12	588.25	593.12	591.25	582.75	578.12	576.12	572.81	573.50	581.56
434.38	448.31	457.69	456.94	468.69	480.62	494.94	495.38	500.12	486.62	479.75	478.31	486.00	504.44	513.69	502.19	492.31	478.25	472.25	472.94	482.88	486.62	481.19	476.44	488.50	499.69	507.25	501.25	494.00	491.50	498.88	496.50	478.56	471.50	468.06	472.81	475.25	469.31	470.69	484.56	497.50	478.94	464.88	470.06	477.06	470.94	465.00	461.19	457.75	464.50	467.69	464.12	465.31	457.81	444.00	442.00	448.81	444.44	447.25	454.81	464.00	465.75	455.44	445.62	410.56	383.19	394.12	438.12	447.38	439.25	444.56	444.50	414.06	412.00	388.25	383.44	362.88	363.25	374.19	349.31	356.00	366.81	366.69	361.50	339.06	327.00	328.94	330.25	326.88	313.38	311.75	322.12	314.06	317.19	320.19	356.44	387.62	397.81	404.38	391.56	376.88	368.25	364.88	370.69	373.69	365.75	366.25	380.56	395.62	379.44	380.62	393.75	387.81	384.56	379.81	375.44	375.50	392.56	412.38	420.75	420.50	411.06	404.44	402.50	401.94	396.06	401.94	405.19	407.44	406.81	404.81	404.81	402.81	400.00	391.56	386.56	392.62	399.62	405.38	410.75	410.19	417.69	416.88	418.50	417.00	420.81	417.50	420.25	422.25	418.50	409.62	409.31	408.44	406.19	415.50	432.31	472.88	463.31	442.75	486.75	484.38	484.88	503.38	495.94	494.50	491.56	482.62	500.38	499.88	505.75	508.06	506.38	512.44	512.06	503.94	498.19	505.38	511.94	514.31	510.50	503.31	507.25	505.62	490.88	478.62	492.06	493.94	485.50	475.25	485.25	503.44	498.00	494.50	470.38	460.44	470.19	475.94	481.31	479.81	478.25	473.94	469.19	474.81	481.19	480.75	480.00	480.75	480.94	482.12	481.56	486.19	483.31	466.38	460.25	451.25	464.56	468.75	443.56	448.25	461.56	470.38	465.81	497.81	524.00	517.75	504.25	499.94	503.44	502.50	533.00	544.12	537.88	537.56	545.88	543.44	532.75	527.31	527.56	545.19	530.19	538.19	554.56	560.19	569.38	572.69	578.69	586.12	587.75	581.25	575.25	572.81	570.56	569.44	574.44	583.75	614.56
432.44	441.25	442.56	450.12	466.19	478.50	478.25	477.06	483.38	478.25	474.12	480.56	490.25	497.88	504.50	505.19	500.69	488.00	479.50	468.00	472.44	477.94	477.69	475.25	483.56	491.25	498.44	497.12	497.19	488.12	494.50	504.12	488.94	468.75	466.62	476.12	470.81	470.25	471.12	473.31	482.56	457.75	455.88	463.25	475.00	473.06	463.19	463.31	461.12	462.75	465.06	461.12	459.50	460.19	448.75	444.00	446.19	443.94	443.31	454.31	463.69	463.50	445.06	435.38	403.69	377.75	393.06	458.69	457.25	446.94	449.12	435.19	434.81	401.12	375.88	365.94	361.06	378.19	390.44	369.06	341.50	357.19	345.69	370.94	353.25	331.88	326.69	321.44	312.19	315.06	319.19	327.81	329.19	321.06	323.94	326.25	361.56	374.88	392.56	375.06	371.88	361.56	344.19	360.88	364.62	364.75	359.50	373.62	381.50	387.31	389.94	398.75	397.75	379.62	377.12	385.62	385.88	388.62	395.12	420.81	416.44	410.00	404.50	403.44	399.62	392.94	396.69	400.88	403.75	403.50	405.50	404.62	399.62	395.88	391.06	384.75	389.75	399.00	406.44	414.69	411.62	412.19	413.25	412.81	414.88	417.75	416.62	414.88	422.12	416.88	409.44	412.31	411.75	403.88	402.50	407.00	456.56	446.38	439.44	476.88	464.75	460.88	491.62	511.50	508.06	501.06	489.25	484.56	502.25	508.50	508.12	514.19	512.81	515.62	506.75	504.69	514.38	514.69	512.06	526.19	532.00	527.19	527.81	530.75	519.50	524.62	517.38	509.25	505.88	502.31	509.69	509.31	500.62	483.06	476.06	471.38	473.12	470.12	473.06	473.38	469.31	467.19	468.00	466.12	468.50	465.25	469.19	472.50	472.69	471.94	471.25	472.50	493.56	486.62	480.56	480.81	487.88	487.06	494.62	481.94	471.69	475.12	538.62	511.44	504.94	518.25	485.12	499.25	494.56	511.31	533.25	514.88	520.94	523.06	522.56	524.81	521.00	538.19	555.62	551.50	553.19	560.75	567.06	571.00	575.00	581.00	579.62	574.56	567.25	570.44	574.06	578.81	592.56	609.25	621.25	627.75
432.38	430.88	441.50	455.69	472.12	478.00	472.12	470.75	467.88	470.69	482.19	490.50	500.00	498.12	502.00	495.25	491.38	498.56	485.25	473.62	464.75	472.00	474.19	474.50	475.06	483.38	489.44	488.62	492.38	483.62	488.94	493.44	486.06	479.25	465.44	474.31	468.00	468.00	467.50	463.00	456.62	448.81	451.25	460.00	474.12	474.62	461.06	462.19	465.50	466.06	463.06	460.12	454.94	454.00	445.56	440.00	442.12	450.88	447.31	445.31	458.06	455.69	446.81	423.31	402.50	381.44	387.50	450.56	447.62	443.62	442.88	434.06	409.94	408.38	381.69	382.00	361.81	365.81	374.56	343.81	339.12	346.12	333.25	367.81	353.31	339.94	320.69	307.38	312.12	315.62	323.25	335.06	329.88	327.81	337.75	346.19	362.31	364.56	362.00	357.88	360.69	359.06	349.50	340.75	357.06	367.06	362.12	373.50	379.69	389.38	378.81	396.12	408.56	400.50	381.62	407.19	425.69	392.31	397.75	394.50	396.69	399.62	404.81	405.94	401.00	385.25	392.12	398.50	399.81	402.62	401.69	403.81	397.19	394.25	391.50	381.50	384.62	391.44	404.62	414.44	415.75	414.50	410.50	414.62	414.44	415.62	415.56	414.38	415.69	414.12	406.88	411.06	408.62	403.50	403.75	402.44	411.88	401.75	417.06	436.06	456.94	465.25	477.38	508.12	509.56	510.75	502.06	498.31	497.69	503.31	517.50	520.56	514.88	514.19	513.12	510.50	509.62	516.31	517.12	533.31	538.75	530.00	525.62	539.12	552.50	549.56	543.38	539.19	527.31	523.44	508.44	496.31	489.62	484.50	477.62	472.19	477.44	478.44	485.50	485.88	485.62	487.00	487.69	487.88	487.38	488.38	492.94	490.62	485.62	485.94	480.06	477.12	481.25	542.50	527.50	538.31	532.69	521.38	511.19	492.06	491.50	518.19	612.19	524.94	495.69	495.81	505.94	497.44	496.81	506.62	526.38	509.44	510.75	514.06	526.88	535.06	541.38	547.88	550.94	554.25	564.31	565.12	566.44	571.31	573.75	571.06	570.38	571.19	574.69	579.31	591.19	605.81	617.50	623.06	624.00	623.56
440.31	431.06	438.50	451.44	467.50	471.56	463.44	459.62	457.94	471.75	478.31	490.62	500.81	487.38	490.81	479.50	474.25	479.38	484.81	481.12	468.50	465.44	467.62	472.38	470.25	474.12	479.12	480.50	487.50	479.25	480.19	477.25	468.56	470.12	466.06	473.81	461.25	464.44	464.12	463.94	450.00	441.00	442.00	454.56	473.94	470.12	455.75	464.00	470.25	467.69	457.69	459.25	457.50	450.00	443.38	437.88	437.75	448.81	456.31	443.25	456.44	457.25	444.31	417.50	399.00	375.88	366.12	424.44	425.19	438.44	437.56	423.81	420.00	419.25	408.75	375.44	363.56	365.12	344.44	337.25	373.50	338.00	331.69	354.50	356.19	336.12	318.88	316.88	310.69	315.50	331.44	337.44	329.62	321.94	339.06	349.94	353.88	350.94	362.88	359.88	358.12	354.38	352.44	342.50	356.12	360.62	359.31	368.38	404.38	398.62	393.19	400.88	392.31	394.38	389.38	390.94	406.81	391.75	408.06	399.44	398.19	415.00	407.19	417.56	417.69	397.94	388.69	394.88	397.50	399.56	400.69	399.44	393.81	392.69	386.75	383.56	380.00	389.69	398.62	407.94	411.56	410.12	412.00	415.81	413.50	411.62	415.75	412.25	413.12	409.81	406.88	410.38	405.00	402.50	401.75	401.19	413.69	399.88	402.81	392.19	465.38	494.62	499.00	504.31	502.69	504.88	502.06	511.31	512.19	506.94	514.31	516.38	508.69	504.38	510.81	504.12	503.69	503.62	518.75	533.44	534.44	533.00	526.50	540.62	551.00	563.12	571.88	567.12	557.56	538.75	511.31	498.56	494.38	489.50	479.56	482.31	484.38	483.69	480.56	478.81	476.81	482.56	488.62	495.50	497.12	501.19	502.19	500.50	498.88	498.00	492.31	473.44	467.75	553.06	596.75	610.94	550.00	497.62	496.25	475.94	508.38	547.94	592.12	531.19	514.56	513.38	508.69	503.00	501.56	502.06	513.12	505.81	523.12	539.75	545.12	548.12	552.06	555.56	558.69	561.50	561.44	561.44	565.31	565.69	563.75	569.25	575.81	588.06	595.44	605.56	612.94	617.69	619.62	622.50	625.19	627.12
444.50	429.31	436.56	451.12	468.88	469.19	454.38	448.75	459.12	478.56	478.94	484.62	484.31	475.69	477.31	471.56	463.50	469.25	481.25	486.25	474.44	462.44	460.31	467.88	474.88	465.94	469.75	478.00	476.88	468.94	472.25	468.81	460.94	462.69	468.12	470.50	460.94	461.44	456.62	465.38	467.75	457.62	447.88	460.12	471.31	466.88	471.12	475.69	466.44	469.38	462.62	457.81	456.06	451.00	444.75	440.12	439.81	445.19	454.12	444.44	454.56	454.00	439.31	411.50	384.00	367.00	363.62	424.75	419.81	419.56	422.25	400.50	398.44	375.25	401.62	372.81	369.50	349.06	336.75	335.00	340.25	349.69	366.00	362.81	337.75	330.12	341.94	323.56	324.50	321.44	330.38	336.31	333.19	320.19	329.44	346.25	351.38	352.50	353.19	356.38	355.56	355.56	354.94	351.69	357.00	360.12	361.06	355.00	359.69	377.81	412.94	390.19	382.25	381.69	390.44	390.75	391.19	394.06	405.56	392.75	396.50	399.88	398.56	424.75	431.25	426.50	415.31	392.25	397.81	395.94	398.06	396.00	392.19	385.62	378.94	377.31	374.25	394.38	392.81	396.00	400.69	413.25	417.69	415.44	415.19	413.38	412.25	409.81	411.00	409.12	408.31	405.31	408.81	409.25	401.75	398.31	394.38	398.69	391.56	386.56	429.06	440.12	466.00	498.31	510.19	503.62	494.94	510.00	513.81	532.06	540.31	527.31	517.50	527.56	523.12	511.62	503.19	508.25	508.19	529.00	529.75	525.81	526.25	539.69	547.50	566.62	580.44	578.50	572.62	561.69	523.06	506.75	496.06	488.19	483.31	487.50	488.12	485.69	494.19	498.44	502.81	502.50	501.56	498.44	496.75	499.50	507.12	502.94	510.19	499.81	479.19	469.38	470.81	490.69	491.31	506.25	491.00	482.50	481.94	477.44	487.62	578.25	536.19	496.94	498.88	507.44	500.25	506.56	511.12	510.56	508.19	524.88	541.19	542.75	544.44	547.19	549.50	551.62	555.25	555.38	556.81	559.38	558.38	560.50	571.31	585.69	597.50	605.44	611.62	618.62	622.00	624.19	623.50	625.88	633.44	642.19
441.56	427.12	433.81	442.94	455.62	459.81	450.94	449.00	465.56	478.50	476.62	486.31	475.62	466.94	475.81	467.50	457.44	465.06	480.44	487.00	477.06	468.75	459.81	465.12	474.50	469.06	463.62	468.38	465.00	463.94	464.00	459.44	459.31	470.50	468.56	467.12	457.94	454.06	459.06	463.94	475.00	477.19	469.06	470.38	465.75	455.56	466.06	468.81	468.62	470.19	461.56	457.31	452.56	451.44	450.06	442.25	440.44	442.25	445.12	434.19	437.00	444.88	433.75	406.06	381.81	367.50	359.88	425.19	419.31	408.81	402.56	388.75	376.44	363.81	370.81	371.75	405.69	374.69	348.44	337.56	335.12	369.75	349.69	351.31	346.56	334.75	355.06	334.62	322.75	327.69	332.38	337.00	335.62	319.69	317.00	328.44	343.44	350.12	349.94	354.19	356.56	357.94	359.44	355.38	355.44	359.00	363.06	353.56	346.31	350.31	402.06	389.31	382.88	386.12	397.44	393.31	389.25	396.88	397.38	387.31	388.19	387.31	400.88	409.00	410.19	430.62	420.25	404.81	393.62	392.81	396.25	394.88	392.44	385.31	374.62	370.31	369.31	381.62	390.69	402.88	401.00	408.19	414.12	415.19	415.75	411.62	410.69	409.75	407.44	408.00	407.50	407.75	412.50	409.88	408.94	409.94	402.56	396.56	391.44	390.12	402.62	410.12	398.44	477.50	497.62	511.38	507.12	493.56	502.56	524.44	527.50	540.50	533.38	530.12	522.75	508.06	507.88	500.56	492.31	501.75	508.50	520.81	528.75	545.69	550.69	565.06	577.19	581.50	579.19	573.25	563.06	523.50	498.19	487.19	492.44	498.12	500.12	503.06	508.56	511.38	514.00	516.69	516.50	516.75	516.19	511.00	515.88	523.12	513.62	491.19	481.50	474.50	471.88	475.25	482.06	478.75	480.44	493.38	492.75	481.94	481.50	487.31	488.06	495.12	504.12	511.44	511.25	519.38	523.50	524.88	521.19	518.75	532.44	537.75	540.19	545.25	551.62	554.56	553.50	549.12	551.81	553.31	560.75	574.31	587.00	599.00	611.19	617.12	622.94	630.38	632.56	634.19	636.38	635.44	638.19	646.06
434.75	429.69	423.81	431.19	443.81	450.81	445.69	444.75	457.44	463.75	463.19	470.75	462.38	458.56	462.81	453.00	454.06	471.69	478.12	485.94	477.25	470.50	461.31	458.62	466.62	468.69	458.81	464.25	459.12	461.44	458.94	455.38	458.25	473.88	466.50	458.75	454.06	453.50	460.56	465.56	472.12	474.06	472.06	469.06	462.56	456.19	455.06	464.44	457.19	459.38	455.81	457.81	453.44	446.62	445.88	444.38	441.00	444.06	435.12	440.50	435.25	436.81	434.00	420.56	391.94	369.06	358.56	402.62	394.62	376.81	415.94	424.00	387.00	365.00	369.94	395.75	402.31	391.56	342.00	349.44	334.25	349.00	342.56	324.00	332.50	338.75	338.94	329.50	328.00	324.94	333.19	339.31	335.19	319.19	309.94	317.50	340.38	347.69	350.50	355.44	364.06	362.38	369.00	355.81	352.25	352.44	354.31	351.94	349.56	344.44	358.56	383.69	387.06	387.19	393.19	403.56	404.88	403.50	398.44	394.94	387.56	383.38	386.69	382.81	396.44	392.31	404.75	420.81	402.56	389.56	392.75	391.31	387.19	377.81	373.00	365.56	372.38	375.25	392.94	396.12	391.75	401.19	409.31	412.69	413.94	410.06	408.19	407.31	408.25	408.81	408.50	416.31	417.44	413.75	411.62	410.88	403.50	400.94	398.88	391.75	385.56	380.12	373.75	397.25	402.81	481.44	509.94	462.31	503.00	501.69	525.56	536.06	535.00	531.62	528.81	513.44	511.25	501.81	494.31	504.25	518.38	512.81	527.06	538.44	551.25	560.69	567.12	574.00	581.75	574.06	535.94	515.69	510.25	483.38	491.38	524.94	544.31	529.62	531.56	531.94	533.88	526.88	532.19	535.56	532.62	537.56	552.94	543.62	520.12	499.38	494.88	494.94	497.50	496.94	485.19	479.06	478.19	481.00	484.94	489.06	493.25	497.31	498.38	503.69	506.62	513.44	523.44	527.19	531.25	535.12	540.38	544.94	550.44	553.25	557.69	561.69	562.44	561.69	559.44	554.44	552.81	559.12	570.56	582.19	596.38	606.19	621.25	629.38	633.69	642.44	645.62	648.88	650.00	650.00	647.25	647.81
426.88	432.94	424.56	425.19	435.44	439.06	439.81	445.69	451.38	451.44	451.69	456.19	451.75	453.25	454.62	444.31	450.38	464.50	471.62	484.06	481.44	472.06	464.62	456.31	455.75	459.56	456.19	466.81	461.00	458.69	460.00	451.62	461.94	474.19	467.56	463.50	454.06	451.69	461.69	466.06	467.31	471.38	471.06	467.44	454.94	447.69	454.62	462.81	459.25	459.00	460.12	447.38	457.00	448.88	446.38	441.12	438.94	445.38	443.69	435.00	434.19	434.69	429.56	427.12	409.69	379.56	368.69	359.25	358.69	367.94	404.50	408.50	388.75	367.69	352.25	368.69	378.06	361.62	343.62	340.50	336.50	335.25	342.50	337.19	340.44	333.25	324.81	344.56	335.69	334.19	338.12	339.31	333.00	320.69	310.62	317.06	335.69	344.69	350.31	356.81	369.12	373.06	364.19	357.62	350.38	350.31	354.12	364.69	365.38	356.19	356.31	386.62	388.19	392.56	393.06	391.75	389.38	378.12	373.88	395.75	391.00	387.50	401.56	384.88	382.00	375.00	394.06	429.88	439.12	421.12	385.88	380.38	376.44	366.31	365.94	364.50	367.31	370.94	390.44	395.12	393.44	399.25	411.88	410.94	412.19	410.81	410.12	406.56	407.38	407.25	405.38	416.06	422.44	423.31	418.88	415.81	409.88	401.38	404.94	407.12	400.38	389.94	381.50	373.06	372.56	369.00	399.38	404.44	458.12	469.69	490.94	518.88	531.06	523.00	521.00	500.69	504.75	500.81	507.75	518.81	543.06	546.25	541.81	520.25	525.38	530.44	541.44	552.88	573.94	547.19	507.06	502.44	488.81	481.81	478.06	486.12	513.62	560.75	596.19	573.81	561.50	519.44	553.75	565.00	556.62	560.62	581.38	572.50	547.62	518.75	514.75	524.50	514.00	494.69	490.62	489.00	491.06	493.69	498.81	505.94	511.56	514.25	516.56	519.56	523.38	530.88	535.44	539.62	544.44	550.00	552.81	555.44	560.25	563.38	564.38	564.38	563.81	562.62	561.88	562.19	557.38	562.50	572.88	581.44	591.69	599.88	605.81	618.00	629.12	643.19	652.06	647.00	645.31	651.75	645.19	638.81
426.62	431.12	424.12	424.50	432.19	432.19	438.62	443.75	447.81	446.38	445.56	444.50	445.38	450.31	442.75	433.81	440.06	457.00	460.56	476.88	480.88	476.12	467.88	463.81	456.06	450.75	455.38	471.81	453.56	455.56	453.81	452.56	465.81	470.94	474.81	462.75	452.50	456.12	458.31	463.38	463.31	463.94	467.75	464.12	460.81	453.19	464.88	463.69	469.12	465.75	456.19	449.19	455.06	448.31	443.81	441.88	438.56	442.50	446.44	435.62	421.00	416.56	423.12	416.62	415.56	398.69	383.56	367.00	362.06	361.44	374.69	378.75	364.94	353.38	344.44	386.50	358.94	355.50	343.75	340.31	346.62	345.75	342.00	366.31	364.81	342.12	340.19	363.31	341.88	337.25	340.25	338.75	334.00	317.06	315.06	318.75	331.00	345.00	350.31	358.00	366.06	364.31	364.00	356.75	346.56	348.19	358.31	374.06	387.31	381.94	366.50	391.81	393.88	400.06	408.88	404.25	390.69	377.56	380.44	403.56	405.50	396.12	372.31	372.31	382.62	375.62	383.44	409.44	426.62	430.50	387.31	373.62	372.31	368.12	361.00	363.88	372.81	384.38	386.25	389.19	392.81	387.12	402.75	404.00	403.44	409.56	411.38	405.25	407.62	406.50	402.31	404.88	419.50	424.94	426.75	420.44	409.44	409.94	406.31	416.62	412.56	409.75	395.25	381.94	371.62	361.31	370.19	393.06	397.12	486.75	530.44	534.19	533.88	512.25	527.62	529.75	509.88	520.56	529.25	534.62	544.38	564.81	567.62	536.50	533.31	524.50	505.88	502.88	510.25	506.75	498.81	495.81	489.75	480.19	477.69	478.00	482.31	497.88	578.25	578.06	527.00	529.81	573.06	629.81	614.75	592.62	568.25	561.06	536.44	525.31	519.25	524.00	517.62	510.06	506.38	506.44	504.81	510.62	511.75	516.25	522.94	527.62	527.25	529.19	536.19	541.50	546.94	550.38	554.56	557.56	561.25	564.69	567.00	567.00	565.19	563.44	565.00	567.31	569.06	565.19	565.12	571.75	576.62	583.62	590.94	594.50	604.88	608.31	615.06	633.31	631.88	622.88	618.44	615.62	615.69	625.94
424.75	430.12	427.38	424.50	432.00	429.50	438.88	444.25	445.00	446.19	440.31	440.69	441.62	445.69	431.06	427.00	435.31	447.88	452.12	473.62	476.94	472.75	464.75	463.94	464.38	449.44	459.00	469.12	451.62	454.25	449.81	454.62	463.38	471.25	475.44	465.75	452.69	454.62	459.19	458.25	460.88	459.94	464.00	464.81	463.94	458.62	464.38	461.94	462.31	465.31	460.50	455.25	451.44	448.31	440.75	441.44	439.75	437.94	441.38	428.94	428.56	414.31	409.31	414.50	424.44	405.81	382.31	370.00	370.12	359.62	356.50	362.06	354.19	353.25	349.06	369.75	344.88	347.06	347.50	351.94	361.25	363.00	353.69	349.75	361.31	367.38	360.00	373.06	344.50	331.56	340.12	337.62	331.06	313.00	313.25	318.38	326.25	343.75	349.44	354.62	364.50	361.44	363.38	358.38	347.94	354.81	373.12	386.06	401.31	396.69	380.94	396.56	395.94	390.62	405.81	408.31	402.62	379.25	381.88	402.06	400.88	398.69	393.00	389.69	400.12	380.06	386.94	416.56	412.06	429.31	405.81	379.50	374.25	365.44	359.25	371.19	382.81	392.50	387.62	391.38	391.25	397.56	402.19	403.62	402.00	406.19	406.62	404.69	406.06	406.00	399.75	403.75	409.12	412.81	417.25	407.44	405.88	408.88	408.62	419.81	419.50	425.06	415.19	394.50	372.12	359.50	363.00	366.31	364.44	376.25	499.62	537.62	532.56	515.56	520.50	515.06	495.62	515.88	530.88	543.12	552.19	570.19	576.50	551.38	546.75	554.50	536.75	517.00	527.44	518.19	510.19	500.88	490.88	479.31	484.06	473.31	477.62	489.31	500.50	507.44	511.44	516.38	544.44	613.75	629.75	648.62	619.94	619.06	557.25	530.88	509.81	520.75	521.62	511.19	508.62	508.94	509.94	514.19	513.31	523.81	526.88	529.81	532.62	538.75	546.19	550.44	554.31	558.00	561.56	564.31	565.94	567.25	568.19	566.75	566.69	568.56	571.69	575.38	575.19	569.19	561.06	564.56	568.75	571.31	585.50	591.88	597.88	598.19	604.94	626.00	616.31	605.62	604.94	602.69	604.25	617.12
416.75	421.69	433.25	432.88	425.75	426.75	453.94	452.00	436.75	442.81	439.25	434.69	434.94	435.38	418.56	423.06	432.12	442.12	450.94	464.38	467.25	467.25	461.38	458.50	463.94	449.19	451.69	461.00	447.69	452.81	450.38	457.81	466.44	469.94	467.69	462.31	447.94	446.44	448.38	453.44	457.31	460.31	454.62	457.31	460.88	456.31	458.00	462.06	455.44	454.06	455.38	451.56	445.31	445.50	441.25	436.62	435.25	430.62	433.12	431.62	430.25	426.69	418.81	417.56	407.44	390.00	382.75	372.50	374.88	364.44	360.25	362.19	360.00	363.38	360.19	349.31	350.50	345.38	338.38	340.12	352.12	347.38	332.50	324.12	328.19	339.38	339.94	356.56	333.50	339.19	336.06	328.62	321.38	316.69	314.94	314.00	312.94	333.19	342.25	344.69	351.19	352.88	356.00	353.44	359.38	366.44	384.19	401.06	402.31	401.88	416.50	397.12	397.62	391.00	384.44	390.69	397.06	386.69	390.94	375.44	388.75	400.06	393.94	393.44	400.19	403.56	415.38	413.75	387.12	408.31	422.38	401.81	396.31	381.25	367.62	369.00	387.88	392.12	391.69	389.75	387.56	402.69	408.75	400.31	399.25	405.06	407.81	404.81	408.19	403.81	400.00	397.56	398.06	401.12	400.75	404.06	408.19	413.31	413.94	414.88	422.31	420.06	424.00	407.62	377.69	361.44	351.25	347.56	345.81	343.38	438.50	499.69	531.88	521.19	497.38	492.31	497.12	519.50	532.50	548.31	555.31	562.69	565.94	570.44	576.44	585.50	582.44	575.44	577.31	553.75	516.25	504.62	498.38	492.50	489.38	481.69	476.69	481.50	491.31	500.88	503.19	505.88	507.94	513.88	529.25	549.19	575.62	561.38	531.00	520.12	512.94	516.75	517.00	510.69	511.81	513.88	514.38	514.75	518.50	526.25	533.69	542.62	549.88	553.38	557.25	560.12	562.00	564.00	565.06	567.12	566.50	568.12	568.38	570.00	572.81	575.00	576.62	579.12	577.69	578.62	574.19	569.00	565.81	569.06	571.44	579.62	585.12	587.56	596.31	608.44	604.75	594.00	590.12	591.94	598.31	606.88
411.44	414.00	436.38	438.94	425.81	425.88	439.06	440.12	432.12	435.31	435.38	428.94	424.19	421.44	412.38	426.44	432.50	440.19	449.38	459.19	458.12	464.44	459.56	454.81	461.31	446.38	452.06	448.88	444.88	449.56	450.94	461.19	464.06	462.50	466.44	460.50	450.00	443.19	453.19	450.31	453.69	456.00	451.25	451.12	456.00	455.81	453.69	456.00	457.69	453.00	445.50	446.81	446.25	439.38	437.19	430.25	437.06	435.88	440.31	433.88	432.25	429.88	419.19	404.25	398.31	391.00	384.00	375.31	374.12	367.81	362.94	363.31	365.62	362.62	363.50	366.12	357.00	343.50	338.12	338.25	339.25	330.06	328.56	319.81	319.38	319.88	326.00	320.75	331.69	339.69	332.44	328.69	308.88	317.38	317.56	309.31	311.56	329.50	341.12	344.19	349.06	352.56	351.25	368.12	371.19	376.56	391.38	400.38	394.62	405.00	397.81	388.25	395.88	399.69	378.75	382.94	384.81	389.00	395.81	377.50	384.06	390.94	397.25	398.06	407.88	402.94	402.00	398.50	382.81	393.06	416.81	421.88	418.50	405.88	381.38	367.56	371.62	387.06	395.12	387.12	389.00	392.81	402.12	403.19	398.62	395.38	405.12	405.00	411.81	404.00	401.06	397.06	395.50	395.50	398.25	399.38	398.38	421.19	423.88	415.06	413.38	411.75	414.38	417.19	393.31	366.00	351.69	341.81	338.75	338.31	350.81	373.56	401.12	497.75	521.44	450.44	479.25	503.62	515.88	544.38	562.81	566.19	571.06	576.50	585.88	589.88	594.19	598.19	601.19	590.00	531.44	526.44	520.12	502.69	496.56	503.12	499.50	493.38	486.94	490.62	488.06	492.56	499.31	505.19	510.31	514.69	515.12	516.25	516.69	512.12	508.50	514.81	511.25	514.00	513.25	516.19	520.75	527.44	535.56	545.44	550.50	553.56	556.31	558.50	560.00	562.62	564.88	566.19	566.31	565.50	566.19	567.75	569.31	572.75	575.12	576.44	577.12	579.38	584.38	588.81	582.00	578.88	572.12	573.50	580.25	585.19	586.88	591.94	591.62	592.62	592.81	589.19	587.81	593.38	596.81	602.25
401.19	403.62	420.12	428.69	427.50	426.19	421.75	426.12	426.62	422.38	428.75	423.81	413.06	407.19	409.31	427.69	433.81	438.19	450.69	459.38	448.94	460.19	455.25	451.56	451.94	446.38	456.88	438.69	442.69	446.44	458.00	464.00	461.56	455.81	463.38	454.75	446.31	437.88	442.31	446.31	447.94	450.38	451.69	448.06	452.69	452.94	451.56	454.38	451.44	457.31	448.12	441.50	440.81	437.75	435.81	435.88	431.94	431.06	436.81	430.25	423.12	421.62	415.88	406.06	401.50	396.50	386.69	379.25	375.25	369.00	368.50	371.31	367.31	365.50	368.12	380.81	368.00	357.38	350.94	351.62	343.12	332.81	340.69	328.12	319.12	312.25	311.62	310.31	340.25	343.19	337.50	317.94	307.44	311.50	318.81	324.38	313.25	327.81	342.31	342.31	346.69	354.06	355.25	358.38	379.38	393.88	403.44	395.69	400.31	389.75	380.69	387.50	385.81	390.94	375.12	378.00	379.69	381.38	396.19	382.31	382.50	389.06	391.25	398.75	399.19	386.44	396.56	372.94	376.19	387.81	419.75	421.75	413.88	412.75	402.00	373.44	366.12	396.00	390.81	382.81	384.31	385.31	389.31	400.62	399.69	397.75	393.81	403.06	411.69	407.38	402.88	395.88	395.75	394.06	394.62	394.44	395.62	414.94	416.88	423.25	420.56	420.62	415.81	414.06	420.81	390.12	362.88	344.69	340.75	339.25	338.31	339.00	342.88	374.62	455.44	433.19	426.81	490.25	504.12	547.00	555.50	562.88	562.81	574.25	577.25	579.94	588.62	600.69	594.75	537.56	541.25	589.31	591.25	536.06	530.81	529.69	531.81	513.81	491.00	488.69	489.81	491.31	504.69	508.44	512.81	512.69	510.69	508.75	511.50	510.06	512.38	512.44	515.88	517.00	520.56	528.94	536.19	541.50	546.19	550.44	553.56	556.56	558.94	560.69	563.00	564.31	563.00	563.19	563.94	564.69	564.88	566.50	570.12	571.81	574.44	574.50	575.06	579.31	588.38	594.81	589.56	584.44	577.06	575.25	576.38	581.25	588.00	588.25	585.12	587.69	589.38	586.25	588.69	593.12	596.69	601.25
401.38	403.75	410.75	417.06	422.56	419.19	400.19	403.88	414.19	403.81	415.62	421.06	402.44	394.56	411.31	428.56	429.56	425.00	433.00	435.88	435.50	441.75	448.06	441.50	437.75	445.12	439.31	438.56	443.88	453.94	457.81	459.44	456.12	464.12	461.81	451.62	439.88	433.88	430.00	437.88	439.50	446.25	452.06	451.50	447.25	447.75	447.12	451.31	434.75	427.38	447.75	447.81	434.81	434.88	435.38	441.38	434.06	425.44	426.94	423.00	417.62	416.44	415.69	421.19	414.62	406.25	390.44	387.19	384.00	381.88	386.56	388.56	379.25	373.69	371.75	372.81	390.56	379.62	367.00	364.81	354.81	341.19	335.12	328.12	315.56	309.38	309.06	311.88	335.31	334.00	334.31	332.31	335.56	332.62	334.25	333.19	329.81	329.31	338.12	344.25	342.69	349.56	352.50	354.00	360.25	373.69	380.31	362.81	390.88	396.62	382.81	377.94	376.38	384.94	373.56	373.62	372.31	373.56	393.56	387.75	384.88	392.88	401.00	380.50	382.44	393.50	385.50	386.94	404.12	407.31	421.19	431.19	415.06	423.06	418.44	402.62	392.25	392.50	378.12	376.19	383.56	382.94	389.81	399.38	399.69	403.06	403.31	406.94	415.38	400.31	396.38	404.38	395.69	390.88	391.44	390.31	388.88	404.50	384.00	387.19	421.31	427.81	424.00	417.19	422.19	425.19	379.31	352.62	346.44	341.62	342.94	346.56	348.62	358.75	371.44	415.56	396.44	418.88	454.31	499.19	534.94	515.75	509.62	572.88	568.69	547.75	549.56	553.75	506.50	485.00	500.94	525.75	601.31	596.12	602.44	568.12	535.31	515.00	507.56	504.19	508.12	498.31	499.00	502.88	505.81	505.94	510.38	509.31	510.56	515.81	518.50	519.94	524.75	531.19	534.88	538.25	542.00	546.38	550.12	553.12	555.38	558.38	558.06	557.62	558.31	558.88	558.12	558.44	560.44	562.31	564.19	565.44	567.44	566.88	570.62	572.50	577.88	578.62	585.94	602.88	602.88	596.31	587.38	586.38	585.56	581.81	580.56	579.88	580.00	583.38	582.75	586.69	591.06	595.69	600.94	606.38
401.69	391.25	406.94	404.75	423.94	426.06	413.31	388.31	389.06	390.56	400.00	410.19	391.06	380.31	392.88	414.12	414.56	400.94	406.94	416.06	423.88	430.88	435.56	434.50	432.62	436.75	436.00	437.75	447.75	456.38	467.25	453.94	446.50	455.44	455.69	449.19	437.62	428.81	424.75	429.25	435.06	442.88	446.25	448.25	448.69	442.44	441.44	446.12	444.25	430.50	439.00	440.81	439.56	436.31	433.19	441.12	429.50	422.75	430.50	422.31	411.75	411.88	417.81	413.12	406.50	407.94	405.94	404.06	403.25	396.12	396.75	403.69	395.50	391.12	387.94	391.31	401.56	397.06	381.62	381.06	360.81	350.62	335.25	320.31	319.81	312.94	312.69	322.56	331.75	329.12	341.56	349.88	346.25	342.06	339.69	337.44	334.44	329.69	338.06	350.75	351.94	352.62	352.81	349.25	357.69	359.00	357.75	362.44	369.31	387.38	381.38	374.56	374.00	373.31	374.69	375.94	377.62	386.12	395.31	371.00	386.94	409.69	399.12	397.62	397.88	393.06	385.38	389.69	405.31	393.56	421.44	418.62	424.81	426.50	422.31	424.38	408.31	409.25	383.19	385.94	382.38	383.31	390.62	400.12	401.75	398.25	389.50	411.12	403.31	406.50	396.25	392.88	396.69	388.06	385.12	382.75	369.94	374.75	346.88	346.81	395.19	408.56	412.69	411.44	415.88	419.88	401.62	375.31	368.94	356.88	350.88	353.06	353.69	357.81	373.38	382.25	383.56	379.12	396.25	442.12	466.56	481.38	514.62	553.38	550.44	519.19	489.88	474.75	475.69	481.38	526.00	554.38	531.31	518.19	597.69	589.69	560.94	542.19	521.25	517.56	520.06	515.62	506.75	501.88	501.00	504.12	508.19	510.56	514.88	521.31	525.94	532.06	534.62	535.56	537.50	539.81	543.12	547.38	549.56	552.00	551.38	552.75	552.00	553.62	553.44	555.19	556.38	558.62	560.31	560.44	561.12	560.69	563.88	565.69	567.44	575.31	580.50	585.25	587.88	596.00	602.06	602.31	590.75	592.81	593.88	592.44	582.81	580.62	582.12	580.12	582.12	587.25	589.44	597.44	601.00	600.81
388.31	379.94	394.38	392.88	411.06	415.50	417.50	409.62	396.31	385.94	378.75	391.06	383.00	380.25	393.25	392.56	380.81	382.88	389.00	400.75	414.50	422.31	429.31	427.88	432.62	430.81	440.25	447.19	453.88	458.19	463.38	452.50	437.56	447.81	448.88	444.75	433.31	424.19	422.94	421.81	427.81	437.81	440.31	445.81	447.12	439.38	436.19	442.12	445.44	440.00	432.75	432.69	435.31	434.00	428.75	428.88	425.25	420.00	415.06	413.19	411.81	407.94	419.94	416.75	406.19	402.44	405.31	409.38	404.50	401.38	396.62	390.25	392.00	399.62	394.12	389.12	393.75	395.88	399.00	390.38	366.19	358.88	346.62	334.31	322.25	317.75	321.44	318.06	329.12	336.62	349.06	349.38	353.00	349.31	346.69	338.12	332.31	327.62	338.44	348.62	354.38	356.50	354.38	353.19	355.19	360.06	361.81	360.12	374.94	394.94	381.50	377.50	374.81	373.38	375.56	383.81	393.56	396.38	393.62	358.81	366.00	382.50	395.56	399.44	397.94	392.56	388.00	391.31	400.94	384.94	405.06	411.38	413.56	428.62	433.50	427.25	419.75	411.56	392.06	391.88	383.00	381.06	383.19	401.50	404.69	396.69	388.19	395.12	401.00	387.75	399.00	401.75	397.38	400.75	392.00	377.38	361.81	354.50	343.94	341.31	350.19	370.56	384.19	393.38	411.44	418.75	419.88	409.38	408.44	380.56	365.25	361.50	358.00	362.62	363.62	367.38	369.12	373.12	387.12	422.00	438.62	454.19	486.50	491.31	525.62	483.88	465.25	453.38	457.88	474.88	480.44	484.88	483.06	481.81	549.19	606.88	604.31	582.69	575.19	570.38	552.69	541.06	522.44	509.12	505.50	510.75	519.25	523.25	527.50	531.88	535.00	537.50	536.62	537.69	538.56	538.75	541.75	543.06	543.94	547.88	547.56	549.38	551.38	551.44	554.19	555.25	556.12	557.12	558.50	559.69	561.62	562.75	564.31	564.12	568.00	570.75	576.25	587.44	591.50	591.94	596.38	602.31	595.69	601.56	608.31	599.25	593.94	589.50	591.62	588.19	585.81	588.75	593.06	602.75	608.25	615.88
394.94	374.56	386.75	378.62	396.25	401.81	412.38	413.44	408.25	403.12	392.56	387.00	370.50	375.56	379.56	367.44	375.19	389.00	376.38	380.38	399.31	415.94	421.81	427.94	429.75	436.94	451.69	453.75	460.94	467.81	457.00	444.69	437.00	447.62	445.06	440.75	435.94	422.62	420.38	420.38	423.56	428.31	436.81	441.25	442.44	439.25	431.56	437.62	439.94	437.56	433.69	428.62	423.75	428.88	418.88	421.69	420.44	414.56	407.00	407.56	406.88	405.88	417.50	420.12	417.44	414.12	409.50	405.19	405.56	401.69	402.06	393.44	390.81	395.62	394.62	385.44	387.56	388.19	394.44	387.50	385.81	377.94	361.19	351.31	332.19	326.56	312.00	313.50	333.38	339.50	341.88	346.62	346.25	350.06	353.50	349.75	341.69	335.94	338.88	342.75	349.06	350.88	353.31	355.38	359.38	365.00	366.31	358.00	375.88	397.31	381.25	375.06	372.88	368.19	370.94	384.00	390.44	392.75	393.50	353.19	348.44	351.06	363.81	394.75	393.25	376.38	383.31	386.31	398.19	385.25	394.25	401.81	413.06	420.06	427.69	427.56	416.44	418.38	412.69	402.25	391.69	388.00	397.94	401.69	391.50	389.06	387.75	383.50	379.25	374.44	377.06	390.38	401.44	410.00	402.06	391.12	373.81	352.62	346.75	349.25	359.06	363.31	368.38	376.50	402.38	421.50	430.69	451.94	437.81	422.38	400.62	379.75	372.69	372.81	369.50	369.94	370.38	371.56	376.31	388.25	421.12	453.31	455.62	467.50	506.81	468.31	463.62	454.88	451.69	467.06	481.75	480.44	457.00	457.69	471.12	477.56	484.31	497.56	518.56	585.88	606.12	572.06	526.00	512.38	510.88	519.25	524.94	527.88	530.75	536.50	538.62	539.19	538.81	537.94	534.50	535.06	538.06	541.00	544.38	546.94	548.06	545.44	547.12	549.25	552.88	555.75	555.94	558.81	562.62	563.69	563.94	564.75	564.50	564.69	566.50	569.31	577.12	587.50	594.06	598.56	604.44	610.50	605.50	610.75	617.44	606.81	607.69	600.94	603.25	606.19	612.38	615.75	613.00	608.75	612.75	615.50
395.50	370.75	372.94	369.69	376.81	395.94	406.44	409.12	408.81	405.25	406.38	401.56	379.19	369.44	366.56	362.62	365.44	388.00	379.88	379.44	393.25	411.94	419.69	427.81	428.06	438.19	456.75	459.75	464.19	471.25	456.62	438.12	435.12	444.69	437.44	439.31	436.38	421.75	422.75	419.44	420.12	422.75	435.62	438.69	440.19	437.94	431.00	429.81	436.19	435.38	433.62	427.38	418.75	412.12	411.94	412.69	413.62	411.25	405.62	408.25	398.62	415.81	416.31	416.06	417.81	415.12	413.44	402.00	395.75	396.06	395.94	395.44	397.44	399.44	385.38	387.25	383.62	381.88	383.25	389.44	394.00	386.62	370.31	361.62	336.88	324.94	316.31	313.19	329.94	343.88	339.19	342.69	343.38	351.69	355.25	355.56	349.69	344.69	341.44	339.44	342.56	346.38	349.25	356.00	359.00	357.44	365.31	362.94	378.44	382.75	386.50	372.50	369.94	365.88	368.25	383.25	386.69	388.19	364.75	338.06	342.94	345.56	350.69	382.31	390.69	377.75	375.81	393.31	405.19	398.88	390.38	404.06	403.25	415.50	415.06	421.31	416.50	416.19	409.00	405.75	394.62	397.75	401.25	399.31	390.31	388.38	376.25	375.88	376.12	374.12	379.69	390.56	409.94	430.94	417.00	394.44	381.69	360.62	351.12	354.25	366.31	371.50	373.00	377.94	398.44	424.56	429.56	435.25	436.69	431.62	433.00	412.94	391.62	381.81	379.25	377.81	375.56	377.38	377.94	381.19	397.75	427.00	438.44	445.25	474.00	463.94	460.38	433.88	429.19	450.44	471.06	472.06	461.06	451.81	453.31	455.31	468.69	480.62	481.00	485.88	505.75	546.12	513.06	504.75	513.06	517.12	522.00	528.69	536.00	544.00	543.25	539.94	538.38	536.00	532.62	534.94	539.19	541.19	543.00	545.31	546.56	543.75	542.56	544.31	550.50	554.44	555.69	558.00	566.88	567.31	567.88	566.50	565.81	566.38	568.62	572.00	578.56	587.75	592.06	595.69	602.25	612.56	617.06	615.00	620.62	616.50	616.31	613.75	610.62	607.88	615.19	621.38	613.62	606.94	612.25	610.06
388.56	374.06	362.88	360.50	369.19	388.69	398.50	403.88	405.19	404.56	404.50	402.25	395.88	398.94	392.44	372.25	360.56	364.50	377.75	373.56	393.56	410.81	417.31	407.81	404.56	429.62	438.75	446.62	465.06	466.75	452.06	431.81	431.75	432.00	431.00	438.12	434.62	423.69	420.69	420.31	419.56	421.31	431.69	437.88	435.62	434.56	426.81	417.94	429.50	429.56	427.88	422.50	416.62	405.69	398.69	407.38	406.88	408.38	403.19	399.50	403.81	411.69	412.25	413.25	415.88	414.88	412.06	406.62	401.12	399.06	398.50	396.81	407.12	408.12	399.94	396.19	383.12	382.62	383.50	392.94	394.75	391.94	380.00	376.50	355.81	330.44	322.19	319.19	316.81	352.50	346.44	350.56	346.56	352.00	352.81	358.56	359.94	353.50	346.56	343.44	343.25	348.50	353.75	355.81	353.56	350.88	364.75	361.62	367.50	382.75	376.19	376.94	369.50	365.44	366.25	381.50	378.19	372.19	344.38	347.00	355.81	359.50	353.00	364.19	381.62	378.44	376.69	391.75	395.69	413.25	394.19	386.31	395.25	409.06	422.81	410.81	417.56	412.06	411.50	409.56	399.56	402.88	405.06	402.19	392.94	390.62	372.75	385.25	388.81	387.69	392.44	401.44	412.81	445.12	447.44	417.12	402.38	388.44	372.50	373.25	382.38	386.50	384.38	388.75	405.38	420.31	429.62	431.06	444.25	441.56	441.50	440.12	423.50	398.94	393.62	387.38	388.56	389.81	390.88	388.19	389.00	390.25	396.31	400.81	423.44	444.62	429.00	418.69	420.88	444.62	464.50	466.38	462.81	462.81	451.44	451.50	471.31	472.38	472.88	468.19	475.12	492.88	491.81	496.94	502.56	507.25	513.56	523.12	547.75	544.06	541.12	538.38	532.12	538.50	538.50	542.56	546.00	544.31	541.88	542.31	546.25	535.62	538.56	543.12	547.31	552.44	558.19	562.06	563.50	570.06	573.12	572.56	572.19	574.81	574.31	577.00	582.75	589.88	594.62	596.06	599.88	608.56	617.81	617.19	623.25	619.88	616.88	614.44	613.12	610.50	610.81	613.81	612.31	611.69	612.81	608.44
369.56	371.19	364.75	357.19	356.12	366.50	384.06	397.88	398.44	400.19	401.38	400.62	400.00	400.12	399.69	394.25	371.94	359.31	359.19	366.88	390.62	412.44	413.69	410.38	391.81	402.88	425.69	437.62	450.69	450.75	441.19	429.19	419.25	426.69	431.44	434.81	430.75	431.62	417.00	416.75	417.75	417.12	425.50	435.00	433.50	428.62	429.00	417.00	422.00	423.69	418.38	414.19	409.12	400.75	397.75	404.00	406.56	403.00	400.06	399.12	394.19	394.69	404.00	409.00	411.31	412.81	408.38	401.75	404.44	405.94	405.06	405.94	402.50	405.94	397.31	389.06	385.25	382.12	371.44	387.88	397.12	393.62	379.75	383.50	378.88	351.00	332.75	324.31	315.69	308.94	341.25	347.25	343.38	344.31	356.50	362.94	369.00	361.12	347.00	344.50	345.25	346.06	349.94	348.75	356.56	352.06	358.44	359.81	364.81	371.12	374.44	370.56	365.12	362.44	366.06	376.25	363.69	364.69	351.19	347.38	360.94	369.06	363.75	365.25	373.00	377.56	385.38	384.75	380.44	402.12	382.12	384.25	386.75	390.69	412.38	414.81	405.31	412.75	409.44	412.06	405.31	405.56	412.69	414.75	413.25	401.56	390.44	394.50	401.50	396.25	415.56	432.62	429.25	441.50	452.12	411.00	417.25	425.25	408.69	400.88	411.75	415.50	411.75	405.44	406.44	422.38	437.06	434.25	442.38	441.50	450.00	446.06	439.62	421.44	407.88	403.38	407.50	405.81	401.44	398.94	400.25	397.12	402.69	405.38	408.50	428.06	439.50	421.31	425.19	446.19	450.88	442.81	442.25	461.56	459.69	452.69	463.06	470.94	478.06	485.44	491.69	490.81	489.62	491.50	493.56	493.19	490.25	501.38	490.50	500.56	505.06	510.75	507.25	553.50	551.19	593.56	579.94	554.25	547.25	529.06	517.38	522.81	542.19	549.19	550.81	551.19	558.81	570.88	570.81	574.38	579.38	579.75	574.56	579.12	581.94	589.81	595.25	602.25	599.31	605.12	611.44	606.06	610.62	621.44	627.62	620.69	612.25	615.00	617.69	612.12	612.94	616.50	613.00	604.69	602.31	605.25
361.12	371.88	370.88	354.88	349.25	339.62	349.56	386.00	391.00	393.06	395.81	397.06	396.62	394.88	395.44	397.25	385.31	363.12	355.50	365.25	395.56	409.94	409.81	409.94	400.88	390.50	410.75	426.25	439.12	447.25	433.31	419.06	413.81	421.75	426.94	430.12	430.75	428.62	413.31	406.25	408.06	414.56	418.69	428.75	431.75	426.06	421.31	418.69	410.69	414.88	412.88	408.50	404.12	401.00	396.81	401.06	403.00	402.25	399.50	391.00	390.06	387.69	398.88	403.00	407.44	403.56	406.56	404.19	405.38	402.25	402.50	392.62	385.25	392.19	390.25	389.50	379.75	375.62	366.44	363.12	390.50	384.06	390.25	377.38	393.62	375.38	356.25	343.00	336.56	300.88	309.94	331.44	347.00	353.44	360.31	358.56	366.44	371.25	348.94	345.38	344.12	345.50	347.50	348.31	350.62	352.56	353.06	363.56	365.31	379.56	363.38	361.44	360.31	361.69	368.25	371.38	366.00	363.12	343.00	349.25	356.56	363.81	367.06	368.44	371.25	376.38	373.00	377.12	383.69	386.25	384.31	387.75	378.44	381.38	400.56	409.12	418.94	411.44	407.12	403.31	410.25	408.81	413.75	420.38	418.50	418.06	399.88	389.94	381.50	387.25	389.69	417.94	425.75	415.81	426.38	423.38	435.81	440.62	435.56	426.38	421.69	429.25	436.19	434.44	429.88	425.06	445.94	450.31	440.44	439.06	458.19	455.69	445.38	445.44	433.12	435.50	425.69	419.94	417.25	413.62	407.06	407.69	411.56	412.31	411.44	421.94	430.75	426.44	429.25	444.38	456.69	446.00	442.81	446.31	452.94	471.50	477.06	484.56	489.06	492.31	493.44	492.12	486.00	483.12	486.88	485.44	475.75	479.56	478.50	476.75	475.06	477.00	495.38	505.50	512.38	543.62	567.31	564.31	550.81	527.69	497.75	504.50	515.94	516.75	514.00	520.19	531.56	556.81	558.06	564.12	568.75	580.31	586.44	591.31	593.88	603.62	614.62	627.38	607.06	603.44	602.50	597.62	601.94	595.31	596.06	592.44	589.62	597.25	609.56	605.44	609.94	608.50	603.44	595.62	594.81	600.50
354.00	354.31	364.38	349.75	344.88	335.06	335.25	362.38	385.94	387.56	389.94	392.06	393.31	393.00	391.38	393.75	391.81	375.69	355.31	356.56	390.00	402.69	405.12	404.81	403.31	391.19	391.50	404.38	420.81	435.50	421.38	410.94	411.56	419.06	426.75	427.50	427.81	428.38	412.38	402.94	404.81	409.62	414.38	417.19	424.25	424.88	416.75	415.75	407.88	406.56	409.88	406.44	400.00	395.31	393.69	396.88	401.06	400.69	396.94	392.00	387.69	388.25	391.50	395.25	398.56	400.31	399.88	396.38	395.06	392.00	390.56	391.88	382.62	382.62	382.44	385.44	384.12	373.19	353.31	352.44	370.69	364.94	367.44	369.50	387.44	386.88	373.06	351.62	341.19	307.12	297.88	300.31	352.00	355.88	357.81	353.00	358.12	368.75	363.81	348.06	342.38	345.12	345.94	346.62	349.44	354.25	354.75	356.19	371.19	377.25	357.06	361.50	359.38	364.75	368.25	375.75	377.88	368.00	355.56	359.62	356.81	356.94	364.88	373.31	373.88	368.69	367.69	384.38	382.12	389.12	381.75	374.50	381.69	379.38	398.88	407.50	410.88	411.06	397.19	402.00	401.06	406.81	414.31	419.50	421.38	415.62	414.69	404.38	385.06	377.69	380.81	400.62	408.19	400.69	402.38	407.62	416.19	419.00	445.00	435.00	432.56	435.88	439.88	456.19	435.69	440.62	430.00	444.94	440.81	446.75	453.94	462.31	454.62	464.38	456.94	449.12	450.19	443.31	435.25	429.19	421.44	420.19	419.50	419.19	415.62	420.25	429.88	437.81	440.44	448.62	456.31	448.38	449.56	457.44	466.00	478.50	489.06	489.44	491.38	492.31	491.38	483.50	474.69	479.56	487.56	485.75	470.62	463.81	461.81	458.25	456.19	464.19	478.81	488.75	509.69	515.50	545.56	535.50	518.56	504.44	496.69	509.19	521.00	503.12	507.75	517.25	517.81	524.00	526.50	541.25	554.75	576.62	571.56	587.50	584.31	582.88	587.06	610.75	607.75	588.88	599.06	598.00	600.88	577.38	570.94	572.88	577.75	585.56	587.25	587.56	600.31	600.75	593.31	589.38	593.50	597.88
364.75	339.50	344.12	354.50	342.94	332.69	331.44	370.75	382.31	383.25	383.69	386.88	387.19	388.00	388.19	389.44	390.56	388.81	365.88	359.38	385.69	392.62	394.56	398.19	397.50	388.44	374.44	390.19	407.31	415.88	411.94	403.94	408.19	416.75	419.69	428.81	421.38	422.19	409.44	400.88	401.69	401.88	411.12	412.19	416.00	416.69	415.88	409.19	402.62	398.56	399.69	402.69	401.31	395.00	387.19	391.62	395.06	397.75	394.75	388.19	384.12	388.62	381.81	377.50	385.50	390.44	391.38	389.31	379.81	379.31	376.75	375.75	374.75	380.12	379.50	377.31	375.69	346.62	328.12	340.31	372.50	383.75	384.81	369.44	383.62	387.25	388.25	380.31	362.94	329.75	323.06	316.00	314.38	352.12	352.94	352.31	353.62	363.75	365.44	354.12	347.25	346.69	347.56	345.94	345.31	348.75	362.38	372.06	369.94	365.69	351.38	353.81	356.75	371.81	376.69	378.81	378.50	368.25	366.81	372.88	355.75	356.94	363.25	368.00	374.25	369.62	375.19	381.69	384.56	381.94	379.38	387.69	370.31	382.75	392.25	403.00	401.38	406.38	400.94	387.56	397.31	392.75	401.62	414.31	422.88	420.81	417.50	410.44	407.62	395.00	388.94	391.12	390.44	396.56	394.75	405.38	411.69	404.50	405.94	406.00	411.88	433.75	434.94	429.81	444.69	445.88	441.94	444.31	430.25	421.38	436.31	451.19	461.69	465.62	464.00	470.69	468.50	460.69	454.50	454.69	447.19	441.44	437.81	432.31	424.19	426.88	438.69	442.00	441.62	444.81	449.62	460.06	467.38	482.19	486.94	489.12	489.38	489.44	489.12	487.69	481.06	470.31	473.62	471.81	476.50	479.38	477.94	465.19	450.94	449.88	450.69	454.69	458.94	476.75	502.31	506.31	506.44	504.44	496.94	488.75	486.75	493.50	498.25	494.31	505.00	510.50	514.62	513.00	517.06	531.44	540.06	548.25	546.31	553.81	562.81	565.25	569.38	565.19	569.88	561.25	567.94	576.94	584.00	563.25	549.88	545.69	546.94	555.75	556.19	563.12	559.62	582.31	596.44	581.81	579.44	578.69
377.00	358.31	349.12	352.06	346.69	339.12	347.94	376.19	379.44	381.06	380.94	381.94	383.19	382.88	383.88	386.31	385.38	385.50	375.56	360.81	384.06	382.12	388.19	393.56	394.50	382.44	371.69	392.38	402.38	404.62	401.19	397.00	403.81	408.31	417.25	425.94	419.31	413.06	406.81	397.50	398.06	397.88	407.31	409.56	410.00	411.69	410.81	408.06	399.06	395.88	391.56	399.81	399.62	393.50	388.12	388.31	390.25	394.00	389.56	379.56	387.81	382.75	374.62	368.81	373.19	375.38	382.00	376.25	373.56	372.88	372.88	366.56	376.69	370.00	371.00	357.81	349.06	319.50	315.12	329.56	367.50	375.69	375.38	363.50	370.19	380.00	377.00	383.88	377.44	325.50	314.38	311.81	305.38	303.88	343.94	353.19	354.31	365.50	362.69	350.12	352.88	354.69	351.31	344.50	349.38	350.81	361.75	366.44	370.25	358.31	353.31	349.25	349.56	366.94	380.06	376.12	373.56	366.12	369.62	372.19	356.00	360.75	368.38	373.81	368.88	374.06	378.50	380.31	382.31	376.25	378.69	377.31	382.31	386.94	391.75	396.62	401.88	407.88	409.19	388.00	393.06	402.44	402.94	408.88	406.56	408.38	410.69	412.06	418.25	411.81	411.50	416.75	411.88	412.75	408.56	397.69	393.56	395.75	403.88	414.19	407.50	413.62	407.00	410.31	425.44	441.88	437.94	450.81	438.88	427.56	426.62	426.75	434.31	432.69	444.12	454.56	465.56	473.19	470.31	459.31	458.44	456.44	450.12	438.38	439.12	440.81	438.06	442.75	446.31	460.81	464.56	472.50	477.06	480.50	483.38	484.12	483.62	484.00	482.56	480.06	469.88	475.06	479.44	476.50	474.12	470.75	459.06	452.88	450.19	449.56	449.56	451.12	455.12	463.12	479.75	482.50	485.81	485.69	487.44	478.88	476.06	477.44	480.81	488.06	500.88	497.50	500.25	506.81	514.62	525.31	519.88	520.19	529.50	535.19	540.00	548.19	552.31	543.94	544.25	542.50	543.25	546.69	545.62	550.69	537.50	535.00	535.12	537.19	541.69	539.81	545.12	555.06	579.31	572.06	564.00	558.00
378.06	374.25	366.25	361.69	338.12	332.06	350.00	373.56	376.62	377.94	377.62	378.06	378.00	378.62	378.69	381.38	380.62	383.50	372.12	357.31	366.19	377.81	386.19	392.75	394.06	379.06	370.69	390.50	401.12	401.69	396.00	394.12	397.50	403.62	408.88	418.69	416.19	410.00	402.50	395.50	395.25	399.81	406.38	407.31	409.56	407.00	404.69	400.19	394.94	390.31	385.06	395.25	397.19	394.56	392.62	387.75	385.38	390.88	386.75	374.69	376.31	376.75	363.62	360.12	360.69	350.75	361.00	358.69	364.62	366.19	366.44	368.38	373.50	362.06	346.88	334.94	330.12	304.62	306.38	316.38	351.88	351.50	358.06	356.75	358.00	372.19	369.56	370.00	371.38	346.69	325.88	325.31	316.38	320.44	329.62	349.75	353.12	359.12	365.12	361.81	358.06	358.19	357.50	348.00	343.38	353.75	359.12	364.50	363.50	359.56	352.38	352.12	344.88	344.12	372.69	375.94	377.06	374.12	370.94	362.50	359.12	363.62	366.88	368.69	375.38	380.75	383.25	377.81	384.44	383.75	370.75	378.69	384.12	380.75	389.31	382.69	380.38	396.75	414.88	392.12	391.75	401.62	412.88	399.06	372.88	392.31	412.69	407.19	405.38	409.56	413.81	417.69	414.12	415.75	408.31	395.25	397.31	398.94	394.12	405.62	406.94	415.25	421.31	411.00	414.69	423.69	444.12	452.19	451.94	450.69	448.38	444.50	431.50	427.12	423.62	432.19	445.94	444.81	450.88	455.31	459.69	453.94	450.19	445.38	447.75	454.31	452.38	458.56	454.56	457.06	467.25	475.25	478.12	478.69	479.81	480.31	478.62	478.00	477.81	469.31	468.81	473.81	470.25	468.19	463.38	456.62	453.25	451.19	452.00	452.94	451.81	451.62	452.62	458.69	465.38	470.62	473.12	476.50	482.00	472.69	472.31	474.06	476.19	479.56	485.62	490.69	492.12	493.00	496.88	497.75	500.19	506.81	505.94	507.12	506.88	509.69	513.94	521.69	529.50	527.44	523.81	523.19	521.19	524.56	528.69	528.38	527.06	529.38	532.31	534.44	540.19	546.31	559.38	565.50	559.56	553.56
374.06	376.12	374.25	370.31	357.25	346.56	342.44	369.12	373.06	373.19	373.88	374.38	374.44	374.44	375.56	375.62	376.00	379.56	375.12	356.88	375.12	382.94	387.81	391.88	391.50	383.19	368.19	385.88	399.31	400.06	392.56	389.62	394.62	397.75	405.44	415.88	412.31	406.75	401.50	394.81	392.94	393.88	400.56	405.25	408.50	407.31	405.69	401.38	394.88	388.94	383.31	389.62	390.44	391.06	387.62	384.50	374.88	382.75	381.94	379.19	361.56	356.56	345.62	345.31	336.94	341.62	333.44	348.06	353.44	353.06	345.44	351.81	340.38	354.81	331.88	315.75	298.88	297.44	295.38	310.12	332.00	343.00	355.25	355.94	357.06	361.06	368.75	362.50	365.31	364.19	356.19	348.69	348.69	351.00	354.69	350.81	355.50	352.19	356.56	363.75	366.19	357.50	354.62	344.75	346.69	348.19	359.31	360.38	359.94	355.44	360.69	345.94	346.62	346.19	344.19	361.44	375.00	370.88	376.12	353.50	358.19	368.38	368.44	365.94	376.75	383.06	380.50	375.69	380.19	383.88	371.94	370.06	384.31	384.44	388.94	372.25	370.56	380.62	409.25	411.50	399.31	393.50	402.56	378.94	361.81	394.75	398.62	411.00	411.19	417.69	411.44	407.12	407.00	408.69	406.81	401.62	405.81	414.25	411.31	404.69	411.88	406.50	418.38	417.06	403.56	403.75	415.88	453.81	453.81	453.31	448.44	446.50	452.62	453.75	435.50	428.44	447.19	443.75	437.62	434.44	433.44	444.31	451.38	451.75	456.69	459.38	459.88	461.69	464.75	468.44	474.19	474.00	475.19	474.94	476.00	475.31	474.44	475.94	469.62	462.88	467.50	464.00	461.00	453.38	452.94	453.62	452.75	453.12	452.81	455.75	458.38	455.56	453.38	456.75	462.06	464.50	469.75	473.06	475.00	469.12	469.06	470.06	472.12	474.81	479.19	484.25	484.44	485.31	484.81	489.00	494.88	505.44	498.62	497.56	497.88	499.62	505.31	513.88	520.12	519.81	517.38	515.38	514.69	516.94	521.06	522.88	523.69	525.06	527.44	530.81	536.56	542.88	555.00	562.75	555.69	551.75
369.69	372.94	373.81	371.50	366.94	355.25	363.12	368.75	370.44	370.50	371.38	370.44	371.56	372.19	372.62	371.94	372.62	375.75	370.38	359.44	375.75	381.06	385.69	388.44	387.31	383.75	365.81	377.25	389.06	397.25	388.25	384.69	388.81	394.62	401.38	412.50	410.94	403.25	398.06	392.81	391.19	392.06	396.62	401.81	407.00	408.56	412.06	399.69	395.81	396.69	391.00	384.44	390.25	387.00	379.38	375.56	370.00	367.50	376.56	369.94	340.00	324.00	317.81	317.00	324.25	322.81	320.31	334.44	340.06	339.38	325.12	313.19	306.75	308.62	301.06	288.62	279.69	287.38	297.31	311.81	324.19	333.94	347.19	359.75	353.25	350.75	361.88	353.50	355.19	352.31	358.44	366.38	369.12	370.75	367.75	368.12	365.62	371.56	374.81	367.12	364.12	355.69	343.44	345.25	348.50	355.00	362.44	357.81	353.75	349.12	356.88	339.06	348.94	351.50	338.88	348.38	359.56	374.31	364.06	353.75	352.56	364.31	363.75	365.50	380.19	383.19	379.75	368.88	372.62	374.31	377.12	375.94	376.50	383.50	383.94	382.25	376.81	381.62	376.94	401.44	404.75	395.75	397.62	397.44	389.75	404.06	405.50	407.81	414.00	418.69	404.56	403.75	404.00	414.69	414.69	409.44	389.75	411.50	417.56	413.69	412.44	406.44	409.38	406.69	404.25	405.38	406.00	440.56	452.88	452.56	446.06	437.19	451.62	460.62	451.12	441.62	424.06	423.56	431.06	430.62	430.00	443.81	446.44	450.44	457.94	463.00	466.12	467.69	469.38	471.94	472.69	472.06	471.25	466.31	466.31	466.50	469.75	473.94	464.81	460.88	458.94	453.75	450.56	455.25	456.19	454.75	454.56	458.19	460.00	459.31	458.88	456.88	455.88	456.31	458.81	460.44	464.62	468.06	467.75	465.94	466.69	468.44	470.06	471.50	474.31	478.19	479.56	479.81	481.38	485.38	492.88	499.88	493.81	492.38	493.38	496.62	501.62	510.81	514.19	516.00	511.25	512.19	512.50	515.06	517.00	518.88	521.06	523.75	527.12	531.56	534.75	538.25	544.25	548.81	549.31	548.81
369.81	368.88	369.56	369.38	366.81	355.81	361.06	366.81	367.44	367.31	368.69	368.81	369.06	369.75	370.12	369.56	368.56	372.62	366.81	361.25	372.25	377.88	383.75	385.00	384.62	382.31	366.00	372.44	383.62	388.69	383.88	382.25	386.50	394.62	400.75	415.31	407.25	402.25	394.19	390.81	389.06	390.44	394.38	398.00	403.50	408.50	407.81	399.31	393.94	394.62	394.62	385.44	383.19	384.94	384.62	384.62	377.31	364.19	375.00	361.31	329.69	316.69	308.25	304.94	311.50	308.38	312.25	320.00	327.62	333.00	316.44	297.06	287.69	286.69	281.81	270.62	273.81	275.31	292.00	307.31	317.06	324.62	336.00	352.69	349.25	343.75	351.38	354.75	354.25	353.12	354.81	357.94	365.56	370.75	368.56	364.31	368.12	372.69	373.94	362.56	367.12	357.88	344.00	347.88	350.31	350.44	352.50	345.81	347.44	349.69	338.12	339.00	345.69	349.81	341.25	341.12	352.69	365.75	343.19	350.19	360.25	353.69	363.75	368.62	382.00	384.25	376.56	371.69	381.62	387.19	394.75	389.69	377.25	371.25	380.56	381.38	374.19	378.12	363.50	385.81	402.00	394.06	374.56	400.94	401.62	407.06	414.56	417.31	413.44	417.19	402.25	398.25	410.75	412.44	409.75	402.38	390.81	419.38	413.75	421.00	405.50	408.12	404.69	404.44	406.56	408.81	410.19	424.31	430.38	435.75	434.62	435.19	441.31	453.31	450.75	439.56	424.31	421.88	422.69	424.62	423.50	427.38	433.50	441.44	446.94	457.50	460.94	461.00	461.94	466.50	469.44	469.88	468.69	456.44	461.19	457.19	458.12	461.44	457.94	454.56	449.50	452.44	454.56	455.44	455.69	455.56	456.00	456.94	458.19	457.94	457.88	459.06	459.06	457.69	459.19	459.94	462.88	464.50	465.19	466.50	468.12	468.81	470.12	471.19	472.75	475.12	476.56	477.56	479.19	482.44	487.81	490.31	490.00	490.69	492.44	495.69	501.44	505.94	506.38	507.62	509.19	512.19	512.62	514.12	515.75	517.31	519.62	523.56	527.88	532.56	535.69	535.81	539.38	543.81	545.00	547.69
