328.62	302.94	265.88	278.12	256.19	255.81	216.31	238.06	247.88	262.19	295.50	313.75	331.38	378.75	469.69	557.38	508.00	544.44	520.69	497.38	558.00	587.44	455.50	544.31	534.56	489.69	541.88	433.00	469.56	571.56	684.75	689.19	684.19	549.25	576.81	528.44	648.38	736.06	666.56	552.38	625.25	701.31	647.56	718.50	612.31	569.56	550.50	620.81	542.62	444.81	442.56	584.06	624.06	538.31	435.88	480.12	520.31	547.50	491.19	484.12	584.56	658.50	596.75	583.31	501.50	519.94	603.50	690.31	754.38	728.31	762.50	861.38	821.81	822.88	745.69	631.31	658.31	716.81	687.25	595.06	686.06	684.12	733.06	625.00	523.12	543.56	571.00	528.56	563.12	537.06	517.56	533.12	492.25	453.56	432.38	434.88	433.38	470.06	482.19	469.88	467.62	478.31	525.94	545.31	568.88	540.69	510.44	525.44	511.81	519.62	532.00	571.00	600.50	608.00	609.12	576.38	572.75	553.00	560.25	554.50	532.88	507.56	477.88	452.56	417.69	399.94	407.81	408.19	411.50	416.06	426.06	447.81	470.88	493.00	508.44	515.19	536.44	545.94	541.69	545.56	544.88	535.50	547.88	568.94	596.38	628.38	753.06	928.19	963.69	989.56	934.38	809.44	743.94	735.19	710.06	754.12	803.62	838.94	881.25	853.94	892.44	947.94	840.38	844.50	830.56	846.88	854.12	648.94	629.25	553.81	518.88	519.69	482.69	485.75	495.69	481.00	450.88	430.75	419.56	408.12	398.75	389.00	392.44	392.19	402.75	421.75	445.50	454.06	519.88	538.44	586.31	643.00	708.19	616.25	617.38	566.19	463.75	500.31	543.81	655.88	500.38	510.19	529.69	519.44	483.81	432.94	395.25	349.69	325.44	323.06	331.56	352.06	368.62	381.00	380.12	394.56	450.25	570.44	668.12	798.19	820.81	718.06	603.56	482.88	465.88	615.50	699.50	642.94	591.12	640.12	574.75	523.56	385.31	327.31	302.38	281.00	270.19	255.06	239.62	220.94	222.38	232.38	228.19	223.62	218.81	226.00	214.38	210.88	206.38	205.50	203.12	201.69	195.75	192.38	182.00	178.31
308.12	240.88	215.62	222.06	183.81	188.44	232.31	277.62	318.50	358.38	309.31	391.75	375.50	464.56	576.00	503.38	449.88	540.69	422.12	515.25	527.25	482.75	434.62	466.00	589.69	442.94	398.25	372.06	469.38	538.19	611.38	609.50	704.00	629.12	474.62	489.25	582.62	650.62	689.00	540.69	489.12	634.12	547.25	569.56	587.38	654.94	681.56	734.06	602.88	487.50	525.25	507.19	607.81	530.62	499.69	480.25	539.12	566.88	550.88	471.56	572.06	683.75	764.12	631.38	639.31	547.75	553.44	619.81	677.25	621.06	737.88	911.56	841.62	706.88	767.19	671.31	822.88	865.06	769.69	614.62	704.62	794.69	715.81	604.00	528.38	543.31	605.69	673.69	686.44	687.50	588.44	507.50	463.62	441.38	439.38	431.62	420.62	432.44	441.38	459.50	498.31	530.00	548.62	554.25	562.56	550.69	511.19	491.12	489.56	489.00	509.06	527.19	542.69	574.94	600.81	580.50	574.19	505.12	492.00	494.88	477.00	452.12	430.69	415.06	401.62	392.62	401.12	404.50	406.62	407.81	425.31	470.69	504.25	515.62	512.12	499.94	492.19	489.81	485.75	498.25	526.94	521.94	532.12	547.06	572.56	606.12	666.88	750.81	837.06	859.81	835.50	769.75	836.19	779.75	774.62	722.25	756.00	802.44	841.00	860.50	930.31	966.25	933.69	911.06	814.44	914.75	837.19	710.81	783.00	600.62	559.19	535.12	524.31	538.56	512.81	455.44	439.75	431.50	430.06	422.00	418.31	399.56	394.56	389.69	388.38	413.75	436.88	438.50	511.50	598.75	653.75	656.06	715.38	690.00	641.56	564.06	509.00	438.44	469.00	551.88	498.31	493.00	585.44	611.25	552.56	503.94	494.50	376.00	337.06	316.38	317.00	327.38	341.94	360.94	359.12	376.94	426.50	498.56	624.56	697.75	776.62	808.12	668.81	568.62	421.75	573.88	580.81	571.62	559.56	645.00	548.12	507.75	402.88	298.62	282.62	269.50	257.81	240.88	227.44	219.12	217.56	222.44	225.31	223.00	222.38	213.88	211.19	210.94	206.88	208.50	207.00	204.75	202.50	196.75	192.38	190.25
292.38	232.00	175.44	165.50	204.19	267.25	305.69	380.69	381.50	454.12	352.19	445.94	491.81	470.25	528.12	440.56	410.81	483.88	373.25	445.62	529.75	431.94	386.62	473.56	549.19	450.31	375.19	366.19	424.31	496.00	552.19	573.25	596.62	559.25	455.94	465.38	538.81	596.44	590.25	546.75	453.56	574.12	552.50	489.06	521.88	609.50	677.75	630.94	636.50	625.75	648.75	597.88	666.50	587.88	587.88	557.06	558.19	596.50	614.31	593.44	568.31	589.06	780.50	733.62	760.25	654.19	578.06	577.69	620.75	650.81	759.56	875.19	810.44	795.06	823.25	693.25	835.31	861.38	736.38	627.62	677.25	699.06	634.81	575.31	569.88	638.00	665.50	753.38	647.81	605.75	525.06	488.62	455.00	481.00	529.06	475.12	419.06	419.19	479.00	518.19	546.62	539.25	511.88	503.81	546.38	547.44	513.06	485.38	478.88	475.75	479.75	488.81	518.00	551.00	542.19	525.81	551.88	502.56	460.88	454.25	438.69	423.12	412.12	407.38	414.44	447.50	410.38	398.50	401.44	406.88	424.44	460.62	480.94	486.38	477.00	459.69	455.31	461.56	473.81	495.94	513.19	518.56	514.12	527.81	555.56	577.88	606.19	646.12	711.56	818.62	880.44	857.19	894.88	804.75	835.31	777.19	785.31	856.31	901.81	941.38	969.94	925.31	926.00	820.94	785.75	794.56	762.12	777.19	723.25	622.62	630.44	585.12	570.56	545.69	510.44	462.69	443.88	435.75	436.19	424.56	430.44	418.06	411.12	391.31	384.56	397.19	420.25	423.69	471.38	564.81	644.69	747.69	690.44	632.81	574.06	547.81	594.50	474.00	415.81	450.50	503.19	481.56	522.88	533.06	571.88	558.75	472.62	394.56	339.44	319.56	313.31	317.94	323.00	339.75	342.06	367.38	389.81	419.50	470.88	510.62	635.69	701.44	610.12	517.81	406.38	500.19	492.69	457.44	493.75	502.19	477.81	401.31	346.38	285.75	265.69	255.81	248.56	234.75	215.19	212.12	209.50	211.12	216.94	218.19	217.06	213.69	212.69	212.62	209.81	206.50	205.06	203.75	203.25	199.69	197.69	197.50
236.56	196.06	143.38	164.56	288.06	372.69	418.88	466.00	480.44	519.19	420.44	447.94	561.62	507.12	485.69	437.50	350.19	366.50	321.94	368.44	453.00	470.38	351.69	488.94	530.44	413.12	339.44	412.25	496.06	565.31	567.69	558.56	591.56	515.81	434.81	435.31	484.25	556.88	543.00	569.88	472.81	474.19	462.25	468.62	603.69	627.94	693.56	604.38	510.38	562.25	584.25	584.75	627.75	533.69	567.81	533.19	506.44	585.00	600.25	655.94	648.88	668.88	726.69	615.56	638.75	664.00	683.00	677.62	709.88	780.31	698.12	804.25	829.31	810.00	719.56	739.19	770.94	867.56	749.38	660.38	704.94	676.94	630.75	669.62	646.12	661.31	644.12	624.56	653.44	567.50	489.50	479.44	464.06	539.88	557.75	478.38	431.00	412.75	462.81	498.38	489.38	482.44	471.88	507.69	509.19	498.56	508.00	522.25	505.25	478.00	462.62	468.44	490.00	501.00	492.06	492.38	496.12	471.06	445.31	435.25	425.75	413.50	415.62	437.31	464.12	515.50	457.81	385.00	397.25	411.00	415.25	421.75	428.81	435.44	432.25	427.88	454.38	479.94	481.75	471.50	479.81	500.69	498.06	507.19	529.56	545.19	572.12	604.69	648.94	733.12	848.81	901.69	906.75	844.88	888.81	844.81	829.75	806.00	884.81	986.75	937.50	885.50	935.31	884.06	926.19	897.25	886.50	871.50	760.75	669.75	673.19	609.19	551.44	515.25	485.81	465.75	455.56	444.00	435.50	429.50	421.94	411.62	407.81	394.38	385.81	384.94	395.19	412.00	453.62	501.12	568.75	638.19	701.50	666.62	606.06	548.31	496.25	513.00	499.19	408.56	408.94	445.31	470.00	540.81	570.31	531.31	459.62	380.25	329.38	319.69	309.25	310.00	309.56	315.62	324.44	332.75	336.69	345.81	387.56	427.62	470.81	500.31	482.25	443.62	390.31	359.19	413.56	388.00	423.12	383.69	383.62	355.12	306.62	276.38	256.88	253.31	249.31	227.88	224.69	224.06	215.31	207.06	207.00	214.50	214.81	213.06	213.38	213.62	208.44	205.19	205.12	201.38	199.62	197.75	197.00	194.88
178.25	146.56	122.06	166.88	249.81	321.38	370.31	405.19	443.19	509.06	462.12	498.12	526.62	412.38	406.88	433.88	327.62	296.12	315.25	358.12	408.00	398.94	332.94	505.31	499.06	384.50	345.88	486.31	573.38	513.69	552.62	498.06	581.88	564.38	475.31	409.38	536.88	556.38	535.81	506.19	546.69	408.31	450.94	576.94	588.00	596.06	629.50	618.81	521.56	456.38	459.75	537.25	515.31	471.69	569.12	537.75	460.00	539.75	528.00	627.50	554.94	629.06	586.12	517.69	529.94	583.06	666.75	789.31	841.50	930.81	764.44	888.38	822.31	819.25	764.12	839.62	858.69	871.00	760.38	735.81	813.75	745.94	693.56	679.94	607.25	567.38	537.19	517.19	546.62	511.94	462.00	496.88	495.19	528.75	527.94	470.06	444.50	419.44	412.00	439.19	441.06	446.62	483.88	499.06	458.44	454.75	514.56	570.62	539.88	494.69	466.38	453.38	455.50	455.06	453.94	455.12	448.62	436.00	427.12	428.81	426.12	440.00	466.06	487.31	507.19	510.69	455.94	383.44	388.06	399.56	417.19	441.31	430.38	426.12	426.62	423.38	442.31	465.25	468.50	458.12	462.56	478.12	485.69	497.88	516.19	532.19	552.69	577.62	601.19	637.12	718.12	826.00	846.50	908.81	865.81	891.19	896.81	831.38	849.25	951.75	935.56	845.81	909.44	937.00	983.56	985.69	872.81	805.19	711.94	645.81	627.12	652.50	595.00	531.62	490.75	476.94	467.31	452.62	445.00	431.81	428.25	406.31	399.50	390.75	383.00	377.19	386.81	413.56	439.94	472.88	533.44	626.00	710.38	698.25	580.12	530.69	543.19	579.81	542.69	499.25	414.81	394.50	487.25	545.62	508.81	411.94	365.31	336.31	319.88	311.50	308.62	308.75	310.31	302.69	300.44	298.56	300.44	306.94	337.19	380.06	408.38	376.31	371.50	365.12	390.38	365.69	339.19	385.19	488.69	402.38	351.94	399.94	282.56	257.88	255.50	256.94	262.69	243.31	244.31	237.50	229.50	218.12	201.81	205.69	204.06	208.38	212.38	217.50	209.12	205.06	207.12	202.19	199.19	195.69	196.00	193.94
135.44	117.81	112.88	144.50	184.56	218.19	246.81	284.94	363.69	450.38	371.19	408.19	383.38	352.94	330.50	356.06	345.00	274.12	294.56	316.56	403.06	436.44	322.06	496.81	453.44	330.12	399.69	516.69	481.69	451.56	530.69	493.69	483.69	494.06	476.38	394.56	508.94	493.06	557.94	468.94	504.62	394.75	488.00	603.38	510.44	580.31	549.75	542.25	546.12	417.44	418.81	486.62	453.75	509.69	605.00	547.62	444.06	455.00	554.94	601.38	478.00	494.12	489.00	518.06	551.12	631.69	652.19	669.12	791.81	870.31	834.50	918.12	843.38	921.31	811.19	790.25	826.75	797.00	795.56	798.94	794.00	708.06	637.69	611.19	556.25	508.44	491.50	483.75	478.69	465.44	446.12	540.94	547.69	527.00	534.31	503.81	460.19	421.44	408.38	408.62	440.62	471.12	473.50	454.19	436.81	475.75	532.31	552.06	519.81	498.44	478.94	471.81	479.69	473.44	455.94	439.31	436.56	430.44	430.69	436.62	431.19	473.75	512.88	511.94	501.19	485.69	450.56	391.94	382.56	386.31	404.88	453.69	474.00	471.62	463.94	446.69	442.19	451.19	455.81	455.75	464.25	478.62	490.75	503.88	506.81	516.69	530.38	547.25	564.06	598.94	647.19	728.06	763.19	908.69	913.38	946.50	926.12	916.12	920.12	931.88	875.25	868.12	1014.94	1043.44	1043.00	1072.38	973.00	916.62	775.88	707.25	627.88	628.50	612.94	535.81	495.31	478.62	465.12	454.75	459.75	468.62	452.25	426.25	416.44	391.94	379.62	369.62	374.75	401.62	435.75	468.75	537.88	648.94	675.69	669.62	591.12	598.44	638.50	639.06	622.69	563.75	475.88	387.44	396.62	437.25	410.38	362.31	336.12	324.81	316.06	314.44	316.25	317.69	316.50	309.50	305.62	303.38	298.38	294.25	299.50	307.56	333.88	317.75	320.81	278.25	314.94	361.12	303.00	359.75	416.56	363.62	309.12	306.62	264.81	264.62	282.12	307.44	293.94	254.38	256.19	248.62	239.06	224.19	209.44	202.00	198.19	198.00	204.50	209.44	207.69	204.19	202.25	201.62	197.75	198.00	195.94	192.81
97.62	98.56	103.75	114.75	134.81	155.19	178.25	207.44	249.75	292.25	289.00	266.50	268.69	311.06	266.69	286.25	340.94	286.81	249.06	279.50	357.31	467.31	330.81	425.19	448.12	309.62	380.12	408.25	421.25	462.06	532.62	555.69	478.62	427.75	412.62	381.81	430.44	438.88	530.50	449.88	440.69	361.88	431.62	544.81	441.12	536.94	491.75	483.00	536.44	408.69	385.00	413.06	480.94	578.50	583.94	598.75	476.50	426.75	493.94	460.38	436.56	464.56	497.81	587.88	656.88	697.81	806.25	755.31	795.31	784.81	751.81	837.19	798.25	836.56	798.44	691.25	648.25	667.62	675.75	720.81	639.44	631.06	585.06	547.25	514.06	491.25	482.56	485.69	489.94	485.50	458.38	533.94	561.25	545.81	521.69	478.25	441.94	433.12	414.44	396.56	453.88	467.12	433.44	417.69	451.88	511.75	532.06	488.50	454.06	488.94	502.75	522.12	528.00	512.31	480.19	435.06	460.62	455.12	459.62	472.25	439.44	476.69	516.44	498.94	463.62	460.44	436.06	405.75	378.19	383.69	389.81	415.69	470.31	489.25	493.50	484.94	474.12	481.31	476.25	463.38	468.88	491.69	505.62	512.31	491.62	501.12	514.44	523.88	542.25	580.69	609.38	689.44	758.19	850.56	881.50	952.88	982.12	964.50	911.81	791.25	801.00	916.88	943.56	987.56	1013.88	1140.44	1162.25	919.00	749.75	715.69	659.50	592.69	556.50	537.06	510.25	499.69	480.62	468.12	494.12	516.69	501.75	472.75	443.06	396.88	380.50	369.69	368.25	375.88	409.31	436.62	492.94	565.38	634.81	642.31	646.81	646.50	640.06	602.75	549.56	519.94	465.81	407.06	361.88	352.38	347.19	335.44	327.56	327.56	327.12	322.94	331.25	334.38	326.75	322.38	323.75	331.38	334.50	310.50	300.56	295.69	290.25	284.00	282.94	280.00	293.06	277.50	269.25	301.44	279.62	271.94	281.69	288.44	290.56	327.75	374.81	412.81	311.62	272.88	269.25	262.88	249.50	231.94	220.31	211.62	206.31	192.44	192.75	203.00	204.00	203.88	201.44	199.75	198.44	198.50	192.69	193.62
84.62	98.12	100.88	98.62	108.38	125.12	141.38	160.38	183.88	195.62	216.00	207.00	225.50	293.88	227.25	256.12	298.00	308.38	229.00	239.75	333.75	465.38	383.12	318.62	373.75	282.75	338.25	411.62	525.75	535.75	495.62	528.12	508.00	465.75	450.75	413.12	370.62	380.88	404.00	390.75	387.25	346.12	437.25	489.50	418.75	461.62	415.62	480.88	481.12	396.38	359.38	473.62	556.50	587.88	505.88	585.50	482.62	373.75	393.88	410.75	449.62	534.38	560.12	566.75	666.12	803.12	803.50	807.50	824.62	702.00	701.25	651.00	682.12	814.75	780.88	731.00	605.00	582.75	595.00	619.62	540.12	569.38	558.88	524.88	500.75	496.38	545.75	571.25	560.50	522.25	477.50	519.00	548.12	541.88	482.88	450.50	444.62	493.25	438.25	395.75	403.50	420.62	403.62	420.00	482.62	514.00	502.88	448.25	425.88	478.25	505.75	524.38	497.38	478.50	463.62	449.88	485.62	472.50	471.12	485.50	442.62	459.12	498.12	504.25	451.12	427.25	419.50	405.12	376.88	380.50	386.38	397.25	431.38	458.62	478.12	499.25	510.12	523.50	517.62	486.88	464.38	482.50	501.62	513.00	484.88	491.00	505.50	516.12	534.75	565.25	604.25	636.12	704.62	797.12	778.38	920.00	915.00	929.25	865.88	776.38	833.25	948.12	980.75	1010.12	1112.25	1156.88	1121.50	966.88	776.88	746.62	733.00	622.75	580.62	605.75	560.50	554.50	516.50	479.88	487.88	511.38	523.88	477.88	433.88	396.50	384.88	372.38	365.75	368.75	392.50	420.25	454.50	504.00	560.25	691.88	649.38	607.38	652.50	526.12	476.38	463.25	487.12	442.75	367.00	344.75	333.75	329.12	338.50	393.88	363.00	338.88	345.12	340.38	328.12	338.50	342.75	362.38	391.12	341.12	322.50	327.62	315.25	307.12	299.38	292.25	310.38	315.38	267.62	271.62	265.75	285.62	302.38	314.38	354.25	462.75	530.00	498.38	314.38	286.00	277.88	269.62	257.62	242.62	231.25	214.50	212.25	199.88	190.88	197.38	197.38	201.25	201.12	197.12	197.62	196.12	195.12	196.12
79.75	93.12	95.50	96.94	98.69	104.25	116.38	130.50	145.75	151.00	171.62	178.50	203.50	283.12	226.88	230.75	249.75	278.81	216.00	221.81	290.56	396.06	408.44	278.62	279.44	286.88	415.12	473.81	468.62	451.69	426.19	490.31	422.56	446.69	473.50	472.50	417.38	378.88	357.25	343.56	344.75	336.19	418.75	413.56	418.19	401.12	421.44	488.81	434.75	362.19	349.44	522.62	556.38	542.88	443.94	485.94	393.81	383.56	410.19	437.81	493.50	562.56	694.06	680.56	640.25	753.75	680.50	708.31	755.38	757.88	632.62	691.81	791.56	862.44	824.25	791.38	626.50	524.88	550.06	581.69	508.38	525.06	539.19	521.75	519.69	547.50	615.81	601.44	554.12	525.44	496.31	540.12	540.88	544.94	499.69	492.31	483.44	500.25	438.31	403.19	384.12	395.25	403.56	446.19	491.62	475.00	471.19	434.81	412.19	447.06	460.12	490.31	500.94	472.88	454.25	476.81	503.81	479.75	484.88	489.44	451.56	471.50	485.62	504.25	460.94	465.31	455.56	434.69	382.69	372.31	379.19	407.69	423.88	431.19	450.38	474.50	505.19	526.75	532.44	512.00	488.75	476.25	484.69	511.50	488.94	486.19	497.12	506.50	525.19	553.50	579.81	604.50	640.69	722.75	720.62	843.94	811.12	928.12	949.06	856.50	713.56	871.12	968.62	1025.31	1034.56	973.94	968.44	894.88	828.62	760.06	712.56	619.44	656.06	650.56	615.69	588.94	559.75	517.44	508.06	505.94	493.38	454.19	421.94	396.62	390.38	379.38	365.50	364.81	381.25	412.19	435.12	479.12	602.88	691.31	587.25	544.88	549.38	543.62	547.88	549.38	520.94	401.12	347.25	341.12	342.81	361.88	376.44	476.31	398.38	346.75	350.56	346.62	337.19	355.88	366.00	428.62	468.25	369.06	351.19	362.62	333.50	330.00	325.25	317.12	316.00	392.56	311.56	276.62	288.62	316.38	324.31	327.31	375.94	482.50	563.12	469.38	316.38	316.31	280.12	264.69	256.00	244.44	234.50	217.69	212.88	208.31	191.31	188.94	190.19	199.69	199.06	197.56	195.19	194.12	193.62	192.38
75.88	78.44	84.94	92.44	94.50	98.31	106.94	111.94	119.62	130.12	144.31	149.62	171.44	207.25	191.62	197.25	204.19	232.69	206.12	209.75	259.69	335.06	433.12	323.25	230.88	275.00	380.06	429.81	360.44	345.50	395.44	443.00	331.81	390.81	420.12	436.25	453.25	443.38	425.88	396.00	325.25	316.75	358.31	348.69	377.06	352.81	412.38	468.94	449.50	330.31	360.00	527.81	459.75	472.69	374.56	350.69	351.69	422.56	453.44	486.06	556.00	642.94	790.75	819.81	706.69	697.88	601.69	661.50	706.75	755.81	611.12	680.12	894.38	827.19	689.06	699.75	598.81	532.00	493.06	527.00	487.06	472.94	508.88	571.50	581.44	561.44	597.88	551.81	479.62	470.62	464.38	512.00	516.00	550.38	541.81	507.75	497.88	474.56	430.44	406.00	388.50	382.38	415.25	456.38	471.38	431.19	432.12	430.31	397.56	415.19	446.06	503.19	528.81	492.25	471.00	497.38	524.00	482.25	509.56	499.69	470.19	510.06	516.62	519.62	497.50	498.56	464.88	423.56	390.25	378.94	369.12	397.19	483.44	492.06	480.00	462.00	468.62	490.50	514.50	538.69	543.94	525.25	500.75	511.31	492.62	478.81	484.19	490.50	509.44	532.00	542.38	571.06	596.12	608.44	676.94	736.06	710.81	803.56	806.25	811.62	710.94	701.62	904.50	891.12	912.62	936.81	881.62	833.06	870.44	746.56	654.31	669.56	757.00	695.44	686.44	626.75	611.62	592.50	578.00	538.25	469.81	440.69	413.88	396.62	389.38	380.19	367.75	360.50	365.31	388.94	409.50	454.94	573.81	612.25	521.38	474.38	442.25	512.75	602.19	485.44	386.69	345.69	337.69	373.88	434.12	514.12	389.12	472.38	420.31	357.31	358.50	353.12	354.69	373.19	412.12	524.06	493.88	419.69	460.44	421.75	363.81	397.50	418.75	370.19	327.06	371.44	422.19	349.19	332.62	402.44	384.19	427.12	394.88	449.12	513.50	393.00	339.06	419.62	312.62	272.75	258.62	246.69	238.50	223.88	216.50	209.81	202.06	195.00	186.06	192.50	193.44	195.19	194.56	193.19	191.62	190.56
78.62	78.25	80.62	82.06	90.56	104.19	108.19	111.06	115.62	122.12	125.56	132.00	150.00	154.62	151.69	169.06	177.19	193.19	183.62	202.31	266.50	334.88	373.69	331.69	224.56	250.69	358.88	357.00	312.56	387.31	430.94	424.88	300.81	360.12	416.00	357.94	367.75	381.00	449.50	482.88	457.56	320.88	303.06	312.00	317.38	327.75	384.06	474.06	474.25	311.94	454.38	522.00	377.56	357.06	327.25	338.88	373.56	456.44	525.88	625.94	560.19	621.00	764.00	675.38	637.19	593.31	603.31	696.50	633.56	664.94	635.56	750.50	796.38	751.62	650.62	609.56	597.62	613.06	516.00	461.75	451.38	493.88	577.38	605.12	542.69	473.50	496.81	457.75	425.75	410.94	407.25	469.88	505.12	518.50	520.69	475.31	448.81	436.81	438.25	412.50	391.75	381.38	399.75	423.31	449.50	426.75	405.38	414.69	389.06	428.56	475.06	519.19	501.69	503.81	497.12	506.50	534.06	520.06	539.50	508.12	485.00	525.12	549.75	519.19	476.06	468.62	455.19	430.44	407.38	385.88	379.19	397.69	489.94	510.88	531.62	529.12	522.00	507.31	496.06	519.38	544.19	560.88	547.69	530.50	514.44	484.12	469.88	476.06	496.25	503.56	518.31	539.62	552.62	564.44	586.81	608.69	626.19	656.94	671.12	759.31	705.62	648.06	785.00	772.19	898.81	966.69	937.94	808.75	949.06	873.44	699.19	742.50	783.31	747.94	777.69	677.81	632.44	598.00	567.12	534.50	475.25	452.81	421.75	405.62	396.31	384.50	373.44	364.19	357.19	360.75	378.31	414.19	494.50	567.75	512.38	512.75	465.88	446.88	446.12	366.62	337.69	339.12	412.88	428.56	465.38	515.88	409.12	399.69	408.69	373.81	371.50	364.44	375.31	399.44	440.00	536.75	527.94	492.69	518.44	462.69	421.81	450.88	525.75	453.81	360.56	331.62	469.62	523.50	449.75	467.56	478.38	500.12	458.50	522.38	548.50	415.69	423.06	493.31	349.19	298.00	277.38	259.00	248.69	232.56	223.19	213.06	201.94	198.50	189.38	182.56	182.19	184.50	189.75	189.56	187.75	185.38
92.19	86.31	83.69	83.69	85.38	88.31	93.44	103.88	109.69	114.31	112.75	123.88	135.81	136.38	143.69	154.69	160.94	168.06	174.00	189.94	245.56	302.88	309.38	295.00	208.50	235.12	295.31	290.38	329.19	405.88	380.25	353.50	275.19	339.38	390.25	319.06	321.38	381.06	426.00	470.44	488.06	395.56	340.06	292.31	287.56	304.12	369.31	458.81	450.38	303.19	429.06	414.88	329.31	307.94	329.31	393.00	416.88	489.81	579.19	719.31	655.69	648.00	693.38	593.88	592.56	552.94	612.94	751.44	612.56	550.19	644.50	703.81	670.50	661.19	681.81	610.88	552.38	594.62	594.56	499.38	442.19	505.94	591.25	540.12	497.69	426.12	430.12	405.31	385.38	380.50	395.06	487.06	489.38	467.19	477.44	447.94	418.31	418.69	446.88	430.19	395.94	381.56	384.31	401.00	424.06	426.31	393.50	390.31	385.88	422.81	468.69	499.94	466.19	476.38	485.62	493.50	527.62	563.25	570.12	543.50	539.69	546.19	524.12	478.50	445.00	432.31	429.00	413.12	394.81	384.44	375.19	388.62	441.19	472.19	509.06	550.75	578.31	573.50	538.00	523.44	534.62	562.81	568.94	541.38	524.69	508.25	486.56	478.00	481.50	487.75	496.56	512.94	523.75	534.81	544.62	562.31	572.88	589.81	606.31	669.25	624.50	633.31	695.69	770.88	804.38	846.81	893.56	775.56	875.88	840.44	736.56	806.00	807.38	828.94	807.31	690.31	619.62	569.12	535.69	512.44	480.62	461.25	428.81	411.81	400.44	392.62	386.12	376.00	360.31	353.69	355.88	369.31	408.62	461.69	549.00	668.88	586.25	414.50	362.25	336.69	337.81	361.25	450.06	438.12	481.94	483.88	421.56	387.38	441.38	403.19	393.56	374.19	385.19	415.31	462.19	549.62	619.19	613.88	538.69	561.88	532.94	496.94	539.50	456.69	384.06	345.00	436.38	576.25	469.25	435.69	506.88	496.81	459.81	508.75	492.94	382.31	430.31	467.81	376.31	325.19	300.56	282.00	267.75	248.31	233.94	218.06	200.00	192.00	190.94	188.12	185.19	180.69	181.31	181.00	178.00	175.19
122.62	113.06	101.75	99.62	88.88	87.75	89.06	91.62	94.88	100.62	103.38	116.00	128.69	122.81	132.62	138.56	146.81	160.81	172.25	188.56	226.25	272.75	254.38	252.56	198.19	223.75	247.25	280.00	350.38	348.19	301.31	284.56	254.56	332.12	331.81	280.94	309.00	353.25	345.12	396.06	430.62	464.56	389.69	357.25	325.50	286.50	320.44	395.19	378.69	286.12	322.31	305.00	294.50	327.19	394.00	492.88	566.44	556.69	646.81	681.50	632.25	566.62	610.12	571.94	562.19	541.19	571.06	688.88	624.69	491.19	585.06	573.94	582.75	584.00	677.25	676.06	574.69	516.12	543.75	508.31	442.00	446.56	523.94	463.69	427.50	388.25	386.88	385.12	361.81	376.69	424.38	513.81	489.50	440.69	429.75	416.19	400.75	400.88	422.44	426.94	399.94	384.56	373.06	386.75	412.38	429.25	399.31	374.88	389.25	419.69	452.06	456.56	430.12	429.56	437.50	464.94	514.31	561.62	557.62	577.12	591.38	580.56	532.38	483.19	456.56	450.38	444.00	409.69	384.62	380.00	374.31	379.19	439.81	449.88	469.81	526.12	577.44	600.25	578.56	560.88	560.19	571.88	564.38	523.25	508.69	504.00	502.56	497.50	475.88	473.19	477.12	487.00	495.06	505.56	511.25	528.75	536.19	548.69	560.12	577.00	568.88	656.50	692.25	732.94	781.25	786.38	802.06	744.44	801.44	873.31	819.25	889.56	896.69	896.31	888.94	778.00	690.69	613.25	553.75	515.69	498.62	479.94	450.50	440.31	424.50	406.75	397.31	388.06	371.94	364.44	358.50	352.25	352.19	384.06	522.31	572.06	464.31	366.88	337.50	338.56	395.94	416.69	456.75	485.75	525.31	508.81	456.00	396.12	500.81	468.31	424.56	388.19	385.25	413.00	458.00	545.19	620.06	667.38	551.69	597.31	577.75	514.62	464.94	423.88	418.81	367.06	388.44	495.62	476.62	541.81	591.44	616.56	573.12	601.25	550.00	406.19	496.00	533.31	451.69	365.81	327.50	306.56	286.12	264.06	243.94	225.44	206.44	191.75	190.81	196.38	191.38	184.94	181.00	178.69	176.00	175.44
132.88	139.88	138.25	140.00	102.75	92.12	92.88	93.00	92.88	95.25	94.88	99.50	104.25	108.25	118.50	132.75	144.12	160.12	176.88	193.38	226.88	265.00	226.50	210.00	191.25	213.50	245.50	277.75	348.50	345.12	278.50	237.50	261.25	317.50	283.38	250.38	290.88	310.50	305.12	336.25	377.00	471.75	427.38	487.75	461.38	326.62	271.75	304.50	309.50	269.75	270.50	274.50	326.25	431.38	533.62	596.75	640.38	626.88	641.62	569.50	556.25	501.50	635.75	628.75	517.38	493.12	538.12	616.12	534.00	469.00	535.62	514.50	533.62	577.12	640.38	694.88	638.38	531.25	483.25	443.75	427.75	405.00	437.25	422.50	394.75	371.38	363.00	359.12	354.25	389.25	441.12	531.75	508.38	447.62	422.38	411.75	396.00	384.00	393.62	405.62	389.00	381.50	373.88	383.12	419.88	428.25	409.00	376.00	399.38	431.25	436.75	415.75	398.88	400.62	431.00	490.75	533.00	532.38	508.38	548.50	571.62	562.38	523.75	525.50	502.12	476.12	461.25	421.50	381.00	375.38	365.25	381.88	486.75	503.12	492.00	502.25	553.62	579.75	562.62	540.75	535.25	542.50	534.62	509.12	488.00	477.00	502.12	517.50	493.38	463.62	463.75	472.12	475.50	481.75	490.50	503.25	511.50	523.25	531.38	546.12	547.50	594.50	684.12	729.50	853.88	809.50	733.62	776.38	889.25	980.50	939.75	902.12	808.62	862.12	937.38	838.00	725.75	666.12	576.38	547.75	536.12	512.00	479.75	475.88	452.38	420.75	405.62	390.62	382.38	378.75	367.12	355.38	352.62	352.88	370.62	372.75	354.38	341.00	344.12	404.38	484.88	474.12	539.00	572.50	623.88	589.88	505.62	411.62	563.88	547.75	454.88	403.00	392.88	414.12	477.38	510.62	551.25	643.00	649.62	613.25	585.62	617.88	545.12	453.62	408.12	377.88	436.88	493.62	577.00	669.75	709.88	738.75	650.50	664.25	606.75	435.62	576.62	627.88	557.25	410.00	350.62	322.62	299.38	270.12	247.50	227.00	209.12	197.50	188.62	190.00	193.50	190.25	183.12	178.88	177.75	178.25
152.25	161.25	153.25	150.62	127.00	96.50	98.62	105.38	101.75	101.62	102.25	106.62	102.12	101.38	115.88	129.12	137.88	149.75	161.25	184.25	255.00	289.50	217.75	175.25	185.25	214.25	262.75	314.12	378.38	366.38	283.75	210.25	258.00	283.88	244.88	234.25	254.50	270.00	299.25	339.50	387.75	469.62	522.12	532.00	446.62	390.62	283.50	252.62	256.25	251.12	270.00	341.38	444.88	521.00	499.75	473.25	478.62	545.38	544.12	493.88	541.12	471.00	557.62	563.25	490.00	441.12	498.38	555.38	489.38	454.38	491.00	555.75	579.12	679.50	733.12	740.75	621.75	605.75	536.25	518.00	510.25	412.00	385.25	384.25	379.12	355.25	350.25	364.12	389.75	408.12	438.38	497.25	503.12	470.62	459.62	452.00	413.38	392.75	380.62	382.25	385.12	389.00	378.62	379.38	410.38	413.25	388.62	373.25	392.25	407.12	401.75	386.38	383.62	402.25	431.12	486.50	524.25	491.50	464.88	488.12	508.00	528.12	496.50	509.12	504.50	456.50	429.25	415.62	395.38	364.88	354.38	372.38	454.00	505.25	521.25	522.25	525.00	539.62	512.38	489.12	486.88	485.38	493.50	526.88	497.00	469.38	497.75	520.25	511.38	490.00	465.38	457.62	456.25	457.75	469.62	480.25	489.00	503.38	515.88	524.38	536.62	563.00	616.62	702.25	842.38	909.25	777.25	707.38	761.12	773.50	829.25	772.50	835.12	935.50	848.12	744.50	695.00	652.38	686.50	670.88	598.62	555.50	497.50	464.62	442.38	425.50	416.62	397.62	391.25	390.00	369.50	358.00	359.62	364.62	363.38	372.88	367.62	361.00	417.25	510.62	554.25	580.00	560.25	662.50	653.75	619.38	578.88	427.12	496.25	549.00	492.88	417.12	400.62	423.88	492.00	571.38	664.62	741.38	834.62	779.38	685.38	576.00	480.25	472.00	470.38	393.12	419.38	587.38	681.50	781.50	701.88	620.38	584.12	536.88	503.88	433.88	549.62	570.12	495.88	456.00	394.12	329.12	299.25	275.00	252.88	233.12	218.88	207.75	190.25	186.88	190.38	189.12	194.00	185.12	177.00	174.88
165.00	165.31	153.56	133.06	117.12	100.69	119.31	130.00	110.25	111.88	108.81	107.69	106.00	108.50	114.56	123.38	131.38	136.00	147.00	170.75	228.81	239.12	181.44	169.38	191.06	229.12	261.19	299.25	315.00	281.12	244.31	201.75	241.19	255.00	223.56	221.38	250.62	291.00	367.56	411.31	450.38	555.00	477.12	518.94	513.44	389.19	293.44	242.12	241.12	281.12	412.19	510.56	534.81	460.12	400.75	423.56	493.19	525.19	478.25	466.69	566.88	441.62	466.12	461.06	448.12	422.50	484.38	543.44	469.88	464.69	494.88	648.44	660.94	706.94	761.81	645.62	669.94	640.19	564.69	588.44	495.25	424.69	402.81	370.31	364.94	359.38	388.50	418.50	423.50	404.44	395.12	442.19	502.31	489.38	445.25	429.06	402.19	386.88	380.69	376.50	376.06	381.81	377.31	372.88	382.81	393.94	375.00	371.38	376.69	376.62	376.50	380.12	400.25	408.94	435.00	480.44	521.75	500.00	461.44	439.31	460.06	492.50	473.00	463.25	512.50	505.50	466.44	455.00	401.62	367.62	357.00	376.56	423.44	456.56	468.00	474.75	461.81	492.88	484.69	450.94	452.19	480.88	521.00	539.44	492.50	464.56	481.19	495.00	484.69	503.75	501.88	466.75	457.88	459.62	452.88	458.81	474.44	492.94	504.44	510.25	527.38	542.44	604.94	658.94	730.62	838.62	833.81	778.62	653.75	779.06	871.81	753.06	776.38	782.38	797.31	768.31	720.88	671.75	720.31	758.62	664.56	580.38	503.12	480.81	454.62	437.88	462.38	448.38	436.19	389.88	365.56	363.25	379.81	373.69	397.19	444.88	402.94	368.06	435.19	527.94	595.62	585.38	556.69	585.38	565.44	514.69	466.69	502.06	441.81	605.00	544.69	430.81	404.62	435.31	495.56	625.88	654.69	769.44	837.81	716.00	610.75	551.06	535.56	585.06	527.06	422.56	395.56	495.12	603.69	714.88	696.44	738.88	665.44	588.75	479.25	462.81	532.81	578.06	500.50	594.62	456.94	326.25	294.62	268.75	256.19	240.88	228.81	219.44	195.69	184.19	185.81	185.25	191.00	192.06	182.56	189.44
181.44	162.44	135.31	116.25	107.38	100.50	127.31	135.00	114.00	131.75	133.88	122.56	115.75	110.81	110.25	117.69	127.81	130.44	133.00	149.38	186.88	181.88	157.88	168.94	190.19	245.38	258.19	268.81	248.56	225.38	200.88	197.88	233.00	253.81	213.94	231.81	310.19	355.44	392.12	486.12	526.56	578.12	485.00	461.00	499.44	403.94	296.25	235.19	240.69	364.12	454.06	483.62	484.62	412.31	378.44	438.00	449.25	490.88	475.81	423.31	495.69	422.94	410.44	423.19	423.50	421.75	486.75	552.19	440.94	434.56	495.88	587.38	632.62	647.88	709.19	608.69	605.38	683.88	614.75	554.44	536.50	499.81	461.06	385.31	356.00	353.25	417.62	419.19	385.12	364.50	361.00	443.00	525.25	511.81	446.81	417.56	420.19	421.88	394.69	375.94	373.62	373.56	374.31	374.62	381.50	394.00	370.12	372.38	373.19	376.31	383.75	395.00	416.38	424.06	449.75	496.00	527.69	515.38	495.12	452.06	426.00	453.19	448.88	434.31	480.75	506.56	505.12	504.62	439.94	366.69	356.12	376.44	386.31	399.38	413.88	422.12	425.50	446.06	444.19	436.25	471.69	513.94	534.62	524.94	485.50	461.06	483.56	479.38	456.81	478.94	494.06	456.88	461.31	463.19	452.88	450.75	466.31	477.94	486.94	500.38	510.88	524.50	642.88	673.00	658.25	723.31	848.38	781.62	716.19	696.62	764.19	694.50	748.38	815.00	904.88	883.69	797.88	684.19	689.69	728.50	661.44	572.19	560.12	494.88	462.19	499.69	558.00	525.38	466.88	379.00	370.81	381.56	385.56	380.62	408.69	484.50	477.06	380.69	422.38	476.06	494.81	535.50	611.38	639.06	584.31	515.25	569.81	584.44	480.25	628.75	629.94	474.44	417.50	446.81	494.88	625.81	781.31	832.69	852.25	715.88	626.38	719.31	602.31	624.88	536.44	442.75	404.00	452.75	528.88	627.69	736.69	764.38	660.38	528.75	568.31	543.00	530.88	639.25	532.25	532.44	408.94	328.94	301.62	285.12	271.94	257.00	233.44	216.88	211.88	198.00	190.50	187.12	185.69	184.69	181.44	182.44
171.38	140.00	124.25	125.81	126.00	104.50	127.06	140.94	119.06	134.50	142.06	147.94	152.56	129.81	115.50	114.31	119.31	125.75	134.62	138.62	146.25	145.00	151.44	160.50	179.31	202.81	213.81	209.94	197.31	186.19	175.50	206.25	278.69	312.00	229.69	230.88	323.06	389.94	447.25	508.31	438.12	526.44	539.19	411.75	395.44	366.06	275.19	223.81	252.25	384.50	397.00	387.75	412.81	366.50	335.31	367.81	413.88	466.19	435.12	376.06	390.19	363.69	385.06	446.44	438.19	411.56	509.00	537.00	405.38	433.56	576.00	599.62	611.00	654.31	696.62	596.94	530.50	603.06	588.19	488.62	480.19	464.81	429.38	383.31	353.88	340.19	354.12	367.38	345.81	336.81	357.81	455.12	513.31	494.25	450.50	442.81	445.94	416.00	388.75	379.25	376.00	374.25	374.69	374.06	378.00	379.62	367.81	369.38	373.81	377.31	386.94	405.38	426.50	452.75	479.25	508.56	503.00	484.19	460.19	437.94	407.38	411.62	414.00	406.31	429.75	453.88	478.62	492.12	448.31	372.56	359.88	367.25	383.00	405.94	386.31	397.62	404.12	409.81	410.62	427.56	454.75	489.56	501.25	480.50	466.44	473.62	497.81	475.62	434.19	448.50	476.50	441.56	423.56	425.50	461.00	453.81	449.88	459.50	471.06	483.12	494.88	498.06	622.75	633.69	587.19	631.38	737.19	827.88	786.12	622.00	682.44	780.50	913.62	964.31	925.50	822.81	774.19	670.81	605.25	620.94	651.69	580.19	542.88	505.44	506.12	577.69	581.88	508.69	429.75	377.81	389.75	392.69	388.19	388.75	411.38	493.50	567.38	391.81	430.38	497.81	571.25	613.94	696.19	657.75	561.00	596.81	660.50	614.31	527.88	552.81	707.56	556.62	430.62	456.94	495.12	565.25	699.19	810.69	838.38	743.88	666.56	714.31	607.69	574.12	473.06	434.31	420.19	469.56	517.94	614.50	704.69	698.31	604.50	596.12	699.31	653.81	543.06	594.38	471.94	439.62	381.69	336.00	315.06	295.50	281.94	271.75	243.62	222.31	204.69	197.94	194.00	189.25	185.69	185.44	182.00	178.62
144.19	138.50	157.94	164.06	143.88	105.94	131.25	143.38	127.62	130.00	146.25	160.56	174.44	159.06	129.56	120.12	121.31	119.38	128.25	134.75	142.56	148.00	151.00	155.44	161.38	166.31	172.81	173.19	169.31	162.69	166.25	206.31	293.44	285.19	207.94	222.94	292.81	351.00	429.19	491.94	403.19	428.88	428.50	371.62	328.56	323.50	250.69	221.31	253.12	337.94	334.50	332.12	367.50	333.31	310.62	363.12	395.50	379.69	359.88	349.00	342.38	332.00	376.69	475.12	453.44	403.31	506.25	476.81	391.25	449.62	572.12	597.38	622.19	661.69	644.69	621.62	508.62	549.06	587.81	516.19	501.06	460.88	436.12	378.50	350.44	340.38	325.56	336.62	333.44	348.69	379.06	476.00	503.94	479.38	461.06	467.75	431.25	409.12	404.25	398.12	380.12	376.62	375.69	374.12	373.75	371.75	368.12	367.44	370.69	375.38	388.38	414.06	444.06	464.31	482.25	484.50	466.56	445.50	428.81	419.25	416.94	414.25	400.44	391.94	395.06	408.56	423.00	437.38	426.00	377.06	358.75	357.88	405.50	452.00	408.56	433.00	452.19	447.38	432.50	445.44	440.69	447.00	452.88	458.69	489.69	497.06	518.38	484.62	426.19	440.06	476.00	443.75	409.81	426.62	465.50	458.00	435.19	448.88	459.88	467.81	473.94	478.88	573.19	615.31	560.56	585.88	648.38	819.25	764.44	634.69	720.94	850.94	875.38	903.56	804.88	764.88	749.12	683.56	591.19	579.12	642.06	618.12	630.06	575.50	544.00	568.12	544.94	470.94	393.19	382.62	401.31	399.69	396.12	399.81	412.19	475.69	521.62	398.62	456.75	527.94	586.25	603.12	713.38	662.31	605.75	704.38	664.56	577.94	628.94	560.81	613.25	578.44	449.69	459.50	502.62	559.88	607.81	701.12	786.69	782.12	733.56	717.06	586.62	513.88	471.12	481.56	451.19	475.94	530.44	556.69	674.69	711.00	626.88	708.88	770.88	700.56	578.94	680.38	522.44	446.38	375.69	345.88	323.56	299.38	287.00	284.75	260.81	234.75	215.88	212.19	202.62	190.50	187.69	185.81	186.88	183.44
138.62	179.62	204.75	188.75	143.50	116.88	141.12	162.00	142.50	129.38	151.62	168.25	182.12	164.75	152.25	137.50	127.50	119.62	122.88	132.88	135.12	138.00	142.00	146.62	146.12	144.75	142.50	144.38	147.00	150.12	156.12	171.88	198.00	191.00	184.38	215.00	268.00	368.38	432.62	413.62	360.88	313.00	325.00	320.25	285.50	282.12	226.62	218.62	243.62	287.50	284.00	299.50	330.38	295.88	289.38	338.00	328.38	308.00	311.62	320.50	317.00	319.88	395.12	467.12	429.75	376.00	422.88	389.00	409.75	456.62	500.38	543.12	656.88	657.38	568.00	610.38	501.00	516.88	627.50	617.00	587.12	557.38	512.38	394.62	344.88	330.12	311.75	326.75	359.00	377.50	389.00	476.25	503.25	492.75	491.88	483.62	449.75	434.38	444.12	416.25	384.00	377.75	378.00	373.50	374.38	373.00	373.25	372.50	375.00	386.00	391.12	417.75	434.25	435.88	440.38	441.62	442.88	429.75	431.12	443.38	464.12	462.25	435.25	414.75	397.88	377.88	372.38	381.00	380.50	367.38	357.88	351.25	404.50	466.25	438.50	440.50	491.50	487.38	455.12	492.88	487.38	460.00	441.12	462.12	484.88	493.38	528.38	488.38	424.88	427.50	472.75	448.38	400.88	417.25	438.88	442.38	429.00	442.12	453.50	454.00	453.25	457.38	523.38	559.62	524.88	572.50	640.12	858.75	881.62	716.88	696.00	946.38	831.12	865.25	740.38	717.50	683.38	641.62	570.88	555.75	610.25	759.88	776.25	663.50	568.75	516.50	479.25	422.00	385.50	387.00	404.50	407.00	407.75	408.75	414.00	443.75	452.25	407.62	475.50	550.25	607.00	605.12	704.12	653.75	642.38	689.12	583.62	592.00	686.12	591.12	602.25	554.25	476.62	458.75	515.25	598.12	650.88	754.38	918.38	853.62	808.25	771.25	581.62	499.62	575.88	560.38	493.12	456.38	535.88	537.50	577.38	629.50	681.38	789.62	743.88	655.12	632.38	704.25	524.00	445.75	378.38	343.38	330.00	307.25	288.12	276.25	257.00	239.62	219.62	211.50	204.25	193.88	193.00	189.38	186.88	183.75
194.38	244.25	226.75	184.00	133.62	152.12	154.62	180.00	163.62	141.62	169.75	184.50	198.38	185.88	183.12	171.00	156.00	161.62	140.25	124.75	128.00	129.25	131.00	137.38	138.12	138.12	138.88	143.00	143.88	143.50	144.12	150.12	156.25	160.00	174.75	192.25	236.25	319.00	336.50	308.00	262.12	249.00	256.00	265.38	251.75	240.88	211.88	215.25	229.88	243.88	251.50	260.50	277.38	264.88	260.75	269.00	272.00	280.12	294.25	293.25	299.25	331.50	397.25	426.38	379.62	347.38	358.75	403.50	483.88	588.00	651.12	689.50	673.50	607.62	528.50	567.12	470.50	556.62	610.38	527.88	534.12	511.75	455.50	375.88	331.00	320.88	308.62	354.75	350.88	340.12	375.25	472.00	467.50	449.62	454.62	499.25	490.38	455.88	431.38	398.25	385.12	380.00	380.75	376.75	374.62	376.62	372.00	376.00	392.38	411.50	418.50	419.50	393.88	389.25	390.62	397.38	410.75	447.50	470.25	487.25	494.12	490.25	486.50	470.38	462.12	430.38	387.62	365.75	360.62	364.00	356.88	355.12	398.38	449.12	485.25	461.75	479.00	513.75	485.25	524.25	523.38	502.50	465.88	491.25	511.50	507.25	534.38	490.12	429.62	408.62	440.00	430.38	401.75	402.00	411.38	418.50	435.12	444.12	445.12	443.12	441.88	444.88	474.25	483.50	519.62	623.12	692.75	759.50	880.12	747.12	587.50	833.75	747.75	760.25	714.25	616.25	594.50	593.75	544.62	532.38	667.88	692.75	787.75	673.62	639.88	509.25	442.75	411.25	393.38	402.12	407.75	427.88	432.12	424.75	421.50	445.25	482.00	416.00	466.12	532.50	582.62	695.25	823.88	724.25	738.75	660.75	637.88	663.12	669.12	643.88	636.25	606.00	540.12	473.88	532.00	579.00	637.62	696.38	808.38	801.25	718.75	632.50	541.75	584.75	738.62	558.38	513.25	456.75	486.00	529.25	541.38	633.25	793.00	782.00	746.62	781.25	695.12	556.62	435.88	385.38	360.00	334.75	330.00	314.88	285.75	263.75	244.62	232.88	222.00	210.88	205.38	200.88	204.88	195.25	189.25	188.00
268.75	279.50	211.38	161.62	150.12	182.50	173.38	202.12	184.38	151.25	165.88	191.62	226.88	239.25	233.25	189.12	182.25	211.50	206.88	173.25	132.88	133.25	142.12	151.25	151.88	150.50	195.12	210.88	167.62	160.12	160.62	156.50	158.50	153.50	158.00	166.88	179.50	195.50	211.38	212.88	208.62	211.75	209.12	210.25	220.12	209.75	208.25	211.38	215.88	218.88	226.38	234.50	235.62	240.38	247.50	250.12	255.88	262.38	270.75	278.62	290.12	304.75	331.75	331.00	329.50	344.50	369.00	450.50	529.25	591.38	634.00	604.50	627.50	581.12	490.25	501.88	436.75	532.75	582.88	467.50	473.62	421.75	425.00	368.25	322.38	298.38	303.12	316.88	318.62	339.25	389.38	452.50	417.88	402.12	445.62	481.00	460.25	426.88	406.75	392.12	385.62	381.12	382.75	382.38	379.12	381.75	376.00	378.25	398.25	415.62	410.12	401.88	380.25	373.00	365.88	377.75	396.50	430.00	458.62	458.88	450.00	445.50	453.62	468.12	479.00	460.00	422.62	392.62	366.75	357.00	362.88	364.75	420.50	475.00	502.75	509.50	515.88	540.00	534.88	559.62	574.38	537.12	485.12	517.88	553.50	542.25	538.12	498.50	442.12	406.25	401.88	397.12	398.12	422.62	445.50	479.88	504.00	474.50	445.50	431.25	429.12	443.12	456.50	476.25	488.50	537.25	637.88	618.62	699.12	799.88	561.00	633.50	655.62	670.88	611.25	582.75	561.38	548.38	531.50	517.62	648.25	605.25	730.00	612.38	578.75	489.62	435.50	402.88	408.25	428.62	410.50	424.50	442.38	462.75	458.12	476.25	513.88	431.25	461.62	509.00	571.75	646.62	705.38	704.38	691.25	643.88	778.38	791.38	777.00	720.62	629.00	580.12	516.88	501.25	516.75	535.50	575.00	615.62	713.62	785.00	730.00	646.62	599.12	648.88	595.50	581.62	538.25	481.38	533.88	603.25	594.12	665.25	803.25	654.75	620.50	597.62	495.50	424.00	380.00	351.75	337.00	322.00	320.88	328.25	299.00	273.75	255.75	240.00	226.25	216.12	209.12	210.62	215.25	206.62	214.25	200.88
299.62	272.75	196.12	145.06	190.38	204.38	194.19	226.56	212.06	164.69	160.19	194.00	227.56	265.25	258.12	198.62	212.06	251.69	247.50	222.81	159.25	136.69	171.75	227.25	187.81	160.62	212.81	248.19	209.38	196.31	234.25	251.94	238.75	162.25	157.31	160.50	168.75	175.38	177.12	181.50	188.56	189.94	189.62	192.94	199.88	198.06	206.12	206.44	212.69	227.31	216.44	223.06	223.88	228.50	239.19	251.56	260.00	269.62	274.75	273.19	281.62	290.06	300.69	309.81	324.62	340.94	361.50	412.75	462.81	494.31	506.25	517.81	599.69	616.44	533.62	502.50	435.12	439.69	529.19	424.31	421.06	402.12	386.56	354.75	316.62	290.12	300.12	333.69	356.50	361.50	381.12	419.62	389.81	387.44	426.75	458.25	437.75	413.88	406.94	399.69	407.75	405.50	386.06	382.88	382.12	377.69	374.06	369.38	385.12	391.69	382.62	375.88	370.12	367.88	363.19	369.75	387.69	398.31	420.81	419.31	402.50	396.62	400.06	416.06	435.75	436.69	427.25	409.44	379.69	363.81	355.12	358.81	406.00	459.00	475.00	488.62	508.19	552.00	578.94	594.25	601.06	571.12	524.62	562.88	594.25	555.12	499.44	460.75	433.38	412.31	393.50	385.31	402.88	466.31	516.19	550.62	562.19	513.25	466.94	433.12	413.25	442.06	453.81	502.75	478.38	483.88	535.62	567.56	584.44	680.19	565.12	567.62	587.69	587.44	574.12	560.88	547.25	534.50	524.69	512.00	520.06	532.44	576.62	545.06	506.00	471.50	435.44	424.31	441.81	457.38	421.56	425.31	441.12	477.62	502.19	511.88	532.88	441.62	462.75	488.50	514.00	553.38	627.69	809.62	766.94	739.25	803.81	888.75	842.19	644.56	657.50	629.94	529.06	518.25	586.25	553.00	617.19	595.38	686.94	735.12	613.69	595.19	650.06	681.38	695.56	689.25	566.25	514.06	547.00	601.56	602.75	569.94	604.69	537.44	510.19	472.25	428.31	396.69	369.81	343.56	328.62	315.69	306.00	316.81	315.69	285.06	261.81	242.44	230.44	228.12	220.56	210.88	210.06	211.94	226.50	220.44
295.62	239.69	177.50	166.75	232.31	226.06	224.38	260.81	231.69	172.69	156.94	212.19	244.25	267.25	275.50	231.25	257.31	295.62	276.50	225.12	164.12	140.62	200.25	265.06	207.19	167.44	206.88	264.12	240.81	225.25	273.19	300.31	267.94	199.25	190.88	191.12	169.06	168.00	169.00	173.81	179.81	183.88	185.38	191.50	193.06	196.12	210.62	250.25	312.50	392.50	318.62	233.94	226.19	241.88	258.62	281.06	287.69	329.56	377.75	317.50	285.12	290.12	297.56	308.12	333.12	348.25	351.94	377.44	405.81	427.25	477.12	571.56	671.06	652.19	598.25	601.62	511.00	394.44	412.62	382.69	377.56	437.31	404.44	333.50	311.31	290.56	342.88	391.94	391.25	357.69	334.75	376.25	365.12	385.75	424.31	460.75	443.56	421.31	412.00	418.88	430.50	411.88	385.81	381.56	382.50	377.31	380.88	376.88	368.00	370.06	373.38	371.12	370.38	370.75	368.44	365.25	371.00	380.81	406.25	418.38	401.44	384.19	375.31	375.38	372.31	383.06	387.94	391.19	395.12	391.81	363.25	360.06	390.75	402.12	413.25	426.81	465.69	523.69	543.31	540.69	571.25	603.25	595.94	621.38	612.81	530.12	462.62	437.06	427.31	444.12	419.38	383.44	400.38	490.25	505.88	517.81	528.88	483.00	457.06	454.19	429.12	418.31	450.75	506.75	461.88	459.50	491.44	512.25	513.44	509.56	511.50	530.50	561.31	549.69	551.44	590.31	626.81	643.00	674.25	657.56	572.25	486.75	479.06	478.81	475.31	451.44	431.56	450.81	494.31	489.19	451.81	447.38	454.88	466.50	536.88	567.25	559.31	459.94	467.62	491.62	528.06	599.88	643.81	702.44	767.56	830.56	867.88	871.69	717.00	757.69	698.38	587.75	604.38	609.00	592.31	622.69	616.75	688.56	755.25	739.19	637.62	701.75	790.31	781.50	729.69	611.88	552.00	568.19	524.31	619.25	576.06	497.19	489.12	482.12	471.12	450.69	421.69	389.31	376.56	349.81	331.00	326.44	313.62	288.12	289.19	286.00	263.88	245.69	234.56	232.81	227.25	226.81	226.12	226.12	219.06	213.44
258.50	207.75	167.00	198.06	261.31	253.38	251.38	288.75	242.44	179.44	160.88	219.00	271.31	292.56	289.06	278.81	297.44	308.19	258.25	204.56	150.38	141.44	233.00	292.31	223.44	175.75	203.25	269.69	277.75	262.56	301.50	320.81	273.75	228.88	270.88	298.56	231.69	182.62	174.81	179.56	224.56	283.94	258.12	290.44	275.75	264.56	264.25	357.56	436.62	398.12	332.06	262.81	236.19	261.25	316.50	352.06	327.12	351.25	382.44	359.94	313.00	301.25	295.69	311.25	359.44	384.62	369.56	376.94	404.38	450.00	551.88	575.06	658.06	658.94	622.50	531.62	458.69	422.00	410.69	368.12	357.94	397.69	380.81	331.94	296.19	282.94	345.00	367.88	335.12	312.19	303.19	357.88	369.81	404.44	440.12	440.19	419.00	406.25	399.44	404.19	415.88	408.88	388.19	381.81	386.25	376.25	375.88	370.00	369.31	374.88	370.19	375.69	373.62	372.06	371.50	368.25	371.19	374.88	398.69	406.56	403.44	399.75	396.44	386.25	362.19	363.94	363.75	372.81	388.19	379.75	359.19	366.25	378.12	388.19	416.75	427.75	437.31	465.50	479.38	484.88	529.62	567.94	587.56	621.31	575.94	504.56	470.00	468.50	505.81	512.38	456.69	412.12	381.75	414.44	446.94	464.12	486.88	457.31	422.25	470.19	462.88	408.56	429.00	452.88	433.12	445.56	463.62	476.56	485.94	493.06	505.25	515.19	527.94	573.56	600.88	731.00	753.69	719.44	698.94	634.69	584.06	527.75	475.69	459.00	447.69	444.62	461.69	520.81	586.19	515.06	471.38	496.38	496.81	483.62	486.50	522.06	542.69	497.19	470.25	499.44	520.25	568.19	596.38	631.38	694.12	844.25	834.88	756.12	777.50	726.38	675.50	609.62	660.94	692.31	599.56	611.25	601.88	676.75	700.75	720.00	652.94	754.62	806.44	698.94	658.06	590.44	576.31	557.00	485.56	490.81	479.12	455.19	456.44	452.56	448.56	456.06	421.62	402.69	370.06	347.25	331.75	316.38	306.00	286.75	273.31	267.00	265.12	262.75	250.31	244.12	242.94	242.62	236.06	232.19	226.44	210.69
251.81	200.00	176.94	231.88	304.06	297.00	284.44	298.31	233.88	179.69	164.94	213.88	271.50	321.81	324.31	334.56	330.38	300.38	231.00	176.75	140.94	157.69	258.38	322.25	260.12	203.69	188.12	236.31	280.25	302.38	325.69	314.19	255.44	272.75	361.25	398.06	326.88	245.06	189.44	185.94	248.12	336.94	369.75	350.44	336.31	366.19	362.19	428.94	447.44	366.38	319.12	277.62	247.31	255.62	335.31	369.19	332.19	340.88	379.38	391.75	367.19	353.94	309.62	305.31	342.50	366.88	366.62	389.12	432.25	467.56	553.88	621.94	624.25	555.69	540.38	492.06	454.12	499.06	545.44	484.81	394.31	331.00	318.62	306.31	288.69	273.44	294.75	305.44	292.81	303.06	320.69	401.88	405.81	431.06	431.69	419.50	407.75	400.12	394.94	386.06	388.12	389.88	383.44	378.88	382.56	382.31	382.12	369.81	370.38	377.88	378.56	377.56	386.19	376.94	375.75	368.69	371.56	372.62	384.38	378.31	374.94	377.19	378.31	372.62	358.06	365.12	361.12	360.50	361.19	357.56	354.56	358.62	378.75	421.50	453.50	473.19	481.31	469.12	463.62	466.00	485.88	506.38	544.75	605.50	611.62	592.50	568.69	571.94	593.81	565.00	518.44	447.81	379.50	384.25	401.88	416.50	446.62	452.62	413.31	452.75	448.88	401.31	414.06	419.75	422.50	438.06	448.81	456.88	464.62	478.19	486.19	494.81	527.75	605.06	671.69	786.19	787.19	737.94	656.50	593.75	545.88	530.25	492.12	461.88	456.75	482.94	509.94	584.56	583.25	532.00	489.88	555.81	545.19	544.75	504.94	507.12	537.50	558.75	503.81	509.50	546.50	592.69	647.81	648.19	686.19	817.38	879.38	838.06	823.81	722.62	736.94	652.62	694.81	726.25	661.81	651.44	627.38	653.38	682.56	651.19	648.62	600.94	638.69	569.12	580.31	526.06	492.12	466.25	443.50	425.62	433.88	422.31	433.25	432.38	423.25	435.19	428.56	398.50	366.75	347.12	346.38	337.25	325.56	300.69	282.88	263.81	250.00	248.56	258.31	256.00	248.12	236.81	230.75	230.88	224.56	208.50
261.88	202.50	194.50	253.38	328.25	330.88	326.50	311.25	243.38	190.12	170.50	205.25	262.25	330.12	362.00	356.25	304.50	272.75	218.62	164.38	139.75	176.38	275.12	335.75	270.75	222.12	190.62	203.38	244.88	288.75	325.00	317.25	259.75	301.25	412.38	456.62	358.25	265.38	215.00	187.50	212.50	290.75	330.12	298.12	325.00	421.12	457.12	489.25	444.62	355.62	312.50	281.25	254.00	250.25	283.25	299.88	293.62	318.75	358.12	383.88	383.62	368.88	322.62	304.88	315.00	334.62	345.62	375.75	416.50	468.12	560.25	587.88	564.38	529.38	486.75	472.12	463.00	459.62	576.00	545.12	432.12	376.12	326.25	294.00	279.25	280.00	312.62	296.50	315.25	356.62	361.00	456.25	449.75	448.00	438.00	439.50	429.62	416.12	401.12	381.25	383.50	385.38	376.38	375.50	384.50	392.25	378.62	374.38	370.00	380.75	386.25	376.38	378.88	377.00	376.50	367.88	365.25	367.75	374.50	371.75	371.00	371.62	370.25	367.75	360.38	366.62	364.25	362.62	358.00	357.50	354.38	359.75	383.25	409.75	419.75	453.62	499.75	509.88	514.00	510.38	510.00	521.50	547.25	615.38	654.00	659.12	640.38	625.50	612.12	574.38	511.50	435.25	388.50	379.88	388.00	391.62	426.62	455.50	413.62	415.75	430.88	394.62	401.25	405.50	420.25	429.38	437.00	449.62	460.75	469.12	477.50	481.12	513.62	558.00	630.38	718.00	682.00	651.00	601.88	558.50	527.62	513.75	487.50	462.25	478.38	519.88	576.75	557.75	609.38	580.88	504.88	588.25	594.00	599.38	552.50	524.38	575.38	649.12	583.62	515.00	541.12	577.12	643.75	674.62	673.38	733.12	872.75	874.88	772.00	885.88	860.62	693.75	674.75	679.88	750.75	726.38	683.12	699.25	681.00	568.12	573.38	560.88	580.00	522.62	579.62	525.12	464.88	440.50	424.88	445.88	443.12	402.12	420.00	445.00	410.12	402.88	401.50	397.62	380.88	342.88	342.50	324.50	302.75	285.88	273.38	263.38	252.12	242.38	245.50	248.38	241.12	231.00	224.50	220.12	217.50	210.50
235.88	198.88	219.88	250.25	322.75	352.75	345.12	299.38	247.25	198.25	190.88	215.75	250.50	310.75	380.00	341.25	263.38	216.62	183.00	149.38	157.25	248.88	331.88	337.88	280.88	246.12	211.38	224.88	227.00	248.25	292.62	312.75	288.50	323.50	419.25	459.62	351.00	292.88	266.25	208.50	190.38	235.75	253.38	262.12	332.25	384.12	409.25	442.62	403.00	349.12	309.25	285.75	263.75	251.50	253.88	258.62	268.75	300.12	328.12	332.00	340.38	357.88	351.00	333.75	316.38	316.62	328.38	354.75	387.38	463.12	553.62	536.75	492.12	488.25	486.75	500.38	492.12	414.75	497.00	517.25	477.50	420.00	366.88	312.38	274.00	320.62	362.88	429.12	458.38	462.50	435.25	506.62	486.88	464.12	467.38	484.00	476.25	452.62	418.25	388.50	399.75	391.25	383.50	382.12	393.50	393.88	385.12	381.88	377.88	379.12	381.12	378.25	378.50	374.88	374.00	373.75	368.50	367.25	371.50	375.38	374.88	375.50	374.12	373.62	371.75	369.75	364.75	362.25	363.75	366.50	363.25	357.88	363.00	373.62	381.50	416.25	463.25	478.75	549.00	604.12	599.12	607.00	600.62	646.00	632.62	603.00	596.38	580.62	562.25	561.25	497.00	433.25	398.50	377.38	382.12	385.62	420.38	466.50	429.88	393.88	396.88	387.62	394.50	404.88	411.12	419.88	431.38	445.88	455.12	459.12	468.62	474.25	509.62	539.00	557.62	582.50	610.00	598.00	562.75	544.75	510.38	498.00	479.38	475.00	498.38	530.00	572.50	607.00	691.88	602.88	530.12	545.25	649.62	639.12	590.62	559.25	604.00	688.38	617.88	590.38	572.38	563.88	577.00	591.38	628.25	685.12	716.62	730.75	829.62	952.25	870.75	703.25	694.75	669.88	748.75	816.00	736.38	709.50	613.75	526.25	502.62	513.75	482.75	495.75	526.62	496.88	497.12	528.25	471.88	445.12	426.38	390.12	413.50	455.38	429.25	387.50	370.00	356.38	358.75	330.62	315.62	320.12	307.00	292.12	299.12	307.50	288.00	257.00	242.50	236.25	230.12	225.12	222.00	219.38	215.25	211.50
230.75	209.25	272.00	287.62	304.38	295.50	277.12	251.25	224.62	187.38	197.38	233.25	271.38	325.88	392.50	337.50	277.50	232.25	184.62	147.50	179.38	233.25	307.38	363.38	344.88	283.00	232.00	280.38	305.12	266.50	271.12	312.12	326.25	405.50	465.25	442.50	373.00	342.12	293.38	223.00	189.75	199.75	215.50	250.50	302.38	327.62	400.00	420.62	402.12	387.12	333.62	287.12	255.25	266.88	253.88	247.50	254.50	279.88	296.38	289.62	314.50	354.12	378.38	377.00	351.88	352.38	340.50	338.62	363.62	413.62	482.12	479.88	460.25	434.88	419.12	415.38	395.12	366.75	402.75	406.50	386.88	363.50	354.38	317.75	268.38	300.00	453.12	543.75	494.75	472.25	488.12	532.25	501.00	456.25	464.50	500.00	537.62	524.75	442.88	427.25	424.62	411.75	394.38	396.88	411.50	406.38	390.25	386.38	381.38	382.75	384.25	380.62	383.00	379.88	370.38	379.75	379.88	374.12	370.25	375.25	378.00	371.75	371.75	369.88	372.00	371.50	367.62	363.25	364.38	363.75	361.88	361.62	363.62	375.50	376.88	400.75	410.75	437.88	567.12	637.00	610.50	620.50	669.38	671.12	601.38	573.12	526.75	518.88	511.00	538.00	541.12	476.50	412.00	382.88	374.00	380.12	399.88	437.62	419.88	397.75	385.75	379.25	386.00	392.75	407.25	420.12	430.75	437.50	447.12	451.00	454.50	465.88	492.25	508.75	510.25	536.00	556.50	572.50	549.12	531.75	550.38	505.25	522.25	493.62	526.62	552.25	586.38	697.75	754.12	612.88	562.12	520.25	615.75	718.50	702.00	621.12	576.12	620.25	650.00	703.62	654.50	662.88	695.25	646.75	663.88	695.25	794.00	792.62	709.25	726.38	709.50	654.38	649.62	671.88	602.50	673.50	582.88	631.75	678.88	558.88	516.75	550.75	497.75	454.00	459.12	511.12	508.38	470.75	431.25	416.12	397.38	385.00	403.88	421.62	399.38	415.88	380.62	381.38	354.62	337.50	356.88	379.75	370.12	357.75	351.38	312.88	274.25	262.38	249.00	245.88	249.62	252.62	242.50	236.00	217.38	197.50
238.88	233.06	276.06	284.94	291.44	268.19	248.69	245.12	213.62	199.12	207.44	245.94	290.94	361.81	394.75	345.81	323.19	272.19	202.25	153.81	215.19	265.69	290.81	380.56	404.12	325.88	261.50	290.62	346.56	314.19	273.94	322.12	372.31	443.00	460.62	405.81	332.62	294.00	260.94	208.75	188.31	193.06	202.56	227.69	280.50	357.44	378.38	363.81	365.81	374.81	331.69	280.94	273.44	291.38	278.69	260.75	250.31	257.00	265.56	273.75	294.69	325.44	357.62	387.44	389.06	402.81	391.56	362.25	360.00	383.00	419.12	434.12	447.81	442.19	417.44	375.81	384.69	401.06	370.06	346.81	338.06	323.31	313.75	291.50	259.56	329.56	482.81	512.44	439.25	454.69	484.69	511.94	531.12	477.94	436.12	453.75	508.69	478.06	452.56	493.56	475.88	447.56	397.19	401.94	423.62	406.50	376.94	385.25	389.62	387.94	388.88	380.44	384.00	381.19	370.69	375.94	384.69	382.62	379.94	373.38	368.88	373.00	369.75	370.44	370.06	366.12	366.69	370.75	387.75	371.38	363.12	363.06	364.06	365.50	362.94	389.56	397.69	411.75	436.94	466.50	489.00	573.06	665.00	679.50	655.69	630.12	525.62	469.81	473.69	504.06	525.94	489.75	440.00	408.75	371.31	375.06	383.56	392.81	392.25	383.00	376.44	379.38	385.31	396.19	405.56	415.69	426.38	431.75	438.62	441.31	443.12	455.00	470.62	481.75	498.06	512.94	555.25	585.00	553.62	564.88	536.94	552.94	545.25	509.44	532.56	571.19	628.62	766.06	856.38	652.25	578.19	514.06	613.69	802.50	768.94	644.88	610.75	588.50	679.94	777.56	701.12	700.00	791.06	710.12	774.19	745.88	839.75	868.00	700.81	618.81	622.94	617.88	652.44	613.19	580.12	548.62	527.31	619.31	611.19	539.69	490.62	508.56	495.44	458.50	438.25	490.88	443.06	433.38	442.12	451.06	426.25	375.06	377.69	401.88	379.06	381.56	392.44	408.50	393.00	386.19	381.62	411.94	398.06	347.31	328.94	281.25	260.62	254.00	254.25	252.00	245.06	245.19	229.69	212.44	200.19	198.44
234.88	259.00	290.94	301.81	308.19	284.56	270.94	240.12	223.44	207.69	208.38	240.06	284.25	314.31	305.31	280.69	309.31	257.50	188.38	153.25	199.06	297.12	327.62	376.25	408.19	381.25	341.44	311.25	370.50	355.94	297.12	317.88	381.19	415.06	380.69	395.69	352.19	286.50	238.62	200.31	208.12	213.50	201.75	216.62	270.69	298.69	306.00	303.62	324.88	358.25	335.44	307.00	300.81	330.50	353.31	309.19	270.75	244.88	250.31	268.81	286.31	307.38	332.44	363.94	413.56	446.69	431.88	421.62	405.75	389.44	391.25	405.00	422.88	417.88	385.25	397.06	455.25	502.12	485.88	453.12	457.56	437.44	402.75	330.81	265.44	321.81	469.50	413.88	402.56	495.81	509.69	488.25	548.56	547.88	502.19	473.44	413.38	420.25	525.06	563.44	567.00	523.12	436.88	415.31	421.00	411.75	397.75	387.19	388.00	391.94	391.38	392.12	392.31	386.88	389.94	390.00	402.69	404.44	393.19	382.94	376.38	380.19	376.38	372.94	376.62	377.94	393.81	427.38	434.50	383.62	371.25	372.31	370.62	372.25	369.56	368.88	381.75	396.44	419.56	454.62	479.94	576.25	645.88	635.56	631.56	621.88	537.31	477.44	450.38	451.19	478.69	485.19	448.19	450.50	393.38	368.19	370.00	371.94	375.25	376.94	378.81	377.69	386.44	394.56	403.38	409.00	415.50	431.25	442.50	436.94	440.19	448.81	462.44	477.94	479.62	490.06	511.69	536.81	576.69	605.19	609.31	603.06	581.62	517.69	548.88	606.38	683.75	885.31	857.12	675.81	564.69	519.38	588.38	664.06	755.25	715.06	705.06	654.38	629.75	728.94	792.69	755.06	814.50	785.31	779.44	783.44	785.75	797.00	743.69	598.75	562.75	584.75	647.12	654.38	614.94	613.25	558.31	537.94	522.88	514.44	454.50	446.62	445.12	452.06	424.19	446.69	410.56	425.94	472.81	559.19	460.69	389.19	353.62	369.69	381.75	351.94	384.62	414.94	443.12	450.56	392.94	425.06	362.38	293.88	282.56	263.88	259.44	260.19	253.06	243.06	235.06	222.56	206.38	207.12	211.81	216.81
250.25	282.31	334.88	346.06	365.44	345.81	298.50	257.06	237.81	226.62	221.12	245.94	276.62	275.75	247.06	215.94	218.31	195.69	166.38	158.56	177.19	238.00	270.94	311.00	340.56	373.25	380.12	353.00	399.31	364.81	342.75	356.56	411.88	384.88	337.94	316.81	301.25	265.94	222.12	213.81	265.38	276.44	257.38	211.50	228.69	250.56	273.75	301.81	327.75	372.31	376.75	346.06	364.06	400.12	377.81	314.62	277.50	260.75	248.12	255.25	281.62	296.00	319.94	362.12	400.75	412.00	412.69	406.94	392.69	402.06	415.06	429.25	423.88	399.00	391.06	431.25	474.44	476.81	445.50	422.44	411.56	377.81	353.38	316.56	264.94	280.25	398.69	356.62	430.38	463.38	520.62	483.69	499.31	543.00	559.25	519.19	395.81	443.69	474.81	515.62	554.75	539.69	504.12	458.44	423.00	404.31	393.06	391.00	391.81	399.62	400.31	403.44	407.38	405.69	416.38	425.19	430.94	438.50	420.88	395.31	381.56	384.19	386.44	390.06	401.38	394.56	419.81	443.69	415.44	382.81	368.69	372.00	374.62	376.38	375.75	372.06	381.50	399.00	432.50	509.56	554.12	600.94	618.62	562.25	573.69	600.25	578.94	511.00	472.81	441.38	440.56	478.12	439.00	437.19	418.38	376.00	369.88	369.62	370.62	371.56	373.75	379.19	383.81	388.50	394.69	405.12	417.19	426.88	426.69	427.19	434.75	440.62	452.00	461.38	467.31	488.94	513.81	548.62	598.12	640.31	696.12	633.06	559.69	535.88	564.31	612.06	765.69	904.31	789.75	644.50	563.12	557.12	669.12	692.56	694.12	793.62	773.69	702.00	647.38	714.75	778.38	798.81	806.62	762.38	718.19	724.19	727.44	752.19	770.19	598.25	553.94	630.62	653.00	673.38	643.69	612.06	659.94	557.25	478.44	496.69	463.31	426.88	408.31	438.31	421.88	483.94	402.44	428.12	512.75	529.88	431.62	388.00	361.81	342.31	358.50	351.00	347.62	370.88	435.50	441.88	370.69	385.69	318.94	276.19	267.69	255.81	243.00	241.50	233.06	226.25	217.00	221.88	217.12	221.94	222.56	219.00
274.62	302.44	337.94	330.50	381.94	368.38	310.94	275.38	251.19	252.38	240.50	265.12	274.88	245.69	220.81	214.25	199.25	181.94	182.12	182.19	174.94	196.81	264.75	301.00	323.31	358.94	408.50	413.62	410.00	400.56	430.56	451.31	457.19	421.25	389.94	332.50	272.31	235.06	212.44	246.00	316.25	367.31	350.00	243.69	218.94	237.62	256.62	278.56	317.25	380.50	425.62	420.38	460.94	429.69	361.69	318.69	313.50	296.12	263.94	249.44	260.75	274.25	311.00	356.00	354.38	348.75	357.62	343.19	353.31	390.69	416.25	421.88	392.56	364.88	402.94	425.31	426.56	419.88	414.56	389.06	370.12	359.31	390.12	352.50	282.44	257.06	306.19	326.69	375.44	441.38	496.12	453.50	448.75	483.31	526.56	460.00	403.12	535.38	564.25	548.56	525.62	471.56	541.44	531.12	457.94	418.19	399.38	404.25	403.88	408.19	411.62	419.69	427.81	452.38	524.75	500.00	494.81	513.94	509.31	461.31	414.06	402.44	407.56	436.75	454.25	428.19	453.69	456.69	431.19	411.50	389.75	368.69	375.38	376.19	377.88	376.69	378.56	394.00	426.88	471.44	524.56	611.81	634.88	578.31	506.06	541.44	602.81	576.44	548.56	472.75	421.31	444.00	428.56	413.69	409.94	381.81	372.88	370.44	371.88	372.62	373.56	375.19	381.31	386.00	396.69	400.94	408.69	411.62	433.12	450.00	430.56	436.38	444.31	453.94	472.75	495.38	525.94	576.44	634.50	657.81	661.88	591.50	555.88	569.44	599.00	668.31	781.88	837.44	671.50	613.25	557.31	568.50	633.69	630.44	660.75	778.06	859.75	802.19	703.38	777.56	856.56	870.94	784.88	757.38	697.12	678.31	682.38	710.00	690.12	587.81	556.00	581.62	570.75	566.94	568.00	557.19	579.00	543.25	477.06	460.00	443.88	430.88	400.56	413.94	414.62	470.81	389.88	443.50	459.31	407.88	386.50	381.06	368.62	346.94	330.19	329.75	324.50	333.25	405.44	425.44	342.75	313.00	286.69	265.50	254.94	236.88	238.88	237.25	229.44	223.75	266.56	333.00	309.75	273.25	230.88	218.00
299.75	319.56	315.88	294.44	310.88	310.69	277.56	277.50	272.62	273.50	262.25	284.44	269.00	256.06	255.31	253.62	217.62	208.62	229.19	217.94	190.06	180.44	254.25	324.94	343.50	384.50	412.12	386.88	374.31	429.75	451.81	444.44	422.62	398.25	371.50	329.88	259.81	221.81	227.31	287.50	361.38	393.44	336.62	255.12	219.69	233.88	253.81	283.44	318.75	378.12	445.06	502.75	505.31	428.44	390.50	374.50	365.25	308.50	269.50	255.69	255.00	258.94	282.12	302.56	298.31	296.19	300.19	311.69	362.69	374.25	370.25	372.50	344.81	363.38	390.00	368.56	353.81	358.12	394.94	410.12	412.12	413.06	411.00	375.94	312.88	246.88	271.12	304.12	358.69	436.94	432.25	433.62	404.50	442.69	480.44	405.62	390.19	507.75	572.94	519.38	458.00	466.88	566.75	565.12	498.25	493.56	467.81	455.81	453.62	449.75	437.56	434.88	455.94	519.50	607.69	626.69	615.12	591.19	685.19	582.81	454.62	431.19	462.31	492.19	490.31	473.50	475.06	464.69	455.94	428.00	390.25	360.50	368.31	372.25	375.69	375.06	376.38	379.38	391.56	409.69	439.75	517.38	580.69	595.12	531.31	475.19	583.06	617.62	559.56	475.50	417.19	402.81	413.69	395.44	383.06	371.25	375.81	373.25	372.69	376.56	377.12	382.44	385.56	385.12	390.25	392.06	394.56	406.50	437.38	471.38	448.06	451.00	454.81	464.00	475.88	503.62	532.94	563.44	590.19	583.94	620.88	590.62	587.62	604.81	671.62	785.69	780.00	685.12	619.25	590.62	569.62	563.50	626.25	656.56	734.38	797.06	923.62	925.25	765.69	696.00	800.94	809.06	797.31	734.56	677.38	663.75	696.00	761.75	691.75	631.50	566.44	508.56	522.75	524.06	512.44	502.44	514.19	454.50	441.38	430.56	424.25	400.56	391.12	387.94	379.69	373.81	355.19	359.62	364.00	359.50	357.50	355.25	349.88	343.19	324.38	308.25	298.25	287.88	288.19	297.50	275.94	260.31	254.00	248.62	248.44	255.69	273.94	274.38	257.00	250.62	287.38	359.62	383.56	377.94	271.56	224.94
272.44	323.38	305.56	279.50	263.50	254.38	239.62	245.44	275.56	267.94	268.62	294.25	276.31	285.62	318.44	303.81	246.25	246.25	284.75	273.94	227.75	191.44	204.25	258.94	316.38	363.88	364.00	336.00	343.94	411.19	437.62	391.44	371.94	364.38	337.25	292.88	240.12	231.19	256.69	300.62	385.56	380.50	301.38	242.75	228.38	248.56	267.62	288.44	320.75	359.88	414.06	488.56	491.69	427.50	390.50	357.94	334.31	295.56	273.06	264.44	259.88	260.94	265.75	267.12	263.56	266.31	273.75	305.06	362.25	349.25	336.12	326.62	327.69	377.94	379.69	333.69	307.19	305.69	339.12	378.25	407.88	400.94	375.19	328.31	295.06	247.31	256.56	284.44	357.88	410.31	380.25	419.75	372.19	436.38	444.69	388.88	384.38	495.19	499.19	435.69	406.31	474.56	538.94	492.44	500.88	542.88	547.50	568.94	567.31	551.94	514.06	466.94	481.56	510.25	549.12	654.88	700.75	692.75	803.88	698.88	490.56	484.81	507.88	499.38	465.94	454.44	441.75	424.06	421.81	405.81	382.44	368.31	366.12	364.25	372.75	373.94	377.06	380.31	379.44	390.38	406.19	421.62	449.69	495.94	523.25	456.50	501.06	564.94	502.69	440.69	413.81	396.62	393.31	403.69	379.62	374.38	374.62	372.06	377.75	379.94	383.06	382.94	385.94	391.50	391.00	389.19	389.69	396.81	414.69	450.88	466.44	457.31	467.44	481.69	493.19	510.38	524.25	525.56	542.69	573.00	632.12	633.19	654.06	703.19	775.69	822.38	712.62	685.69	654.81	633.31	611.75	580.94	648.75	739.06	878.00	884.25	852.38	848.75	802.06	706.69	764.44	742.06	737.88	705.06	666.12	673.88	765.50	792.75	775.12	695.06	574.69	505.88	481.69	487.94	486.50	467.12	472.44	430.25	420.81	407.62	404.56	402.56	466.94	471.69	491.44	443.44	390.25	361.56	343.81	335.38	328.44	324.69	319.19	313.88	303.75	297.00	293.31	288.19	281.88	270.75	269.12	270.38	266.88	271.44	286.44	287.94	278.50	267.62	268.75	273.12	300.88	348.00	417.12	427.56	351.31	251.06
304.19	348.44	320.56	288.62	256.50	236.25	222.50	221.06	261.38	241.44	252.75	270.94	271.75	298.88	344.94	322.00	268.00	260.81	308.69	323.94	261.50	224.12	202.00	217.62	268.38	299.19	295.31	285.94	323.06	387.50	446.81	399.12	400.06	335.19	300.94	263.88	243.12	263.75	316.38	345.75	402.94	366.88	287.88	240.56	243.44	256.25	279.19	310.31	363.69	396.06	398.81	500.06	538.50	426.62	357.94	341.75	342.06	308.12	279.38	276.81	273.88	273.38	288.94	280.44	262.62	273.44	288.38	308.75	340.56	332.94	301.44	306.06	351.69	390.56	381.62	338.31	300.94	275.56	289.38	319.19	344.25	327.25	329.88	320.38	314.12	309.88	245.00	273.06	340.44	374.31	338.56	369.06	373.81	427.81	461.69	405.56	368.69	449.88	439.38	385.25	405.94	485.56	464.00	467.25	554.12	559.88	665.69	671.38	685.38	646.25	555.19	499.44	518.38	533.06	595.44	621.69	714.38	837.69	797.19	618.75	496.88	487.69	469.69	461.50	428.12	405.56	401.12	392.25	391.38	383.38	375.75	373.69	381.25	376.19	367.31	372.00	377.94	379.00	376.38	379.75	390.50	395.12	411.00	446.88	513.31	458.56	434.69	466.25	432.12	407.19	400.38	392.31	380.75	395.75	380.38	372.06	370.31	367.56	374.06	378.25	383.12	382.25	383.44	387.44	389.00	390.50	390.31	394.62	401.06	419.69	451.75	470.06	500.38	518.56	493.00	496.62	505.25	522.06	561.31	612.69	702.81	739.25	809.00	895.56	875.75	760.25	716.50	704.50	712.62	668.44	609.50	617.38	729.62	803.56	784.12	748.00	737.94	747.75	815.94	797.50	881.50	866.44	785.94	719.62	661.94	646.75	701.19	676.50	643.12	586.12	540.44	504.88	476.94	452.06	459.81	453.69	448.50	408.19	405.38	410.88	445.81	448.94	519.44	580.00	584.62	488.19	442.62	412.88	388.31	350.81	354.06	336.62	322.19	312.50	311.88	311.50	306.94	311.06	295.38	287.62	287.50	283.19	281.88	285.50	290.19	281.44	275.88	290.31	298.44	308.31	342.38	386.31	427.19	430.75	437.25	321.50
319.12	357.94	330.75	307.00	268.94	249.31	226.06	209.38	249.12	230.00	239.94	242.25	249.25	288.00	341.12	340.88	292.38	277.50	320.06	336.75	282.06	239.00	211.75	218.75	225.69	246.31	255.62	274.19	337.75	400.44	466.81	447.19	480.94	363.44	286.94	257.88	266.56	291.88	346.50	397.31	411.94	349.88	274.12	244.00	260.06	265.50	284.44	310.88	372.69	446.88	453.88	528.62	553.38	420.19	369.81	408.19	400.06	321.75	281.19	285.81	283.06	279.38	303.69	298.12	269.50	281.12	305.19	325.44	348.06	328.31	285.12	317.88	361.81	369.44	356.00	342.94	313.88	276.44	264.44	287.81	303.12	290.50	306.00	337.25	362.62	339.19	239.31	265.50	315.44	333.56	313.88	346.75	385.44	431.50	459.56	401.50	353.62	400.19	397.75	368.75	408.44	448.50	417.75	494.56	575.50	586.94	699.06	728.62	706.62	645.25	556.00	514.06	566.38	546.44	632.06	683.56	707.44	816.44	681.44	553.38	495.50	472.81	444.69	430.69	415.50	391.69	387.31	381.69	383.00	378.00	380.00	381.50	409.56	401.75	381.88	368.06	377.44	376.25	375.50	375.81	384.00	388.19	410.56	429.19	464.00	444.19	416.88	425.69	404.44	391.88	386.50	384.12	376.25	383.75	374.56	370.75	369.88	368.62	371.56	374.12	379.81	383.94	376.31	381.56	389.50	388.69	390.69	396.19	399.19	410.94	435.75	467.38	528.00	558.25	514.06	493.94	510.12	535.75	572.12	626.62	697.06	731.31	903.62	863.25	801.88	734.50	698.00	694.25	706.62	643.19	617.31	640.69	766.50	745.25	711.38	703.56	715.50	776.75	918.25	909.38	998.62	984.06	820.81	746.31	662.88	637.19	637.06	655.06	654.12	589.75	523.06	512.44	494.00	452.31	434.94	431.56	434.69	402.38	425.12	437.38	491.56	481.12	550.81	595.62	549.19	491.69	456.69	415.50	389.19	369.00	389.00	363.50	338.62	329.38	331.50	329.12	316.81	314.38	296.44	298.38	295.69	290.31	286.25	285.69	288.69	293.62	296.69	316.88	319.06	330.75	350.69	365.38	389.75	397.62	477.06	401.00
292.62	320.06	285.38	292.38	303.69	280.25	237.75	200.94	202.44	206.12	210.50	212.19	242.38	279.69	329.44	371.50	344.12	332.62	361.19	355.94	302.31	238.75	213.75	251.44	257.31	250.44	242.06	285.94	356.19	413.44	485.19	535.94	477.81	357.25	299.00	261.19	331.94	372.25	386.06	411.75	377.06	312.00	260.25	267.81	296.50	294.75	320.94	356.44	353.56	399.94	472.25	516.88	445.75	389.06	457.00	494.81	407.44	322.75	284.38	306.31	309.38	303.19	328.31	313.06	283.62	293.19	316.88	344.38	346.44	307.62	299.31	347.75	351.44	318.69	309.56	337.44	338.19	318.88	267.56	253.00	253.12	253.00	265.12	320.25	359.94	332.56	231.44	261.00	271.25	282.19	282.56	406.38	464.50	483.06	462.56	435.62	347.94	352.75	355.81	353.00	369.25	379.75	425.44	465.56	511.69	573.88	640.19	649.56	575.44	554.31	579.00	579.56	639.12	651.69	576.62	673.69	802.88	755.75	737.50	656.00	515.25	482.81	452.62	433.88	418.44	402.56	389.19	384.50	387.31	388.00	376.62	404.44	444.12	443.62	444.50	380.00	376.44	378.44	376.75	377.50	376.31	378.62	397.56	401.12	404.88	411.50	409.94	408.69	385.88	379.94	380.06	379.50	381.81	379.62	373.12	377.25	377.56	371.56	376.12	369.56	370.31	379.81	382.56	378.31	376.88	378.81	389.38	403.31	413.75	407.25	435.12	470.19	521.19	558.56	542.31	502.62	498.94	516.69	547.31	599.12	652.25	790.06	792.69	695.81	699.69	696.62	702.56	675.94	679.25	674.81	685.25	669.81	698.50	672.81	685.69	738.06	764.31	851.25	915.50	1071.38	1069.75	1116.25	965.44	795.00	684.56	647.50	628.81	695.00	653.62	599.38	558.00	519.88	473.50	453.50	465.56	469.81	462.25	423.56	475.88	455.19	465.38	524.00	589.06	547.25	502.25	487.56	445.00	413.94	401.81	422.00	383.38	371.81	369.62	350.31	348.31	336.75	321.56	310.94	316.19	317.38	306.75	301.69	299.38	329.06	347.31	348.12	335.12	336.88	330.75	326.94	320.94	307.44	321.62	335.94	395.62	396.62
280.19	320.31	271.50	275.00	333.81	303.25	243.75	189.94	175.88	180.06	191.75	199.44	219.62	250.12	302.19	365.19	378.19	392.25	387.38	336.38	270.25	236.81	240.06	274.69	337.19	330.25	264.81	269.12	310.00	360.31	419.25	503.81	450.75	390.69	317.69	270.44	312.50	399.19	435.94	386.56	334.62	283.50	283.94	335.56	366.62	332.81	347.44	358.62	397.31	404.62	470.19	484.88	435.94	482.94	497.25	463.38	384.19	320.25	293.75	318.69	351.06	349.12	367.19	342.06	314.12	331.12	342.31	336.69	310.81	277.44	316.88	351.69	336.31	285.88	287.19	316.88	336.25	319.25	299.69	256.31	243.00	247.62	244.19	272.06	292.62	282.06	235.62	253.25	258.88	268.19	328.94	444.00	462.06	442.00	418.38	407.44	343.44	339.88	326.75	375.75	380.19	419.94	506.81	534.69	600.44	634.88	631.12	585.12	509.50	516.25	594.19	657.31	609.31	668.31	666.38	772.38	685.38	783.75	705.19	638.12	528.75	501.62	469.31	447.50	424.31	408.12	394.31	386.88	379.06	381.56	388.12	406.38	447.50	474.12	434.44	374.94	370.69	367.75	376.94	381.69	379.19	371.94	374.25	387.00	389.38	398.44	414.25	396.56	380.06	379.00	379.62	379.81	372.62	377.31	375.56	379.44	379.50	375.12	389.75	382.94	377.31	380.69	382.88	378.56	377.12	378.56	385.50	396.38	399.62	399.06	415.56	442.38	478.56	517.62	560.81	522.44	487.12	502.44	539.44	573.44	678.69	696.94	653.56	631.50	651.19	673.19	665.06	674.88	654.06	681.19	688.69	673.19	661.75	662.69	747.56	695.44	686.75	735.88	738.50	894.56	903.38	1094.69	1004.25	832.81	723.00	650.06	634.56	732.56	822.19	734.69	608.69	555.75	519.25	531.19	601.81	521.62	483.12	438.62	495.25	485.94	475.75	518.06	536.44	564.69	561.44	498.81	493.38	448.25	443.75	424.88	400.25	378.38	360.00	347.75	338.19	330.50	324.19	329.38	326.44	321.62	320.12	308.94	328.00	373.94	372.94	362.06	339.56	309.00	295.44	288.00	284.06	282.81	291.69	300.00	310.81	296.25
281.00	295.25	263.62	245.75	304.69	250.12	198.62	174.62	169.88	183.75	205.19	222.88	235.50	245.62	272.44	316.50	345.62	392.31	384.94	321.19	263.44	288.62	304.19	276.12	377.12	400.50	295.00	337.56	315.75	355.44	442.94	525.94	497.75	391.00	337.94	287.75	327.81	420.44	474.25	401.75	333.56	292.06	306.19	375.12	425.88	376.81	393.25	419.31	405.25	470.50	543.31	525.88	534.94	571.25	539.19	461.50	385.81	328.44	312.75	331.38	387.94	417.88	403.19	363.12	359.44	375.06	349.00	307.44	281.31	263.38	307.31	334.56	322.38	281.94	273.62	299.25	325.50	321.56	290.56	259.75	242.69	241.62	235.94	239.19	239.81	232.06	234.50	249.31	248.00	279.44	317.88	390.81	389.69	377.19	362.31	373.56	366.31	316.38	333.56	393.50	427.25	438.50	465.56	486.50	567.31	610.94	541.19	498.31	475.25	578.19	631.38	579.19	531.25	572.19	684.19	705.62	632.12	758.69	788.25	716.06	541.75	508.12	481.19	456.25	437.62	415.88	405.69	394.69	390.31	385.75	388.62	405.38	441.56	471.00	429.38	392.00	414.69	383.38	373.38	375.25	380.81	377.12	375.31	380.00	379.44	385.88	387.75	378.56	377.06	377.62	378.50	383.75	373.56	377.56	372.62	369.88	370.44	377.81	392.88	413.75	406.56	391.56	387.44	384.31	383.50	383.25	386.94	389.81	393.62	396.38	403.81	424.69	451.56	493.62	566.44	563.75	483.69	501.12	527.56	544.50	594.00	600.06	594.25	606.44	655.69	622.31	632.94	654.12	657.81	652.00	655.56	660.12	642.69	644.62	668.31	651.94	692.81	682.50	680.62	743.50	890.00	1052.12	1036.06	902.00	751.81	686.06	643.69	760.88	823.25	761.94	607.06	601.12	567.75	563.19	556.00	494.31	476.62	470.75	503.38	519.69	524.50	510.50	508.19	494.06	518.62	522.50	502.00	443.62	411.69	396.19	384.81	379.50	370.56	357.62	349.06	342.12	339.12	330.88	324.56	324.81	330.19	351.44	362.62	361.25	342.00	322.88	312.12	304.62	299.75	285.56	273.50	257.94	264.12	262.94	256.81	249.06
241.81	225.56	220.44	197.62	206.94	174.75	168.31	175.88	183.44	207.00	244.88	288.06	269.75	305.44	302.56	291.56	357.69	425.00	422.94	349.38	281.94	343.50	374.25	286.00	405.62	444.56	319.62	392.50	399.94	353.75	444.44	529.38	479.31	455.19	401.06	310.06	335.00	414.75	488.00	406.94	332.00	334.81	363.25	363.31	408.12	435.56	439.12	507.06	504.25	491.94	538.38	551.25	566.62	525.94	478.50	450.38	423.94	347.25	345.25	375.06	426.25	439.75	386.88	366.25	397.31	382.81	342.75	300.56	262.94	278.88	306.44	319.19	294.50	268.69	255.56	281.06	311.81	321.19	277.12	244.38	230.00	229.31	228.31	225.00	223.94	235.19	238.50	237.81	241.69	257.31	265.38	313.94	319.56	323.00	331.31	377.38	356.19	316.38	330.25	375.81	439.69	485.44	512.12	511.00	555.81	550.31	480.56	442.00	465.50	550.81	556.88	493.88	494.50	567.81	604.88	570.25	635.50	761.31	761.00	667.31	627.75	543.81	507.00	471.00	448.25	429.94	414.88	404.75	397.38	396.50	399.69	417.00	448.69	451.00	412.25	393.50	394.38	386.19	374.00	365.06	380.06	377.38	378.69	377.56	383.88	383.81	379.38	373.88	370.94	372.94	372.50	375.00	372.31	377.12	370.69	373.94	377.38	383.06	390.00	405.00	397.88	386.00	384.94	383.44	384.06	385.00	386.62	390.25	391.25	395.38	401.38	412.38	439.88	477.88	535.31	508.06	474.62	492.56	510.38	519.56	546.12	550.56	579.00	583.94	589.88	574.81	592.62	641.75	668.88	704.75	651.06	629.56	622.88	615.50	619.00	616.19	642.62	643.25	639.62	672.94	729.50	793.81	774.00	811.44	786.00	721.94	632.56	766.69	758.75	730.25	703.62	655.69	583.12	551.50	510.75	523.75	544.50	525.62	519.25	583.00	572.75	539.31	493.69	468.75	451.56	438.25	431.88	430.75	411.12	418.69	416.38	423.06	410.56	392.19	371.56	360.44	343.69	332.62	325.50	323.19	365.94	393.44	387.25	362.06	339.00	318.38	300.50	287.62	280.56	276.44	273.56	260.56	243.25	236.12	227.38	222.12
193.75	172.81	174.50	163.12	151.00	156.69	163.06	186.38	217.31	253.50	301.12	344.19	309.81	358.38	380.88	311.19	345.00	422.81	469.62	415.00	313.81	342.44	399.94	313.38	420.88	445.06	347.44	395.69	480.12	401.19	408.00	512.94	526.00	489.31	415.06	321.75	356.50	443.00	474.38	389.81	349.44	366.75	427.56	428.56	394.81	445.69	521.75	582.69	557.12	550.56	547.25	486.50	520.44	451.00	409.88	418.31	438.31	380.94	408.25	438.31	406.88	380.00	340.12	351.88	382.56	344.44	312.06	282.75	264.81	307.62	328.25	329.75	285.75	260.19	242.19	258.56	279.50	293.31	251.94	226.75	220.69	220.88	219.88	219.75	221.69	233.50	229.19	234.38	229.69	244.38	245.81	276.69	279.44	296.94	326.69	358.38	308.94	310.44	325.62	368.12	423.75	440.44	460.62	458.88	490.00	508.06	485.06	434.94	433.94	470.25	469.56	448.25	486.94	519.44	529.31	620.69	694.00	834.44	776.31	718.62	809.06	604.75	538.38	495.12	476.44	446.94	436.12	422.62	409.88	404.94	412.19	439.44	445.88	415.19	392.06	380.19	377.56	384.12	382.62	372.38	371.62	381.44	376.31	372.19	375.00	381.44	379.56	372.50	370.94	369.69	371.06	369.12	369.75	370.75	378.56	377.56	379.19	381.94	379.81	380.31	377.88	384.00	384.19	385.44	387.50	386.00	387.19	395.31	396.38	400.00	401.06	409.00	431.38	468.38	505.44	470.62	464.69	479.31	492.81	506.88	518.44	564.00	558.00	544.38	543.81	550.62	583.81	644.81	700.00	703.56	672.50	659.69	636.69	610.12	595.19	586.81	592.31	603.56	604.00	655.19	767.94	778.94	691.88	811.38	784.19	686.88	607.25	649.62	645.75	633.62	642.75	613.44	592.69	555.94	546.12	555.00	574.81	574.25	570.94	585.62	552.88	533.06	489.75	457.69	458.19	451.81	479.00	503.19	477.94	471.06	469.44	474.81	457.38	423.62	389.50	374.31	350.62	340.81	332.44	332.44	379.88	382.12	360.06	367.94	348.31	337.75	323.06	304.69	282.62	263.25	254.25	252.31	246.56	239.75	245.38	239.25
156.56	142.69	149.75	150.12	152.19	164.06	168.88	190.38	262.25	330.25	370.75	401.69	363.38	367.88	424.56	375.50	339.44	395.56	469.38	462.38	354.38	350.19	457.38	379.19	401.19	463.62	397.44	403.69	506.50	489.88	425.00	518.94	534.69	459.25	391.31	331.88	349.62	435.94	459.94	384.31	406.81	397.88	418.75	471.38	458.25	506.44	571.12	542.25	480.31	514.19	555.62	477.62	441.50	419.25	384.19	419.44	462.38	432.88	457.62	441.00	373.81	334.25	309.94	350.56	365.75	317.44	285.06	262.38	285.56	340.88	353.94	351.31	319.81	297.94	256.12	240.25	243.69	249.75	220.12	216.31	218.00	219.00	218.75	217.38	217.88	220.38	217.81	225.81	226.38	235.12	232.38	262.75	280.94	312.50	340.44	332.88	276.25	292.94	310.19	351.62	376.44	381.06	392.69	403.19	425.50	461.62	452.19	458.62	418.44	413.88	417.19	430.06	457.31	501.75	605.19	758.19	764.50	770.19	814.19	753.62	881.62	804.00	614.12	554.94	508.94	475.94	457.81	437.00	427.81	414.56	411.38	420.62	401.81	386.50	375.19	377.81	382.81	387.75	381.50	372.62	369.56	383.38	378.88	376.56	378.06	380.69	371.44	375.38	380.19	380.56	375.12	377.75	378.69	376.31	378.94	375.75	378.19	380.25	379.25	378.12	381.44	382.94	382.31	385.19	394.75	386.62	387.44	393.44	401.31	406.25	404.81	413.06	429.69	454.44	460.69	450.00	453.75	468.12	478.12	497.44	505.44	519.62	517.69	520.56	551.25	603.50	647.06	722.31	707.12	716.38	712.94	688.75	661.62	650.19	617.81	613.75	600.81	581.12	610.81	713.00	784.88	779.31	669.19	695.00	691.00	623.50	583.50	601.12	618.25	597.81	637.62	624.56	581.38	597.19	602.19	628.94	629.38	607.88	652.44	604.81	562.31	550.94	490.94	473.69	483.31	496.62	541.25	595.56	595.44	560.75	540.81	539.06	503.56	440.81	401.38	378.62	362.81	347.12	339.19	341.81	384.12	391.69	358.00	326.94	319.44	306.88	297.50	284.94	273.69	260.69	252.31	250.31	251.50	260.62	261.12	243.12
142.31	138.81	148.19	159.94	181.00	192.06	187.00	195.75	251.38	327.94	383.44	430.44	426.25	400.75	450.94	423.25	367.00	438.75	493.69	498.44	399.00	365.38	479.06	429.50	385.00	461.44	430.38	419.81	519.94	540.38	501.50	550.81	546.62	482.06	403.00	342.81	356.81	432.00	462.00	419.00	452.50	458.56	480.31	504.69	550.19	574.50	561.94	492.25	437.50	452.38	506.69	483.62	401.19	371.12	364.88	437.81	465.12	420.69	444.81	419.31	368.50	320.81	295.69	349.69	374.38	321.81	285.88	262.44	300.62	339.31	321.94	340.06	340.19	310.75	270.38	230.62	225.75	227.44	214.31	215.06	217.62	217.50	215.44	217.00	229.31	228.62	217.50	215.88	217.12	220.06	223.56	254.00	273.38	304.94	319.50	296.25	268.19	285.50	293.38	316.56	324.81	337.62	353.81	375.06	412.44	433.81	417.44	438.31	409.25	394.06	408.12	425.75	475.19	544.25	628.31	685.25	648.12	762.50	774.81	840.00	876.62	863.81	736.06	708.75	570.00	503.38	474.44	454.19	437.19	421.12	406.94	400.56	393.19	388.75	374.75	372.69	381.12	380.81	371.12	377.19	376.81	382.69	380.06	374.56	372.50	375.31	377.12	382.56	382.56	382.50	382.19	381.56	383.88	381.44	378.56	374.25	376.94	378.25	379.50	381.12	381.50	383.00	383.50	386.56	388.94	385.56	387.12	394.44	400.25	408.25	413.25	416.50	426.75	434.88	437.12	442.50	448.81	460.50	471.75	480.38	492.94	496.19	510.62	545.38	588.38	691.88	713.38	701.06	652.25	663.25	688.06	723.25	687.69	649.12	645.44	668.44	683.88	647.94	594.25	719.12	711.69	756.94	702.62	632.12	624.38	592.75	640.19	682.44	741.06	628.06	619.44	634.44	638.12	661.31	653.38	691.44	678.62	658.44	682.81	643.06	572.88	523.06	498.69	502.81	497.75	540.38	584.94	685.25	743.44	717.31	656.38	601.12	535.31	458.00	414.62	391.00	376.06	354.94	343.69	343.12	370.44	380.94	366.81	322.94	312.56	301.38	285.38	279.94	270.81	259.19	259.94	263.88	263.50	260.12	246.56	236.00
136.12	137.88	154.62	177.44	219.75	230.50	223.06	221.06	223.88	282.56	354.19	413.44	456.38	469.06	495.56	452.31	391.94	467.31	542.25	512.19	406.38	387.38	447.75	443.12	397.62	468.12	459.75	480.00	571.88	584.88	597.69	568.00	479.81	433.94	386.00	353.75	378.31	432.94	477.31	473.25	515.00	545.00	573.56	581.75	612.25	563.44	512.94	457.50	439.50	411.31	433.25	447.12	411.56	359.06	353.31	431.62	428.88	377.25	422.56	403.44	356.12	319.12	286.56	338.62	385.06	322.44	278.19	268.31	326.06	332.69	293.00	309.75	319.00	289.56	260.38	228.44	221.44	219.88	216.62	216.75	216.12	215.31	213.94	220.88	252.38	248.62	221.69	220.56	218.44	217.75	219.38	255.12	259.31	272.69	270.56	261.62	264.06	273.69	279.81	292.00	299.94	318.75	346.50	366.38	392.69	405.94	401.69	405.31	381.94	393.38	406.50	428.19	497.75	568.00	590.81	579.75	646.12	772.00	714.50	820.12	729.25	819.12	810.50	806.81	640.56	533.50	493.62	467.56	444.88	433.62	425.06	415.62	402.31	394.19	381.12	375.06	370.69	367.19	375.81	384.19	384.75	384.12	378.62	372.62	383.88	385.12	380.25	378.31	380.38	383.06	385.44	389.81	387.69	385.19	379.50	375.31	379.06	380.12	378.25	379.50	380.50	383.56	385.12	389.75	388.69	393.25	390.12	392.50	397.06	405.81	413.94	421.31	425.94	429.88	432.94	440.94	448.31	460.19	468.25	470.31	480.50	493.56	527.88	573.69	616.00	732.69	719.75	641.38	628.56	609.56	680.75	729.00	673.00	657.69	674.12	752.12	776.69	758.56	585.50	601.06	624.31	668.12	674.94	615.69	566.75	655.06	801.38	836.62	814.50	631.56	606.06	625.56	669.44	727.12	715.06	747.50	718.12	722.25	747.38	681.44	595.88	543.31	528.56	529.19	515.44	555.75	628.94	769.56	924.88	935.12	757.62	648.25	564.75	476.19	430.06	406.69	388.75	365.44	344.44	340.00	354.12	354.75	347.44	323.88	322.56	313.62	290.75	289.88	283.44	271.44	269.25	268.19	258.44	247.88	237.38	231.31
142.31	150.19	169.44	205.38	276.81	308.00	301.38	278.62	226.12	237.31	301.25	365.75	423.88	460.69	501.44	534.75	489.12	457.31	548.88	505.19	446.00	467.62	484.06	502.31	446.94	529.56	558.12	568.19	555.88	544.81	593.44	526.81	468.88	401.94	395.62	388.94	450.81	449.75	486.94	565.44	605.56	600.50	543.31	537.50	581.06	556.50	513.06	525.75	602.81	517.62	412.56	362.12	349.19	332.94	330.62	371.06	358.31	349.50	417.44	418.88	356.81	311.75	277.38	300.00	327.81	295.50	253.69	270.19	319.25	332.00	287.94	273.06	269.38	247.69	228.56	222.81	220.06	219.19	218.50	223.88	218.75	221.06	238.12	266.25	270.50	244.25	218.50	220.88	222.25	220.38	223.44	260.62	258.25	257.69	257.06	258.75	261.44	272.44	298.88	304.56	314.31	333.56	330.12	323.19	333.50	363.50	392.50	358.31	361.44	380.19	390.81	438.69	512.19	535.94	504.31	587.69	694.12	741.25	651.69	740.81	687.12	641.62	660.69	722.69	706.00	605.56	524.25	495.56	468.88	447.50	430.62	410.38	401.50	391.38	393.81	380.75	385.00	369.06	372.81	369.38	378.06	381.94	373.50	382.31	384.62	380.56	378.31	382.62	378.12	384.94	391.81	395.31	401.94	390.12	390.69	384.06	382.19	383.31	387.56	385.44	383.12	381.44	385.94	385.81	384.56	389.31	389.81	400.38	402.00	412.19	412.56	415.25	425.50	433.56	442.69	443.81	450.50	457.38	463.56	476.25	489.75	502.31	520.94	551.62	581.44	623.69	646.00	601.12	597.56	606.25	656.81	645.25	675.62	736.88	762.44	838.62	816.94	763.62	626.50	567.31	600.44	700.62	643.31	622.00	581.56	784.88	933.50	831.00	697.81	626.31	611.25	661.81	658.62	657.81	694.12	755.50	760.75	823.00	759.25	645.69	610.50	568.06	590.81	600.25	546.81	595.94	694.19	867.56	1141.38	1190.56	907.25	715.19	549.31	481.00	451.94	421.06	399.62	391.50	345.69	335.44	335.75	337.75	328.50	319.50	312.38	307.75	300.75	293.25	283.69	271.56	261.31	253.75	245.12	236.38	232.50	230.31
164.25	180.06	196.12	226.88	308.38	344.06	352.44	322.94	270.81	238.69	268.25	328.69	360.44	388.69	440.25	543.06	555.56	530.06	610.75	591.56	553.88	557.75	545.00	538.69	535.06	545.00	506.12	506.44	506.06	490.00	528.81	478.75	484.94	450.19	488.62	444.94	502.44	554.31	550.06	537.31	572.56	527.50	499.75	467.94	505.62	547.25	598.44	635.19	604.94	518.81	423.75	396.50	387.94	382.06	337.56	320.00	312.50	359.00	406.44	398.31	383.88	340.31	303.44	279.31	272.69	260.12	248.00	262.12	290.56	336.31	305.75	269.69	255.19	252.94	247.06	235.06	228.38	217.56	217.94	223.31	218.00	220.19	246.69	272.62	261.69	232.88	219.94	235.19	224.38	224.50	230.50	267.31	264.06	267.62	263.56	260.25	261.38	264.06	279.56	288.38	300.88	307.38	305.06	311.19	335.44	368.56	376.06	333.75	339.94	354.69	378.19	420.62	465.44	469.62	483.81	590.62	627.00	666.75	642.44	596.44	591.62	627.31	700.12	769.75	786.25	653.44	565.94	503.81	469.88	449.56	433.81	419.50	397.38	402.00	388.62	387.62	387.94	379.56	369.81	367.75	374.69	376.56	368.00	380.31	379.38	378.44	376.25	383.00	390.06	384.50	398.75	416.25	438.25	413.69	397.94	387.75	381.38	383.19	388.31	388.38	385.56	382.12	387.00	387.19	388.06	391.25	394.12	398.31	400.88	403.50	407.06	411.12	421.19	426.00	434.25	440.94	446.38	456.50	464.31	475.81	482.56	489.88	506.19	528.56	548.12	564.06	580.88	590.44	557.44	585.50	602.25	641.62	713.88	851.12	946.50	802.31	787.38	694.25	754.19	656.88	550.88	691.62	638.94	563.25	567.06	652.12	734.44	674.69	640.44	636.94	629.12	667.50	717.56	697.19	674.94	698.50	755.25	800.50	758.94	753.12	661.50	611.25	636.25	621.12	572.81	595.75	676.94	890.12	1156.31	1218.56	901.56	688.94	559.94	496.94	464.62	423.75	395.19	386.12	350.50	337.56	332.38	328.62	326.62	316.75	309.31	300.69	290.75	284.00	274.44	263.06	255.56	251.31	248.31	248.50	251.44	244.19
196.81	232.50	257.38	278.50	305.44	304.50	326.75	344.75	333.31	292.81	263.31	278.94	340.19	420.81	473.88	517.00	503.06	580.75	591.38	550.56	585.19	549.00	477.69	513.62	551.31	506.38	466.38	440.12	456.44	435.62	451.50	498.06	542.19	550.75	580.62	550.06	570.94	568.38	513.75	480.44	543.75	463.19	460.19	431.12	485.62	562.69	674.88	659.19	547.12	446.94	418.31	469.19	488.94	436.62	383.56	330.50	296.75	351.81	381.12	348.56	388.69	404.88	384.38	324.69	269.00	245.19	247.50	277.31	304.69	348.56	335.75	309.19	299.88	308.75	290.94	265.19	241.06	238.69	221.94	219.50	216.50	219.56	244.81	266.00	245.94	242.88	255.62	256.69	231.94	220.62	222.00	263.25	266.12	269.94	272.94	268.81	264.94	264.31	266.69	274.94	283.88	287.25	300.31	314.56	341.12	351.94	335.75	319.50	324.69	334.06	355.38	386.00	407.06	418.75	470.25	548.56	589.50	576.88	556.12	550.81	694.69	780.44	761.31	666.38	769.81	690.94	582.81	504.19	478.50	460.31	438.62	417.12	412.44	411.12	391.69	389.31	388.06	382.94	379.88	369.44	369.19	370.00	375.81	377.12	373.75	378.31	379.56	388.94	419.25	425.38	421.69	423.38	462.06	448.19	411.88	396.81	388.75	386.19	384.38	388.75	384.81	386.50	390.81	388.31	391.62	393.00	394.25	398.69	398.50	401.75	405.12	410.38	416.44	424.19	428.38	438.38	441.62	447.25	455.06	462.44	471.00	474.81	483.62	504.69	513.50	522.31	530.69	544.25	535.12	562.12	605.38	698.69	791.06	985.88	912.44	723.25	746.06	864.94	833.69	640.56	534.06	566.00	557.38	531.06	553.81	591.81	642.75	597.06	618.81	663.06	692.50	656.31	684.69	731.38	730.31	748.88	758.50	830.44	819.69	844.00	768.69	691.00	674.06	630.56	596.12	595.44	646.88	831.25	1021.38	1066.88	860.00	696.69	593.62	510.81	465.12	420.19	390.06	369.12	350.88	340.94	335.75	323.69	316.94	305.81	297.38	291.69	280.31	276.38	273.69	269.12	268.12	269.38	268.06	259.12	247.81	234.25
196.81	260.06	281.75	272.25	259.31	280.12	302.75	328.69	359.06	350.31	303.56	281.06	312.62	373.62	427.50	431.62	454.75	553.94	581.19	501.44	508.69	506.50	428.12	517.56	496.19	435.31	433.94	397.56	403.19	428.88	463.75	543.75	614.56	597.31	553.38	541.50	573.88	517.75	439.31	460.44	542.56	425.44	400.44	450.38	570.06	632.25	648.31	588.75	503.38	461.31	519.75	504.69	487.62	457.06	405.31	335.50	300.44	301.44	330.12	315.69	387.25	442.81	398.94	344.25	290.00	246.00	241.44	269.00	310.50	341.12	319.19	327.06	339.31	314.06	281.06	265.12	247.25	256.62	222.62	219.94	220.44	228.00	244.06	259.44	264.88	283.25	292.56	267.44	239.12	234.88	224.94	264.00	265.81	267.81	273.38	277.38	280.94	277.81	270.00	271.25	273.69	283.38	297.31	308.81	319.00	323.25	310.88	311.81	311.88	324.25	341.94	365.12	376.75	388.56	425.56	476.75	526.19	507.00	507.75	626.31	749.31	729.62	617.19	603.19	654.94	609.94	605.56	596.81	523.06	471.00	439.31	431.94	430.75	410.50	408.19	400.50	394.38	397.56	387.50	374.44	372.50	368.75	378.38	373.12	372.56	377.38	373.81	379.56	416.31	449.44	446.44	443.38	451.81	475.69	428.62	411.25	400.75	402.69	401.00	387.94	384.31	394.50	387.75	388.50	392.50	394.25	394.19	393.25	403.44	404.50	406.94	410.50	415.38	416.19	420.44	429.88	434.31	438.81	444.19	456.25	453.62	457.62	465.75	481.81	489.81	498.56	514.25	517.31	532.81	561.75	632.69	750.38	894.38	909.94	784.88	690.38	664.44	742.00	665.69	599.19	541.81	521.62	518.38	526.06	555.25	558.75	583.00	613.56	623.25	686.50	686.62	680.69	683.31	745.44	792.69	841.62	917.31	960.06	856.69	938.19	964.19	800.69	724.38	667.25	619.56	584.62	617.19	725.69	775.19	813.94	712.75	615.44	571.94	504.62	455.69	407.88	380.62	367.12	353.62	344.31	333.25	322.94	317.56	311.94	306.06	297.88	294.56	299.25	297.31	286.69	276.81	263.88	254.81	243.81	232.94	225.31
175.56	213.50	230.94	225.88	259.81	317.25	354.06	361.75	383.06	414.50	376.88	325.69	307.44	318.44	352.31	369.81	415.12	494.81	552.25	511.75	447.56	426.56	400.69	492.25	467.00	400.88	378.88	371.81	413.56	500.31	535.12	555.56	539.25	513.56	470.38	449.00	532.75	562.00	466.94	407.50	448.44	374.81	431.38	507.75	576.81	562.81	525.56	511.25	487.81	508.81	550.12	466.75	432.31	403.19	377.50	379.94	351.50	289.31	277.81	302.12	418.81	455.25	372.44	314.25	276.56	243.00	236.44	263.69	305.69	310.88	276.25	299.75	328.75	288.12	253.81	233.38	225.19	225.38	221.75	222.50	222.75	235.50	239.38	262.56	295.06	322.62	303.69	267.44	244.44	240.62	229.06	266.44	263.94	265.00	272.56	285.12	298.25	308.44	295.56	278.75	275.06	275.69	280.19	288.31	296.06	299.38	303.88	306.38	308.25	321.25	334.12	348.69	354.50	364.31	391.19	421.62	464.50	454.19	509.00	586.56	584.75	562.38	615.50	738.69	729.06	799.31	780.38	709.50	613.75	488.12	454.75	447.94	433.19	424.06	411.81	400.50	403.25	398.25	386.12	378.19	374.19	367.50	377.25	372.88	372.88	374.12	373.06	371.50	386.00	409.06	433.81	481.94	484.12	492.88	450.62	435.31	420.94	418.88	423.94	404.88	390.06	386.44	393.81	395.38	394.38	390.69	390.12	395.25	399.56	405.38	409.00	409.88	410.94	412.50	416.75	421.88	429.94	434.62	435.12	442.56	440.56	445.19	454.44	465.50	482.38	502.50	506.69	506.62	522.06	549.69	607.88	744.25	818.44	763.88	787.38	782.25	657.00	592.25	601.38	577.50	531.19	507.94	515.69	561.50	639.06	609.94	588.12	613.31	621.56	631.31	657.06	685.06	699.56	733.00	802.38	892.75	999.25	1084.94	930.31	1005.88	1066.00	901.81	762.12	660.81	616.25	577.25	561.62	609.94	648.19	682.56	595.62	540.31	521.75	481.75	434.75	411.56	418.69	402.00	380.50	364.12	350.38	336.00	330.25	329.19	324.88	311.00	301.94	297.81	288.88	277.06	264.94	251.31	244.12	237.88	232.12	226.56
174.75	181.06	195.00	225.75	297.38	345.56	372.38	400.31	418.50	437.25	424.31	396.25	370.44	323.75	359.44	390.69	448.62	495.88	498.38	459.06	418.56	386.50	378.25	419.75	412.00	368.88	359.56	400.06	461.88	546.88	578.50	565.44	498.88	449.06	423.31	406.00	481.62	534.62	478.19	378.00	348.50	354.12	459.62	503.69	498.81	480.12	447.50	418.31	436.06	528.00	540.12	503.75	507.19	468.19	453.69	433.44	374.44	295.88	270.50	271.94	364.62	425.38	400.12	326.12	279.50	251.50	236.81	250.06	279.81	281.75	250.88	282.94	308.50	271.69	248.31	232.69	226.94	216.75	219.06	223.88	236.00	254.62	245.31	279.00	325.81	336.50	296.94	269.94	247.94	236.62	232.81	272.00	267.81	266.81	272.62	279.00	296.62	323.69	320.62	291.00	279.44	278.56	281.12	282.62	288.69	294.12	296.81	301.44	305.00	315.06	323.12	334.62	345.50	358.06	375.62	404.00	434.44	433.94	468.88	486.31	509.81	622.56	710.94	780.38	799.38	746.62	766.38	662.75	618.12	500.56	466.88	453.75	446.69	427.75	413.12	409.38	408.88	406.62	388.38	374.75	375.81	369.94	374.62	367.31	371.00	374.25	374.69	376.31	374.62	387.94	404.88	461.75	471.25	472.81	479.44	466.19	439.31	432.88	434.31	419.88	399.31	384.19	397.19	408.44	416.50	411.44	394.50	391.94	395.56	400.81	404.81	405.81	408.38	412.25	414.00	418.06	424.81	425.31	427.44	428.06	433.38	445.94	453.88	467.88	480.56	498.31	496.56	495.94	506.38	514.50	564.19	626.25	676.19	685.00	804.06	716.00	606.19	582.38	554.31	568.31	521.25	504.50	542.06	586.62	634.06	644.75	587.12	592.25	592.12	597.12	623.44	641.31	710.00	752.75	815.56	988.00	1090.75	1159.38	1066.50	1089.62	1084.94	939.75	808.88	718.00	651.75	578.44	543.81	571.19	736.81	659.38	537.06	495.81	474.44	442.56	421.19	446.31	458.81	458.56	406.81	372.19	356.75	345.88	324.50	314.56	316.00	308.75	294.88	285.44	274.25	263.00	253.56	246.31	241.44	237.69	232.00	228.25
197.25	201.56	206.38	221.62	267.19	293.56	311.50	339.06	365.19	382.50	404.81	451.12	440.00	356.94	420.25	476.00	539.31	512.56	479.25	477.56	449.06	450.00	407.69	354.62	351.31	348.00	391.62	458.50	525.12	558.75	506.81	519.75	543.50	503.38	443.00	387.50	416.31	455.38	455.25	434.62	320.69	336.25	387.25	417.81	440.94	448.44	400.81	382.94	454.19	547.00	500.50	449.19	479.38	422.06	400.50	370.81	322.06	329.25	330.88	272.06	264.75	303.50	356.06	360.38	339.44	271.50	238.62	236.38	263.06	267.69	238.19	272.94	290.81	258.38	253.38	251.31	237.75	216.00	219.62	230.38	253.62	278.44	261.50	302.81	346.06	328.88	299.06	275.38	254.69	241.12	233.31	267.50	268.31	267.69	269.56	271.12	280.44	299.62	303.06	289.81	289.06	286.19	285.44	290.50	293.69	294.38	295.44	298.12	305.81	316.69	326.69	336.81	351.94	364.62	380.06	397.31	404.81	419.31	440.88	467.00	553.94	633.38	631.50	610.19	698.69	620.19	617.62	565.81	538.62	506.88	477.88	461.56	448.94	431.56	426.88	416.00	411.62	405.75	391.19	380.81	378.62	371.38	376.06	374.56	370.06	372.12	373.94	373.19	372.94	380.38	387.81	405.62	424.31	437.25	436.69	442.06	419.88	409.50	419.06	399.25	386.06	385.38	410.06	425.88	453.75	436.31	410.06	397.06	391.81	390.69	398.25	401.44	408.69	405.62	410.62	415.00	416.62	417.19	420.25	421.75	437.88	446.44	452.81	465.31	477.50	491.69	486.19	483.62	483.00	500.75	540.56	582.50	605.38	629.31	645.75	612.94	567.81	568.06	555.31	526.25	504.75	514.69	553.19	570.62	582.88	550.12	553.12	574.88	578.31	590.69	609.12	641.44	680.56	733.19	803.75	926.50	1039.94	1196.81	1165.56	1077.56	1017.00	1027.38	933.38	859.25	696.44	588.50	542.12	523.62	602.00	574.56	511.56	483.50	490.25	467.56	461.31	480.81	496.12	451.56	405.62	384.44	359.00	349.56	334.00	312.38	301.75	300.69	298.19	284.00	267.12	261.19	256.38	249.81	244.06	237.81	235.00	233.44
217.44	229.31	223.56	243.00	235.94	250.25	272.00	299.06	319.12	336.25	379.94	443.56	454.94	384.19	434.38	529.50	547.75	515.38	528.44	542.94	541.44	558.12	471.50	367.50	333.44	365.12	465.94	509.50	567.56	544.56	460.31	435.69	494.50	552.62	509.12	432.81	376.62	363.75	395.12	392.69	307.12	339.00	391.12	461.75	481.44	446.88	370.94	371.50	457.12	566.31	535.19	442.88	424.44	385.12	359.75	344.56	347.88	403.75	381.25	347.31	286.56	256.62	279.69	325.25	345.44	269.81	237.69	234.06	243.25	244.06	230.06	248.50	249.06	232.38	232.00	233.50	225.88	219.38	221.81	244.50	275.69	299.88	278.25	315.75	350.62	345.69	316.81	282.81	263.12	245.94	237.50	271.25	271.81	272.50	271.69	274.81	275.88	282.12	287.00	285.31	290.25	293.50	289.81	292.38	291.88	291.69	294.25	300.62	306.56	315.50	326.19	339.31	352.62	363.62	377.12	389.88	402.94	419.25	456.56	500.25	555.12	575.62	533.75	538.19	610.62	666.06	622.38	601.19	547.44	525.06	493.06	463.25	449.38	441.38	430.62	418.19	408.94	398.25	389.56	383.94	378.56	373.19	372.19	377.25	369.69	369.62	371.06	369.06	375.31	378.75	381.19	389.94	400.06	419.56	405.50	413.62	408.31	391.38	401.50	383.81	375.94	383.69	409.62	437.44	470.00	439.12	417.88	401.00	392.12	391.56	395.69	398.25	400.12	401.56	407.50	413.06	415.75	423.75	421.81	426.12	436.62	443.88	447.75	461.56	471.19	476.69	475.81	476.25	480.88	506.94	539.06	564.94	575.44	576.31	565.81	578.44	548.88	539.06	557.31	508.81	495.50	527.44	551.69	551.88	538.31	557.06	597.44	635.94	629.50	622.12	624.19	638.81	676.69	731.69	820.31	959.31	1067.88	1140.06	1052.12	927.44	935.12	1089.25	1016.88	925.75	776.12	628.06	559.12	516.31	514.19	560.31	504.56	508.25	540.00	508.06	528.19	548.31	544.44	461.75	406.19	405.69	378.00	339.00	329.38	317.44	310.69	296.31	289.25	277.31	266.62	262.12	257.75	251.75	246.44	241.56	241.25	238.88
