302.19	302.69	302.00	301.19	302.06	301.06	300.19	299.75	298.56	295.31	289.44	284.50	280.56	277.25	277.00	277.00	277.00	277.00	277.00	277.00	277.00	277.00	277.00	277.00	277.00	277.00	277.00	277.00	277.00	277.00	277.00	277.00	277.00	277.00	277.00	277.00	277.00	277.00	277.00	277.00	279.94	281.12	283.19	288.25	291.44	297.56	300.38	301.44	300.12	292.81	294.50	294.06	292.44	293.81	291.56	288.19	288.50	289.12	289.19	289.94	290.12	288.94	290.25	289.00	287.12	288.62	289.56	284.94	282.88	282.00	281.31	281.25	280.62	280.75	279.88	279.38	278.50	277.94	276.56	279.06	279.44	278.94	279.12	279.12	276.88	277.19	274.44	261.12	258.69	246.00	272.88	270.06	259.12	244.00	238.44	237.94	232.06	234.56	235.81	237.88	241.44	242.75	244.75	247.88	249.31	249.44	249.81	250.06	254.88	254.44	253.44	253.44	257.50	257.75	255.25	253.94	252.44	252.69	253.06	260.00	254.31	250.94	250.62	257.44	259.94	257.75	259.00	260.19	265.06	267.88	278.75	289.50	283.62	261.31	260.50	263.75	260.00	257.12	257.06	258.06	258.88	259.25	259.00	260.19	259.56	258.62	259.25	259.12	257.50	257.19	258.94	259.62	259.50	259.75	262.50	266.12	267.62	267.31	263.44	259.38	258.31	258.31	259.38	255.81	259.56	256.56	254.00	254.06	253.69	249.94	248.94	249.31	247.81	241.94	237.19	234.44	233.50	235.50	229.88	230.25	228.62	227.06	226.50	223.88	220.19	219.62	215.38	209.94	209.12	207.19	203.56	199.12	199.38	197.31	195.44	193.00	191.94	190.94	187.00	185.00	185.69	180.88	179.19	181.56	182.06	182.19	181.94	182.31	181.94	181.06	180.81	181.06	181.25	181.06	179.75	180.69	184.00	184.81	185.44	186.81	192.38	197.62	193.31	192.44	194.69	180.12	168.56	167.62	168.00	167.94	167.38	167.69	168.00	167.75	169.06	169.31	168.81	168.62	168.31	167.25	166.94	167.00	167.81	169.38	169.19	166.19	166.31	168.56	169.31	167.38	165.00	164.81	166.56	168.19	166.38	166.31
299.94	300.19	299.62	298.31	297.75	296.19	296.50	296.62	295.12	291.06	284.25	280.50	277.19	277.00	277.00	277.00	277.00	277.00	277.00	277.00	277.00	277.00	277.00	277.00	277.00	277.00	277.00	277.00	277.00	277.00	277.00	277.00	277.00	277.00	277.00	277.00	277.00	277.00	277.00	277.12	279.44	280.44	283.25	288.94	290.69	297.00	301.62	302.56	298.50	296.12	294.56	294.06	293.06	294.19	293.06	290.31	290.38	290.56	290.62	290.56	290.62	290.44	291.75	289.75	289.06	290.94	292.81	286.94	284.19	282.06	282.12	283.38	282.12	282.00	280.19	278.94	278.62	277.69	277.75	279.38	280.19	279.56	280.88	279.50	278.94	277.62	259.56	265.31	276.75	272.44	274.00	276.00	269.38	252.44	244.81	245.25	238.88	239.12	241.94	245.50	248.31	247.75	249.25	250.69	251.00	251.25	253.25	253.75	257.31	255.69	254.19	254.38	257.62	259.94	257.31	255.81	255.50	256.25	255.69	257.69	254.88	254.12	254.88	259.94	261.88	258.69	259.44	261.25	267.56	276.38	285.56	288.00	269.81	259.75	262.50	278.31	268.44	256.31	256.62	258.75	266.25	265.88	262.56	263.44	262.56	261.50	262.56	262.94	261.25	260.94	262.94	264.50	264.38	263.56	264.69	267.38	268.56	268.94	266.88	261.81	263.56	263.69	267.44	267.44	267.69	260.38	255.81	256.12	254.19	249.38	247.62	246.81	244.94	241.56	238.25	236.88	235.50	238.88	233.75	233.88	229.31	228.06	228.44	224.62	221.44	219.56	215.50	213.62	212.25	209.75	207.62	205.38	205.69	204.62	201.31	198.12	197.62	191.56	186.88	187.44	183.44	178.44	180.12	183.94	184.25	184.31	184.25	184.44	184.25	183.81	183.19	182.88	183.00	182.50	180.56	182.94	185.94	186.75	188.00	189.56	194.62	199.19	201.25	203.62	199.06	185.56	169.00	168.06	168.12	168.00	168.00	168.06	168.25	168.00	168.88	169.00	169.19	168.50	168.25	168.44	168.00	168.06	168.12	169.25	170.00	170.06	167.69	168.00	168.56	169.19	168.56	168.44	167.50	168.62	168.81	168.69
297.38	297.00	296.25	294.81	293.31	289.88	292.19	292.94	290.56	282.50	277.56	277.00	277.00	277.00	277.00	277.00	277.00	277.00	277.00	277.00	277.00	277.00	277.00	277.00	277.00	277.00	277.00	277.00	277.00	277.00	277.00	277.00	277.00	277.00	277.00	277.00	277.00	277.00	277.00	278.25	279.31	280.44	281.25	284.06	288.88	289.62	293.81	298.38	297.62	296.56	294.44	294.31	293.88	293.25	292.88	292.50	292.69	293.00	292.62	290.94	292.19	293.00	293.25	292.06	291.31	292.50	293.81	289.94	287.94	284.25	285.00	286.00	283.75	283.38	282.38	281.50	281.88	279.62	279.81	280.62	280.94	280.31	280.88	279.06	270.81	264.50	259.88	279.88	278.94	279.50	278.19	280.56	277.81	263.75	251.38	250.12	247.62	244.12	248.50	250.00	250.06	250.75	253.31	252.88	252.81	254.94	256.94	258.44	259.62	257.56	255.25	255.62	258.19	260.88	259.12	258.50	258.94	259.75	258.94	258.88	258.00	258.00	259.56	263.88	265.56	264.06	264.88	268.38	275.75	282.19	280.50	265.50	260.12	268.56	268.69	268.50	260.62	257.12	258.75	263.12	268.38	269.88	268.38	267.56	268.44	268.31	268.62	267.75	263.25	267.12	268.50	269.25	269.75	269.12	268.62	269.56	270.69	271.25	273.94	275.62	274.56	274.12	277.69	278.06	275.44	265.19	258.62	257.62	255.75	252.94	248.62	247.94	246.56	246.62	243.75	240.44	238.19	238.31	234.62	232.75	229.94	229.00	227.06	224.06	223.00	221.94	218.94	218.50	218.00	213.12	211.81	210.69	209.75	208.75	204.06	200.00	197.75	191.31	188.50	183.94	180.44	182.06	185.00	186.62	187.00	186.94	187.31	186.38	186.94	187.00	186.00	185.00	184.31	184.19	182.81	185.06	188.06	189.38	191.81	194.56	197.12	202.00	206.50	209.19	192.62	178.25	168.88	168.69	168.88	168.75	168.75	168.81	169.00	168.31	168.88	169.62	170.00	169.50	169.56	169.19	169.25	168.94	169.38	169.50	170.00	171.19	171.25	169.00	169.38	169.12	168.44	168.06	166.62	167.44	169.69	169.38
295.44	294.19	293.25	291.50	289.56	284.81	285.69	284.81	280.69	277.00	277.00	277.00	277.00	277.00	277.00	277.00	277.00	277.00	277.00	277.00	277.00	277.00	277.00	277.00	277.00	277.00	277.00	277.00	277.00	277.00	277.00	277.00	277.00	277.00	277.00	277.00	277.00	277.00	277.94	280.81	281.56	281.81	284.25	291.69	298.81	301.25	301.44	301.56	299.75	297.25	297.38	296.19	296.62	295.50	295.25	295.38	296.50	296.38	294.56	293.19	291.94	291.88	293.12	294.50	295.12	294.12	290.44	290.12	289.50	289.00	289.00	287.56	286.88	283.25	285.88	283.81	282.38	280.75	282.62	283.56	282.75	281.19	276.69	272.19	266.88	272.19	277.50	280.06	280.12	280.12	280.31	281.69	283.81	274.19	258.62	251.31	249.38	249.06	250.69	250.56	250.56	254.31	255.62	259.06	258.88	259.56	263.62	265.00	266.38	262.12	259.81	259.31	260.25	261.12	259.38	264.75	267.12	269.44	267.19	263.88	262.56	264.62	267.25	270.62	273.31	271.62	270.62	272.38	276.44	276.94	267.94	262.56	267.12	281.44	276.75	261.44	258.38	258.94	260.75	264.50	269.38	268.69	266.69	268.00	268.88	273.81	274.62	270.06	269.19	270.69	277.06	279.62	279.19	279.56	273.81	273.56	275.56	278.12	279.62	281.69	284.75	281.19	280.00	279.94	276.94	269.94	263.00	260.81	258.31	257.75	255.69	253.44	252.50	250.75	248.38	243.25	240.19	239.69	238.31	233.00	230.19	228.25	229.00	226.38	225.81	229.19	228.12	221.62	219.69	218.06	216.50	210.94	208.25	206.00	203.06	198.19	193.44	188.44	185.94	187.38	189.88	190.31	190.56	190.25	189.81	190.62	190.69	189.25	189.69	190.00	188.50	185.31	184.75	184.69	185.25	187.06	191.44	194.75	198.62	202.12	204.56	198.69	195.00	194.06	186.44	176.62	170.62	169.94	168.25	169.12	170.94	170.38	170.25	168.75	169.06	168.38	169.00	170.00	169.81	169.38	169.50	169.50	169.81	170.00	170.19	172.00	172.69	172.00	171.56	172.50	172.38	172.06	170.19	169.44	168.69	168.25
294.56	292.50	291.06	289.31	288.12	284.50	279.50	278.19	277.19	277.00	277.00	277.00	277.00	277.00	277.00	277.00	277.00	277.00	277.00	277.00	277.00	277.00	277.00	277.00	277.00	277.00	277.00	277.00	277.00	277.00	277.00	277.00	277.00	277.00	277.00	277.00	277.00	277.00	280.44	282.19	284.56	285.00	289.00	298.25	304.88	307.12	306.12	306.19	309.06	302.38	298.88	297.25	297.56	298.00	298.81	298.56	298.81	298.06	296.12	295.06	294.19	293.00	294.06	295.25	295.50	294.75	292.38	290.94	289.62	289.06	290.19	290.44	288.44	284.38	286.25	284.06	283.12	281.75	283.50	284.00	282.75	280.00	272.88	277.31	276.62	280.44	281.50	282.44	281.56	281.12	281.69	282.06	283.88	276.44	267.44	255.56	252.25	252.69	253.62	254.50	254.94	257.88	258.44	260.12	259.12	260.50	267.00	270.19	269.31	264.56	262.06	261.50	263.38	264.00	259.75	268.75	271.88	270.69	269.75	266.56	266.25	270.00	273.69	275.81	275.94	269.25	268.38	268.44	266.62	264.69	261.81	267.12	275.19	286.62	272.62	260.81	258.31	261.12	262.88	265.06	268.88	271.00	268.50	266.06	266.38	267.00	268.56	265.19	267.50	268.50	275.12	276.44	278.94	279.19	278.25	277.69	278.94	280.19	280.31	279.94	285.44	283.56	282.31	281.19	272.62	267.75	267.50	264.06	256.38	254.56	257.31	255.19	252.81	250.94	248.38	244.94	240.69	239.19	239.06	234.06	230.44	230.88	229.00	228.06	226.62	228.00	229.06	226.06	222.44	219.25	215.00	211.94	208.12	206.69	204.38	199.94	192.00	192.19	192.38	192.50	193.06	193.50	194.06	192.25	192.00	193.06	192.94	191.12	191.31	191.62	190.19	187.44	187.00	186.69	187.50	189.75	194.75	199.31	204.25	209.31	214.38	205.31	196.31	190.88	184.75	177.75	174.62	173.75	171.81	172.75	175.19	172.81	172.00	169.50	168.50	167.62	169.00	169.75	169.06	169.00	169.00	169.06	169.62	170.00	170.06	171.81	172.88	171.94	171.12	171.44	172.88	171.75	170.19	169.94	168.25	169.75
291.69	290.12	288.94	288.06	288.00	285.25	277.00	277.00	277.00	277.00	277.00	277.00	277.25	277.62	277.69	278.00	279.00	279.25	279.00	279.62	279.56	278.62	278.94	277.69	277.06	277.00	277.00	277.00	277.00	277.00	277.00	277.00	277.00	277.00	277.00	277.00	277.00	277.56	280.00	281.38	287.00	289.31	294.62	304.06	311.19	311.88	310.62	309.62	307.50	303.56	299.12	298.56	299.25	301.06	303.69	303.50	302.44	300.12	298.31	296.88	296.12	296.56	296.38	295.88	296.12	296.31	295.25	292.50	290.81	290.00	290.25	291.25	288.75	286.88	287.50	286.62	284.62	282.50	284.50	284.75	282.69	278.69	275.06	278.62	282.38	283.81	284.38	286.00	284.38	282.94	282.00	282.31	286.25	283.50	277.94	262.19	257.88	257.94	258.00	259.69	261.25	262.50	263.31	263.44	262.56	264.12	270.62	271.69	270.19	268.69	267.56	266.81	268.12	268.19	260.00	267.94	271.44	270.31	268.62	266.88	269.75	277.44	278.50	272.19	266.56	264.00	263.31	262.19	260.81	262.75	268.06	277.69	295.50	283.50	267.50	260.56	261.38	262.56	268.38	270.31	273.50	271.75	281.75	282.69	277.44	277.44	279.44	271.50	266.25	269.12	270.50	270.12	271.44	275.50	279.50	279.44	281.94	285.44	284.38	283.50	283.62	283.25	281.44	275.88	274.06	269.06	268.56	269.31	265.12	258.00	259.75	257.62	259.19	255.94	253.50	246.31	241.44	239.38	237.19	235.56	230.12	235.62	237.44	238.12	235.88	232.81	233.25	234.94	226.94	221.94	219.88	216.69	211.44	210.06	207.06	199.44	201.75	200.12	196.81	197.75	196.56	197.00	196.50	196.25	195.25	196.06	196.31	194.44	193.50	193.12	192.62	191.00	190.00	189.75	190.44	194.44	199.75	205.38	211.00	216.38	213.75	207.88	201.69	191.19	187.88	183.12	181.88	181.12	179.25	179.69	183.50	179.19	174.62	172.94	168.69	167.94	168.94	168.94	168.38	168.50	169.00	168.62	168.62	170.00	170.25	171.69	172.00	171.25	169.94	170.31	171.94	172.56	170.12	169.88	168.62	169.44
290.50	288.38	288.00	287.88	288.00	285.25	277.50	277.19	277.00	277.12	277.75	278.06	279.50	279.75	279.56	281.00	283.06	282.50	282.88	282.69	282.19	281.69	281.50	278.69	278.38	277.44	277.00	277.00	277.00	277.00	277.00	277.00	277.00	277.00	277.00	277.00	277.00	279.25	279.75	279.94	289.12	292.94	296.31	303.25	309.69	311.50	310.00	307.19	304.31	302.44	300.06	302.19	303.12	304.62	307.75	308.25	306.19	302.69	301.00	300.00	299.31	299.62	298.31	297.00	297.81	298.31	296.44	294.38	293.31	290.69	291.00	291.25	289.81	288.81	288.56	287.75	285.25	283.19	285.69	285.69	281.94	279.25	274.62	281.25	284.06	286.75	287.25	288.69	286.75	284.12	282.50	282.56	286.25	288.69	283.88	266.94	261.06	262.38	262.38	263.44	265.44	266.19	267.50	269.25	269.00	271.19	270.94	270.94	269.12	269.56	269.44	269.62	269.38	268.44	260.50	267.06	267.12	266.31	266.38	266.88	268.44	274.50	272.31	265.62	262.19	261.75	260.94	261.31	263.81	271.56	286.19	296.06	285.00	265.12	261.56	265.88	265.56	262.19	267.00	271.31	280.31	283.25	294.94	292.81	275.75	268.81	270.00	268.31	265.88	267.31	271.12	273.56	270.88	271.19	273.88	276.75	278.69	282.31	288.56	286.62	287.75	284.31	280.19	278.31	274.88	273.25	266.62	264.38	262.25	261.69	263.12	259.06	259.00	257.44	253.75	247.75	245.00	241.44	241.12	238.12	230.88	233.69	237.81	238.44	236.81	235.12	237.19	235.44	228.25	224.62	221.88	219.25	214.88	212.62	209.88	206.69	208.88	202.62	202.19	202.69	203.00	200.38	200.81	199.94	197.88	198.62	199.44	197.00	195.38	194.81	194.75	194.44	193.31	192.12	191.19	194.25	200.75	204.50	207.94	207.62	206.75	203.75	197.88	193.12	191.06	193.56	194.75	195.94	190.31	193.69	199.38	188.69	177.94	177.44	176.19	180.81	171.44	168.69	167.81	167.69	168.44	168.31	169.06	169.88	170.19	171.12	171.50	170.38	169.56	169.44	170.69	172.88	170.00	170.00	168.62	167.88
297.25	291.25	289.75	287.88	287.50	284.06	278.38	278.56	277.38	278.62	279.38	279.94	280.19	281.44	280.81	283.19	285.31	284.50	285.19	284.81	284.56	283.44	283.00	279.94	280.06	278.75	277.50	277.00	277.00	277.00	277.00	277.00	277.00	277.00	277.00	277.00	277.94	280.12	279.25	280.25	288.56	292.00	295.00	301.62	308.38	310.56	308.62	307.06	305.25	301.69	301.75	306.25	306.88	308.06	310.19	310.62	309.00	305.88	304.12	304.44	302.38	301.06	300.19	300.00	299.94	299.44	298.12	295.69	294.06	291.38	291.62	291.44	290.69	289.94	289.12	287.75	286.06	283.62	286.25	285.56	281.81	276.50	278.56	283.75	285.81	288.31	289.62	289.81	288.06	284.81	283.69	283.31	284.62	286.69	288.19	270.00	264.19	265.81	266.50	267.25	268.31	269.56	270.94	273.62	273.75	274.56	271.25	269.25	266.94	268.75	269.31	269.38	266.75	264.88	261.56	265.38	266.75	266.00	266.62	268.44	269.75	271.56	269.44	263.56	260.38	260.75	263.88	267.38	273.12	287.38	300.19	304.69	276.06	260.50	268.31	275.44	269.31	263.06	265.62	270.62	275.62	274.75	277.50	275.38	270.56	269.44	269.75	267.56	268.81	270.75	271.81	276.81	271.00	269.31	272.25	274.44	277.50	280.38	286.50	292.56	290.50	286.94	284.06	280.00	278.75	274.94	269.38	270.31	267.50	266.88	268.56	263.38	261.75	254.88	249.06	246.38	243.31	241.44	241.00	238.06	233.38	236.31	238.50	239.12	239.56	238.81	239.62	237.38	228.12	226.12	221.19	217.62	212.88	215.38	210.12	211.94	213.12	206.12	210.00	207.12	208.81	206.62	206.94	203.94	199.75	200.75	200.81	198.88	197.12	196.44	196.62	197.00	195.50	193.81	193.06	195.88	197.25	199.56	203.31	204.50	204.12	203.75	200.00	196.62	195.00	202.12	209.56	204.62	197.56	200.38	198.38	192.31	183.75	182.12	189.75	187.81	173.12	169.19	167.50	167.00	168.19	168.06	167.50	169.75	170.00	170.81	171.00	170.19	169.06	168.88	169.62	171.56	170.19	169.88	168.56	167.19
300.38	296.00	294.00	290.25	287.06	281.75	279.62	279.44	279.56	282.00	280.12	282.38	283.56	285.75	284.81	286.81	286.19	289.75	289.38	287.81	286.94	285.12	284.81	281.31	281.94	281.12	280.12	279.06	277.31	277.31	277.00	277.00	277.00	277.00	277.00	277.94	280.44	278.88	279.62	281.94	286.69	289.19	292.75	298.19	306.38	310.19	310.38	310.62	308.50	303.19	306.44	310.81	312.19	311.25	311.06	311.00	311.25	309.12	306.44	306.94	304.62	301.75	300.38	300.88	301.75	300.81	299.81	297.00	294.94	292.31	292.19	292.00	291.50	291.38	289.81	288.56	287.81	284.62	286.50	285.25	281.00	274.62	282.75	287.12	288.81	290.31	290.94	290.19	288.75	285.19	284.19	283.94	282.00	281.56	281.44	271.12	268.19	270.44	271.81	273.00	273.25	275.25	277.00	280.06	279.44	273.25	268.88	268.62	269.69	267.38	267.06	267.56	263.00	262.00	265.06	269.81	270.31	269.19	268.56	269.12	270.25	267.94	264.44	260.81	265.06	267.50	276.88	285.38	290.94	300.88	294.94	274.69	260.62	264.88	273.50	272.88	269.88	264.06	268.56	279.81	288.00	276.06	268.75	269.38	269.62	271.56	275.12	276.81	278.88	277.06	273.75	280.25	268.44	268.75	270.81	273.94	278.69	279.88	283.38	284.75	288.44	289.19	290.38	286.19	286.19	278.56	277.31	273.00	270.69	269.94	270.06	269.38	268.94	263.69	259.31	251.19	245.94	243.88	246.25	244.19	241.69	245.56	244.69	245.94	242.19	240.75	238.31	236.50	230.00	224.31	219.88	217.62	215.12	216.31	217.38	217.94	219.00	214.19	216.12	213.56	210.19	211.75	211.12	209.19	203.81	203.62	202.31	200.62	199.38	198.75	198.88	200.12	198.31	196.69	195.50	199.88	200.25	199.44	199.12	200.56	200.31	201.94	200.31	200.75	200.31	205.38	208.38	202.69	201.19	199.81	196.00	187.56	183.06	184.75	189.94	179.38	171.44	169.06	167.62	166.44	167.31	168.12	167.38	169.06	169.94	170.00	170.00	169.31	168.50	168.25	169.25	170.12	170.00	169.75	169.31	167.25
302.81	300.06	297.75	293.31	289.25	283.81	281.06	279.75	281.19	284.25	283.19	284.50	287.50	287.88	289.44	289.62	291.50	291.38	290.75	289.31	289.88	288.75	284.75	282.88	283.25	281.62	281.56	280.75	280.19	278.44	277.44	277.06	277.56	277.69	278.25	281.75	284.06	281.62	280.94	283.38	284.62	287.19	290.44	295.25	301.00	308.56	310.69	311.31	310.50	307.56	309.56	312.56	312.88	309.62	310.31	310.44	309.44	308.75	306.56	306.00	304.25	301.25	299.75	300.19	301.06	301.12	300.06	298.50	295.69	293.12	293.12	292.88	292.88	292.25	290.00	289.75	289.88	285.75	286.81	284.50	281.44	277.31	281.06	289.06	290.75	291.56	291.62	290.19	288.19	284.88	283.38	283.25	279.94	278.88	277.94	275.50	272.50	275.56	276.69	278.19	278.94	279.50	280.00	278.44	274.19	269.88	269.81	271.50	270.69	269.06	264.69	265.00	263.56	267.19	267.69	270.38	270.62	269.88	268.44	267.94	267.31	265.00	261.81	261.94	269.50	276.62	280.56	282.19	279.94	278.44	268.19	261.81	262.19	265.56	269.12	266.69	265.44	264.38	268.50	273.06	281.19	276.00	280.31	289.50	284.62	273.50	274.25	275.06	272.69	270.44	270.00	268.19	267.31	269.94	271.56	272.75	275.56	278.56	281.19	285.12	287.12	287.25	289.12	286.00	284.69	280.00	279.12	275.94	277.50	279.00	275.81	268.62	272.12	267.19	267.81	264.50	257.38	252.31	253.62	254.25	248.06	249.38	248.69	246.56	240.88	239.81	237.88	235.19	229.69	223.94	223.12	223.88	225.38	226.62	225.25	224.12	221.38	220.00	219.19	218.19	217.88	215.12	213.56	208.19	206.81	206.06	205.25	203.81	202.44	200.50	201.81	202.81	200.25	198.94	197.38	200.50	201.50	199.69	198.62	199.00	199.31	200.00	200.31	202.12	203.81	207.00	208.31	204.81	200.19	196.25	191.88	183.81	179.44	180.12	176.38	174.81	170.75	168.81	167.50	166.69	166.94	166.25	166.81	169.19	169.88	170.00	169.81	168.62	168.00	168.00	168.94	170.00	170.00	170.00	169.50	166.69
305.44	303.00	300.94	295.75	291.44	286.69	282.62	281.56	283.81	286.50	286.44	287.06	290.31	290.56	292.00	290.44	292.88	292.69	291.38	289.94	289.75	288.44	284.81	283.94	284.00	281.94	281.81	283.25	284.19	283.00	280.19	279.38	283.75	284.00	284.38	286.12	288.69	287.56	285.62	286.50	284.25	287.69	289.69	291.75	296.31	305.06	308.94	310.88	312.06	310.88	309.62	311.31	308.44	306.56	308.31	308.19	307.00	306.56	305.56	303.56	302.44	300.31	299.50	299.44	300.06	300.25	299.88	298.25	295.56	293.44	293.75	293.31	293.06	292.81	290.12	290.00	290.00	286.00	286.38	284.25	282.62	279.25	281.81	290.94	291.94	292.00	291.69	289.50	287.31	284.31	282.31	282.06	279.00	277.19	277.00	275.94	274.56	279.31	279.69	279.88	279.25	279.06	278.69	273.50	270.19	269.81	270.88	271.62	270.44	268.81	265.31	263.12	266.00	270.00	268.81	269.88	269.31	269.31	268.62	268.19	265.56	263.50	264.00	261.31	269.56	275.75	276.62	274.75	268.75	265.12	262.56	262.75	264.56	267.69	268.69	267.56	266.75	265.88	267.44	270.25	270.94	269.31	274.81	281.56	279.56	277.06	276.50	273.12	270.00	269.62	270.00	268.62	270.00	270.38	273.06	273.31	273.88	276.62	281.19	286.69	291.25	291.00	289.94	288.31	282.44	279.81	278.38	277.25	277.69	279.50	279.50	270.25	269.44	271.00	269.62	268.38	263.12	261.00	263.25	260.00	253.44	250.31	244.88	242.94	240.75	240.50	238.31	236.19	229.06	230.38	229.06	229.62	230.56	230.69	228.44	229.19	224.81	222.81	220.75	222.19	219.00	218.75	218.00	210.75	209.81	209.62	207.56	206.75	205.94	204.25	204.81	204.12	201.50	200.38	199.19	201.38	202.38	201.00	199.12	199.25	199.50	201.00	201.94	202.88	205.94	207.50	207.62	204.56	199.75	195.94	193.31	185.50	179.56	180.31	174.69	171.56	169.31	168.25	167.50	166.06	166.62	165.94	165.56	168.56	169.88	169.50	169.06	168.06	167.38	168.00	168.75	170.00	170.00	170.00	169.75	167.44
308.38	305.69	303.56	297.75	293.31	288.56	283.56	285.19	286.31	288.81	289.00	290.25	292.44	294.19	294.88	293.31	293.44	292.44	294.25	291.31	289.81	286.00	284.81	283.31	283.06	283.31	284.19	286.00	287.88	287.56	285.50	288.69	293.00	292.44	291.19	291.94	294.69	294.44	292.00	291.12	287.06	287.12	289.88	294.38	294.62	302.00	305.75	308.50	311.19	310.12	308.62	308.81	307.69	305.38	305.88	305.81	303.88	303.75	304.81	302.50	301.69	300.38	299.62	299.06	299.00	298.88	298.06	297.19	295.94	294.25	294.50	294.19	293.56	293.19	290.44	289.62	289.25	286.56	286.69	283.38	279.88	278.88	287.00	291.56	292.69	292.50	291.19	288.69	286.31	283.88	281.25	280.44	278.69	277.06	276.81	274.38	274.06	280.12	280.75	280.00	278.31	277.50	276.81	273.75	270.12	270.00	270.44	270.50	269.44	268.38	265.12	263.88	266.88	270.06	268.06	270.19	270.38	269.25	268.38	269.44	265.75	265.94	267.50	263.69	268.88	272.38	271.56	268.06	265.62	265.94	268.94	268.06	266.00	269.31	270.56	270.50	269.94	270.62	273.31	276.00	271.94	274.56	277.94	278.88	277.69	277.12	276.19	271.00	269.94	272.75	274.06	273.19	277.00	273.75	273.12	276.50	276.38	277.44	281.50	288.88	292.25	291.69	287.81	285.19	281.94	279.88	278.88	279.44	278.19	279.12	276.88	272.88	272.69	272.75	272.38	268.19	269.06	268.81	270.38	267.31	260.75	257.62	248.56	244.25	242.62	243.19	240.88	238.25	232.94	236.00	235.69	232.81	234.19	233.12	229.06	228.62	226.50	225.38	225.25	224.50	223.88	220.69	218.00	213.25	213.38	213.06	210.69	209.75	209.81	209.06	207.88	205.62	203.50	202.19	201.12	202.75	203.00	203.00	199.81	200.38	200.00	200.81	202.06	203.81	205.44	206.00	206.56	204.62	201.00	199.81	199.56	191.50	187.31	192.56	175.38	171.75	169.38	168.06	167.00	166.62	166.75	165.50	164.75	168.06	169.00	169.00	169.00	167.38	167.06	168.00	168.75	169.88	170.00	169.75	169.56	168.25
312.38	309.00	305.19	299.56	294.94	289.94	289.69	290.19	290.94	293.06	292.06	293.62	294.69	298.25	299.75	300.62	296.75	296.69	298.81	295.19	292.81	292.25	289.56	286.12	286.50	287.19	287.62	289.25	292.19	293.75	294.88	297.56	303.12	301.69	300.00	300.19	300.62	303.75	301.44	299.50	294.38	290.94	290.88	297.69	295.75	297.38	302.12	302.75	302.50	303.56	305.44	304.19	303.50	303.50	302.94	303.56	302.31	301.44	304.31	303.81	303.94	301.75	300.25	299.50	298.75	297.81	297.06	297.44	297.12	295.69	295.50	295.00	294.00	293.94	290.56	287.81	287.44	287.62	286.75	279.25	279.50	284.19	290.88	292.12	293.62	293.06	290.81	287.69	285.25	283.25	280.50	279.12	277.88	276.81	275.75	273.25	275.12	280.25	281.00	280.88	280.00	278.69	275.44	272.56	270.00	270.00	269.94	268.94	267.62	266.50	264.69	265.75	265.62	267.12	267.81	271.44	273.81	272.81	271.06	269.19	266.56	267.69	268.50	269.19	265.38	266.62	264.88	266.56	269.88	276.62	277.88	271.19	266.56	268.75	269.06	270.12	270.25	271.06	276.25	287.81	284.19	288.44	293.12	295.38	288.44	284.81	278.31	270.19	271.50	275.94	279.31	282.38	285.06	279.50	273.88	279.81	279.56	279.56	284.00	288.94	291.62	289.38	289.31	286.00	281.81	279.12	279.25	278.06	278.19	278.62	272.56	274.50	278.69	278.56	278.44	275.94	278.50	279.62	280.75	280.25	271.62	263.81	253.94	247.50	247.25	247.75	245.81	240.38	240.81	240.75	239.81	235.06	237.25	237.19	232.31	229.25	225.75	226.62	227.81	229.12	228.69	222.31	219.88	218.62	218.00	216.56	215.19	214.56	215.69	213.50	209.00	205.69	206.00	204.31	203.25	204.44	203.88	206.38	202.44	201.88	200.75	200.94	201.06	202.31	203.56	204.88	205.19	203.81	201.75	201.25	200.00	197.69	198.69	198.62	176.06	172.81	168.75	167.94	167.38	166.75	166.44	165.69	164.44	166.94	168.31	169.00	169.00	167.88	167.56	168.00	168.75	169.50	169.75	168.62	168.19	168.69
315.75	311.69	308.88	303.00	297.81	298.38	302.38	300.25	298.69	299.81	296.19	296.31	298.00	302.81	304.38	300.50	300.62	301.81	302.25	299.50	297.06	296.62	293.56	292.69	292.31	292.50	293.38	295.69	298.75	300.56	306.31	308.44	313.00	311.69	307.31	306.56	306.38	312.06	313.50	313.12	309.31	308.31	304.06	301.75	299.12	294.81	295.50	295.88	295.81	299.50	301.56	300.69	301.06	303.06	305.31	304.19	304.50	303.88	304.00	305.00	306.50	303.50	301.38	301.56	300.38	299.75	298.88	300.38	298.94	297.19	296.38	295.44	294.06	294.00	289.88	285.62	285.94	286.88	286.00	280.31	285.00	289.56	291.50	292.88	294.31	293.62	291.38	287.25	284.38	281.69	279.44	278.25	276.94	275.69	274.81	273.06	275.25	279.94	281.00	281.00	280.12	278.69	275.38	272.19	270.25	269.75	269.94	269.06	266.50	265.12	266.19	268.38	268.06	269.12	269.94	272.81	276.31	277.19	275.88	273.00	270.25	269.06	270.94	268.31	269.12	264.00	265.81	270.81	272.94	276.19	277.88	271.94	267.12	266.38	266.75	268.00	267.62	266.31	267.00	270.38	273.94	279.00	285.50	298.62	282.06	277.19	278.19	271.19	272.00	276.25	278.94	284.56	285.62	277.75	272.00	273.44	277.06	278.69	283.12	289.44	293.56	296.00	293.06	288.56	283.06	278.69	277.19	279.12	279.38	277.50	274.56	273.94	279.75	282.31	282.25	281.50	280.88	283.00	285.25	283.38	280.12	272.94	261.62	257.06	251.69	246.00	243.00	243.94	242.44	241.69	238.69	236.81	237.69	236.12	231.06	228.19	227.94	226.88	227.81	228.94	226.06	226.75	226.88	227.19	223.75	222.62	220.62	219.25	219.12	213.81	208.69	207.75	207.88	206.31	205.69	206.12	204.31	209.19	204.88	202.94	201.81	201.50	202.00	202.38	203.44	204.00	205.00	203.75	202.38	201.75	201.62	200.88	201.56	204.38	180.50	174.69	170.62	167.25	167.12	166.69	166.06	166.06	165.69	166.31	167.88	168.69	168.62	168.06	167.94	167.88	168.56	169.31	169.44	168.62	167.31	167.81
318.94	316.50	312.12	306.69	304.62	306.88	308.69	306.12	302.25	301.81	297.44	299.44	301.38	305.38	308.75	306.31	306.69	307.19	305.56	302.81	301.81	302.62	302.31	300.19	299.44	301.69	303.75	306.75	310.31	311.94	317.38	320.25	323.44	322.69	318.31	316.62	315.75	320.44	324.44	324.44	321.00	319.56	319.88	314.75	306.31	303.19	301.25	301.81	299.50	300.19	300.75	300.44	301.19	303.38	305.81	303.31	304.19	305.19	304.38	306.31	306.69	303.00	301.75	303.31	302.38	302.25	302.25	301.06	299.94	298.00	296.38	294.94	293.31	293.69	289.06	285.25	285.06	285.69	284.50	279.19	285.62	290.50	291.44	292.94	294.81	293.94	291.56	287.38	284.50	281.88	279.94	279.00	277.56	275.81	274.31	274.06	275.81	279.50	280.69	280.94	280.12	278.44	276.19	272.38	270.06	269.12	268.88	268.31	266.81	266.75	267.50	269.88	270.75	272.56	272.88	275.12	278.81	280.38	279.88	279.56	274.69	271.19	273.62	269.62	269.12	269.25	267.44	270.00	269.94	270.75	271.44	269.81	266.56	264.94	265.31	264.94	264.81	264.81	268.75	270.19	271.50	272.31	270.25	272.06	271.75	271.75	271.44	270.69	272.00	274.94	278.44	277.94	277.75	275.50	272.00	272.12	274.31	276.94	280.50	288.81	298.50	302.25	297.94	290.38	284.25	279.25	279.06	277.56	279.94	279.25	274.50	273.06	279.62	283.00	281.12	280.69	280.50	280.75	281.56	280.00	278.88	272.75	266.75	260.12	252.38	246.00	243.81	246.00	242.81	242.50	239.88	239.06	238.62	235.12	231.75	231.56	231.62	230.44	231.12	230.31	229.50	230.31	229.69	230.38	229.25	229.38	228.25	222.75	221.88	214.69	211.69	210.75	210.69	208.44	207.75	207.81	205.38	207.75	205.44	205.06	204.31	202.62	202.38	202.94	203.06	203.94	204.88	203.69	204.44	203.25	202.81	201.44	201.12	199.56	185.75	183.19	182.25	169.50	167.88	167.44	166.50	166.31	166.31	166.12	167.62	169.06	169.12	168.19	168.00	168.00	168.00	168.19	168.25	167.69	167.81	167.62
325.19	322.25	317.94	313.75	311.25	313.19	311.31	307.12	305.44	303.69	301.81	303.06	304.81	308.56	310.75	313.00	314.38	311.75	310.69	308.25	310.25	312.62	314.25	312.81	312.75	316.25	319.12	321.81	327.25	330.00	330.69	333.50	339.88	339.12	331.50	329.25	328.75	334.19	339.00	341.56	335.88	330.38	330.06	325.19	318.50	317.38	319.00	321.12	316.69	308.62	302.00	298.88	300.19	302.44	304.44	301.94	303.94	305.81	305.00	306.25	303.31	300.44	300.50	303.19	303.44	303.81	304.06	301.25	300.00	297.19	295.62	293.88	292.62	293.19	287.44	283.81	283.56	283.25	282.25	278.19	288.38	291.38	291.81	292.50	294.06	294.00	291.81	288.19	286.25	284.69	282.75	280.75	278.56	276.38	274.81	275.50	276.88	279.06	280.00	280.19	279.75	278.50	276.25	272.81	270.06	269.88	268.31	267.38	268.62	269.38	268.38	270.25	272.25	274.88	276.25	278.81	280.50	281.00	281.00	281.50	277.50	274.00	275.88	271.62	272.88	279.50	272.75	269.69	265.31	264.12	265.31	267.00	264.75	264.00	264.38	263.06	263.00	264.62	267.94	269.25	270.56	272.56	271.31	272.12	274.12	277.12	274.50	273.19	275.19	275.31	279.50	278.75	276.06	282.25	272.25	272.56	276.06	279.50	282.12	286.06	296.06	292.56	289.38	289.50	285.50	278.56	279.25	279.44	280.12	279.19	272.81	275.50	276.75	276.94	276.12	276.25	277.50	279.12	277.19	277.50	271.62	270.31	264.12	259.12	252.19	247.38	245.88	246.00	244.00	243.75	241.75	240.62	238.94	236.56	235.31	235.06	234.25	233.94	233.94	232.56	233.19	234.44	233.75	233.50	230.62	228.62	226.00	222.12	217.94	217.06	216.56	216.00	214.25	210.62	210.06	209.69	207.25	206.31	206.06	207.88	208.38	203.69	203.12	203.50	203.12	203.50	205.75	206.81	207.75	204.31	203.62	202.12	199.69	195.25	194.81	198.44	196.94	177.75	171.31	168.00	167.38	166.06	166.19	166.06	168.00	169.56	169.31	168.44	168.38	168.12	168.38	168.62	168.69	168.25	168.00	168.00
331.25	327.62	325.75	322.81	319.81	318.25	316.56	313.88	313.88	312.69	309.94	310.31	311.81	312.44	318.50	320.44	322.44	320.06	320.31	325.94	326.12	326.75	333.06	334.75	333.69	337.62	339.75	339.12	345.56	345.69	344.62	351.19	353.56	357.62	349.06	345.69	347.31	352.38	359.19	363.69	360.00	361.88	364.50	355.50	356.69	347.44	340.06	340.81	332.94	323.88	315.25	303.56	297.94	298.12	299.94	300.44	304.19	305.56	305.69	301.38	298.69	298.94	298.75	301.44	302.75	303.00	302.44	300.31	297.75	295.38	294.19	292.88	291.69	292.25	288.50	283.69	281.38	281.00	279.75	280.50	288.38	291.56	292.31	292.50	293.56	294.38	292.12	289.06	288.69	288.25	285.62	282.06	279.88	277.38	275.38	277.12	278.00	279.06	279.75	280.00	279.75	278.69	276.25	273.19	270.94	270.19	269.50	269.06	270.00	270.75	269.38	270.38	272.88	275.00	279.00	283.44	281.12	280.62	280.69	280.38	277.50	275.81	277.44	276.50	275.06	276.69	273.69	272.31	268.38	264.81	263.06	263.50	263.00	263.00	263.00	263.00	263.00	263.44	266.06	266.31	274.56	281.31	289.31	290.25	283.88	280.00	276.31	273.38	273.75	273.81	274.62	275.19	274.38	278.25	273.50	272.44	274.94	279.62	286.94	288.94	297.75	290.50	285.12	285.56	282.94	277.94	276.88	277.12	278.31	279.19	279.38	275.94	271.38	271.38	275.75	273.38	272.50	276.06	277.31	273.06	271.75	268.69	265.88	263.75	252.69	250.88	248.88	246.56	245.44	245.19	243.94	242.62	241.12	239.56	238.94	238.88	238.12	237.44	236.81	235.81	235.75	237.50	236.94	236.31	234.38	231.31	229.00	225.19	221.50	221.75	221.31	219.75	215.00	212.69	211.81	211.00	208.94	207.69	207.94	209.06	208.38	204.12	204.06	204.12	203.44	204.56	206.00	207.31	206.25	205.00	203.50	202.00	199.75	200.31	201.50	200.38	196.88	188.50	177.69	169.25	168.69	167.31	167.12	166.56	167.94	169.75	170.00	168.38	168.12	168.12	168.75	169.19	169.75	169.06	169.00	168.75
338.31	332.81	332.81	331.31	327.12	324.94	326.19	323.75	323.50	323.19	320.12	320.94	321.62	320.81	328.06	328.38	335.12	337.06	337.38	347.81	349.38	353.81	360.88	372.50	376.75	378.38	382.81	378.81	384.94	390.19	392.50	388.94	384.12	387.19	384.31	384.62	397.88	413.94	404.06	409.44	436.69	455.44	449.88	456.12	454.44	436.94	415.50	383.69	371.12	353.44	337.44	315.94	303.50	298.88	297.19	299.00	302.50	303.25	304.50	301.56	299.94	298.06	298.00	299.75	301.50	301.38	300.25	298.81	295.12	293.19	292.69	291.44	290.62	290.62	287.75	281.75	280.06	277.88	276.88	281.94	287.19	291.00	293.12	293.25	293.44	294.00	292.69	290.75	290.62	290.12	286.81	283.19	280.94	278.56	276.50	278.56	279.31	279.56	279.81	280.00	279.44	278.38	276.12	273.38	271.38	270.62	270.25	269.94	270.06	271.00	270.31	270.19	272.56	274.62	281.06	281.56	278.81	279.19	280.12	280.06	278.38	275.88	277.31	278.50	278.31	277.81	277.25	274.06	268.12	264.06	263.06	263.00	263.00	263.00	263.00	263.00	263.00	263.00	263.25	264.88	273.19	281.44	289.94	286.44	281.00	279.31	277.31	273.31	273.00	273.00	273.00	273.00	273.06	273.69	273.75	275.12	276.44	280.50	289.94	296.50	297.75	292.44	282.69	285.81	283.44	278.44	274.25	278.62	278.81	279.38	278.88	277.00	276.12	274.75	276.25	271.62	268.69	270.56	274.75	268.94	269.62	270.75	268.81	264.62	258.62	254.31	249.75	247.38	246.75	246.69	246.19	245.06	243.38	241.81	241.62	241.81	241.75	240.19	239.44	238.69	238.56	239.19	239.31	239.38	238.00	233.81	230.56	229.19	225.75	226.12	225.19	219.62	216.94	214.56	212.19	210.81	210.12	209.25	208.06	208.19	206.31	204.25	204.62	204.88	205.00	205.25	206.62	206.25	206.19	205.38	203.50	202.00	200.44	200.19	202.50	199.62	195.94	189.56	176.56	170.44	169.25	167.81	166.38	166.75	168.06	169.38	170.00	169.06	168.44	168.62	168.44	168.50	169.12	169.44	169.25	169.12
350.62	343.00	344.00	342.19	337.75	337.19	338.69	337.25	336.75	334.44	333.25	335.00	336.50	336.25	340.69	339.69	358.44	370.31	388.69	406.06	413.75	421.69	431.50	453.44	471.81	491.00	486.31	491.50	488.62	501.50	499.44	477.19	472.69	456.31	484.88	493.25	497.12	512.75	508.69	525.44	553.50	560.75	558.69	572.69	561.19	559.50	541.75	497.94	505.94	445.62	388.50	340.19	312.75	303.00	298.00	297.50	298.31	299.88	302.06	302.38	300.62	298.06	298.00	299.19	299.44	299.31	297.12	294.56	292.25	290.75	290.88	289.69	288.50	288.00	285.06	278.19	281.00	280.94	282.44	283.75	287.06	290.31	293.50	294.62	294.19	294.00	293.81	294.50	292.88	290.50	287.12	283.69	282.19	279.38	277.69	279.75	280.00	280.00	280.00	280.00	279.25	277.75	275.38	273.62	272.00	271.06	271.00	270.69	270.81	270.56	271.06	271.06	271.81	275.31	282.81	279.50	275.88	275.88	278.81	281.06	281.31	278.25	277.06	277.25	278.38	278.88	277.88	273.44	268.00	263.31	263.00	263.00	263.00	263.00	263.00	263.00	263.00	263.00	263.00	264.50	269.44	274.25	277.50	280.44	278.75	277.00	275.88	273.56	273.00	273.00	273.12	274.56	275.50	273.94	274.56	277.81	283.44	292.56	289.44	294.31	294.62	290.62	280.31	281.56	282.44	277.62	273.62	276.06	276.94	279.81	279.62	279.75	276.50	279.06	278.06	271.75	271.38	268.69	270.06	271.19	271.81	271.12	268.44	267.25	265.31	257.38	253.56	249.62	248.81	249.00	248.75	248.25	246.12	245.00	244.19	244.88	245.06	242.56	241.94	242.06	241.94	241.31	243.88	244.38	238.00	235.56	233.69	231.06	230.31	229.81	225.62	218.62	216.06	213.50	211.19	210.62	211.06	209.56	207.50	206.56	205.75	205.25	205.50	206.00	206.25	206.25	207.38	207.38	207.00	204.81	203.00	201.81	201.00	200.88	200.12	199.12	189.25	179.62	174.94	172.12	169.38	168.25	167.56	167.62	168.50	169.75	170.00	169.44	168.81	168.44	168.38	168.62	168.50	168.12	168.00	168.25
365.25	360.31	356.81	355.31	352.75	352.38	354.44	350.88	349.00	348.44	349.88	352.69	358.19	362.31	358.88	367.50	412.56	461.06	487.94	512.88	536.12	570.31	589.00	587.50	612.25	631.69	631.12	668.25	645.56	673.75	638.44	624.12	629.19	549.50	603.56	664.56	634.75	639.62	661.88	692.50	698.38	684.44	698.75	685.94	669.31	667.06	663.06	651.44	645.44	588.25	536.56	423.12	331.06	307.25	298.12	297.00	297.75	298.88	300.69	303.00	302.62	299.50	297.94	299.06	297.38	296.75	293.69	291.00	289.25	287.88	287.31	286.19	285.75	284.94	281.69	279.12	282.75	282.06	283.25	286.31	289.31	291.38	294.19	295.12	295.19	294.56	295.19	296.50	294.19	290.62	286.88	284.50	282.81	280.31	279.31	280.50	280.19	280.00	279.69	280.00	278.88	276.81	276.88	274.38	272.44	272.00	272.00	271.62	272.44	271.56	273.44	273.56	273.81	278.75	285.38	279.50	274.31	271.56	275.19	278.38	279.44	279.94	276.56	276.44	275.19	272.69	270.88	268.06	264.19	263.00	263.00	263.00	263.00	263.00	263.00	263.00	263.00	263.00	263.06	264.56	267.25	269.06	272.38	291.06	283.31	276.62	275.94	276.06	274.25	274.69	277.88	279.56	283.06	279.62	277.06	278.00	288.06	290.06	278.81	278.31	277.00	277.81	276.62	274.56	274.69	274.56	274.06	274.38	277.06	281.00	279.88	277.56	273.31	276.31	276.00	276.00	275.50	270.25	275.62	273.19	274.75	273.81	272.44	270.19	266.69	262.88	258.06	255.06	254.44	253.12	253.31	252.69	249.31	248.25	246.44	247.88	248.75	245.81	244.62	245.81	244.56	242.00	244.38	244.75	240.31	238.94	236.12	234.50	232.75	230.31	223.62	217.19	214.06	211.94	210.69	211.12	211.50	209.38	207.75	207.06	207.12	206.38	206.56	207.44	208.00	207.62	208.19	208.12	207.12	203.94	201.94	201.25	200.50	200.75	200.00	200.38	195.12	180.75	179.38	175.06	169.62	168.88	168.31	168.50	169.00	169.81	170.12	169.56	169.06	168.88	168.50	168.75	168.19	168.38	169.00	168.12
379.62	378.06	369.81	369.50	367.00	368.69	374.50	366.81	364.50	368.62	374.69	374.50	381.31	387.00	378.19	416.44	502.06	571.00	607.62	649.81	668.00	708.31	730.75	728.75	738.81	770.19	781.88	806.94	793.44	804.38	776.44	766.81	735.62	629.44	669.75	797.62	784.38	780.31	785.62	822.75	824.81	825.06	835.88	811.44	779.75	772.00	765.19	772.38	769.81	702.12	631.31	486.25	362.31	318.56	301.12	297.19	297.12	298.62	299.88	300.44	299.88	298.62	297.00	296.75	296.25	294.88	292.06	288.81	288.31	287.81	285.94	283.62	283.31	282.06	279.88	281.81	284.44	284.44	284.69	286.81	289.88	292.25	294.69	295.75	296.00	295.94	296.06	296.94	294.50	290.50	287.31	285.31	283.38	281.19	280.25	281.06	280.81	280.00	278.88	279.44	279.06	278.50	277.12	274.50	272.94	272.25	272.38	272.88	273.81	275.25	276.19	275.81	277.69	282.31	288.00	281.44	274.31	270.25	273.81	276.50	276.75	277.81	275.25	275.12	272.88	270.31	268.06	264.25	263.00	263.00	263.00	263.00	263.00	263.00	263.00	263.00	263.00	263.00	263.19	264.38	266.19	268.81	270.31	276.88	277.00	275.25	275.56	278.56	279.25	280.12	284.12	287.75	286.25	282.00	278.31	276.62	276.38	276.25	276.75	279.06	274.94	276.94	274.06	273.00	273.00	273.00	274.31	275.31	276.00	280.44	279.19	275.38	276.12	274.62	275.75	271.56	271.81	271.56	276.38	274.69	277.50	276.00	275.44	273.31	270.69	268.88	265.69	261.25	259.56	256.81	256.94	256.88	252.56	251.50	248.12	246.62	249.06	248.50	247.12	248.31	245.75	242.19	243.19	242.12	240.81	240.12	237.81	234.25	231.88	229.12	221.38	216.25	213.06	211.12	210.50	211.25	212.38	209.44	208.88	207.56	207.62	207.62	208.25	208.81	209.38	208.81	209.12	208.38	206.31	202.94	201.12	200.25	199.75	199.38	197.50	193.19	187.38	180.06	180.25	175.94	169.44	169.00	169.00	169.19	169.38	170.00	170.69	170.19	169.19	169.00	169.06	169.06	169.00	168.75	168.12	167.75
396.00	398.44	386.06	384.81	382.94	384.12	391.00	390.19	390.69	398.62	404.00	400.44	416.69	433.88	402.06	476.62	606.19	691.19	733.88	792.69	800.50	793.12	810.56	824.81	830.06	827.62	837.31	855.38	858.12	843.25	840.50	816.50	798.06	726.94	761.50	836.06	857.69	862.31	856.31	854.94	830.69	856.69	872.56	854.25	845.12	840.12	832.81	851.94	838.62	740.56	625.38	479.44	372.06	323.75	303.44	297.88	296.88	297.50	296.75	296.38	296.31	295.44	294.62	294.81	295.00	293.06	291.62	287.50	288.62	287.81	287.81	283.62	281.44	280.38	281.50	284.25	286.12	287.00	286.69	287.88	290.62	293.00	295.38	296.12	297.00	297.12	296.75	296.81	294.31	290.56	288.31	285.81	283.56	281.75	281.50	281.62	281.25	280.00	277.88	278.38	279.75	279.00	276.75	274.44	273.00	273.00	273.06	273.81	275.38	276.88	278.12	277.69	280.81	281.44	286.50	278.56	272.06	269.44	272.56	274.50	273.88	275.44	273.62	274.06	269.56	268.88	269.75	263.75	263.00	263.00	263.00	263.00	263.00	263.00	263.00	263.00	263.00	263.00	263.81	265.19	266.56	269.25	268.94	275.50	276.88	275.56	274.06	275.31	278.44	279.38	280.69	286.94	282.62	282.06	278.25	274.19	274.00	274.81	278.06	278.75	275.38	278.50	276.38	273.06	273.00	273.00	273.25	278.06	277.06	275.81	277.50	277.00	277.19	280.75	278.19	275.50	274.19	275.06	273.62	276.00	280.81	279.31	279.56	277.50	275.19	271.81	268.56	267.50	262.75	259.69	257.56	257.25	255.06	255.69	250.31	246.25	247.06	249.44	248.62	249.31	246.25	242.75	242.69	241.25	240.69	239.62	236.88	231.56	229.94	225.56	219.56	215.25	212.25	211.00	211.06	211.50	213.12	210.62	209.75	208.81	209.06	209.25	209.44	209.75	210.12	209.62	209.75	207.81	205.06	202.19	200.75	199.19	197.50	195.56	192.62	188.00	180.81	174.50	172.00	170.62	169.38	169.25	169.50	170.06	170.06	170.00	170.62	170.25	169.50	169.12	169.12	169.12	169.12	169.00	169.00	168.19
407.88	410.81	400.44	398.88	398.06	398.69	407.00	414.19	421.31	437.25	453.88	467.25	484.62	550.50	448.31	501.00	653.44	768.06	802.31	828.56	804.38	771.75	803.19	807.94	813.62	828.81	841.69	854.00	855.44	845.12	831.62	810.31	801.88	776.19	795.56	821.00	845.12	854.56	842.56	836.88	849.31	863.44	867.56	859.06	836.56	827.50	841.56	859.88	822.50	706.81	597.44	461.44	366.00	324.44	305.12	298.56	296.25	296.19	295.25	294.25	294.19	293.25	292.81	293.00	293.25	291.12	290.75	286.81	287.88	288.56	289.56	284.50	280.31	281.81	284.88	286.50	287.94	288.81	288.25	288.88	291.31	293.56	295.56	296.56	297.25	297.75	297.00	296.00	293.94	291.12	289.00	285.75	283.44	282.50	282.56	282.38	281.50	279.62	277.06	278.00	279.38	278.25	275.94	274.00	273.00	273.00	273.81	274.50	275.44	276.69	276.31	279.06	282.38	278.12	276.19	270.81	268.56	268.50	271.50	273.06	271.50	273.62	271.88	271.88	265.81	264.38	267.25	263.19	263.00	263.00	263.00	263.00	263.00	263.00	263.00	263.00	263.00	263.06	265.00	266.56	267.62	269.56	268.94	273.81	275.75	275.12	274.50	275.31	274.12	274.69	274.88	275.44	274.88	274.19	273.56	273.00	273.56	274.88	279.00	282.25	276.56	276.44	278.56	276.38	273.12	273.00	273.38	280.50	282.69	274.81	275.81	279.62	278.62	284.25	282.62	280.00	279.62	280.38	278.00	277.81	283.50	287.00	286.25	282.31	278.94	273.81	272.12	269.81	267.69	261.94	259.06	256.44	256.06	258.06	254.62	248.69	246.88	248.56	248.69	248.88	246.94	243.19	242.81	241.81	240.75	242.12	240.94	232.38	228.31	222.62	218.31	214.81	212.56	211.31	211.19	212.75	214.44	212.62	211.75	209.94	209.88	210.00	210.19	210.38	210.50	209.94	209.44	207.00	204.12	202.62	201.62	197.38	193.62	190.50	187.81	186.62	177.44	171.44	169.56	169.81	169.56	170.44	170.56	171.38	170.25	170.00	170.06	170.06	170.00	169.75	169.25	169.00	169.50	169.38	169.62	169.69
433.00	432.88	421.06	423.12	422.12	426.69	446.19	471.81	497.06	536.62	579.25	631.94	624.81	658.56	490.06	504.69	650.06	767.12	784.19	791.75	758.00	745.62	785.62	804.25	822.19	835.62	843.31	851.81	848.56	849.06	842.19	819.31	794.62	770.56	797.12	817.94	831.25	844.56	838.25	833.94	859.81	854.00	844.38	829.12	815.12	822.12	836.62	843.31	810.75	688.62	555.06	420.75	351.00	324.38	307.94	300.00	295.38	294.81	294.44	292.81	293.25	290.62	290.50	290.88	291.75	290.38	290.06	286.44	285.06	283.88	284.81	281.56	283.06	285.69	288.31	289.38	290.06	291.50	290.94	291.38	292.81	294.56	295.94	297.00	297.12	297.25	296.62	294.81	293.31	291.00	289.12	285.62	284.06	283.06	283.00	282.00	281.44	279.88	278.31	275.25	276.69	275.88	273.94	273.12	272.94	272.81	273.25	273.94	273.38	274.62	272.62	276.88	277.94	275.38	268.75	266.75	266.19	267.44	270.44	271.19	269.81	271.00	268.75	265.19	263.00	263.00	263.00	263.00	263.00	263.00	263.00	263.00	263.00	263.00	263.00	263.00	263.00	264.06	266.94	268.38	269.50	270.44	268.88	273.38	276.31	278.19	279.00	281.31	278.75	279.88	277.38	273.44	273.00	273.00	273.00	273.00	273.00	273.31	276.06	276.88	274.31	278.19	279.94	285.38	277.81	274.12	276.44	276.81	278.31	276.75	276.94	279.88	283.12	287.62	286.81	284.50	281.44	286.81	282.31	281.31	286.69	293.19	293.31	287.88	280.50	276.25	273.81	271.56	268.19	262.94	260.31	257.88	257.44	256.38	251.31	248.00	247.12	247.25	247.00	247.25	245.50	243.94	243.94	244.69	242.62	242.06	238.38	233.44	228.00	220.88	217.56	215.12	214.12	213.12	212.69	214.25	216.31	214.88	214.62	213.44	212.06	211.31	211.38	211.31	210.50	208.94	208.00	205.75	204.44	203.44	201.38	199.62	194.25	193.31	187.56	184.44	178.38	171.44	170.25	169.81	169.50	171.81	171.94	172.12	170.00	170.00	170.00	170.19	170.38	170.00	170.00	170.19	170.25	170.06	170.44	170.50
473.06	473.44	480.19	492.38	500.94	502.69	518.75	545.00	595.50	638.12	665.00	694.19	700.25	689.38	571.50	485.81	596.38	705.81	743.06	703.06	731.06	789.31	816.12	823.75	836.50	841.75	845.75	851.75	848.44	845.31	849.81	835.81	806.81	770.62	801.06	815.69	817.19	827.56	822.25	807.06	816.94	825.69	809.06	810.00	820.69	837.25	844.69	836.75	769.50	642.69	504.88	400.31	344.12	319.56	306.88	299.38	295.06	293.94	293.81	291.25	290.69	290.06	288.94	288.56	289.44	288.69	287.69	286.88	286.12	284.56	282.00	281.69	287.19	289.94	291.50	292.56	292.31	293.31	293.31	295.00	294.56	295.31	296.12	297.00	296.88	296.00	295.44	293.12	292.25	290.75	288.69	286.31	284.50	283.44	283.00	281.94	280.75	280.62	279.62	274.62	273.38	272.44	271.50	271.88	271.75	270.12	269.44	269.00	267.00	268.25	268.88	271.06	270.88	268.94	263.88	264.75	265.38	267.62	268.31	270.19	265.94	263.75	263.00	263.00	263.00	263.00	263.00	263.00	263.00	263.00	263.00	263.00	263.00	263.00	263.00	263.00	263.44	263.75	267.94	269.94	271.00	271.00	269.06	273.44	276.25	278.69	280.56	283.12	283.19	287.56	288.19	287.94	274.25	273.00	273.00	273.00	273.00	273.00	273.69	276.19	275.81	278.81	279.38	279.25	279.56	276.25	274.88	275.06	278.06	279.88	278.38	280.69	284.50	287.81	288.81	289.94	289.12	285.62	285.88	287.94	289.31	291.38	291.25	290.00	285.25	279.44	277.00	274.44	267.94	264.00	261.31	260.75	260.25	258.06	253.56	250.88	248.56	246.94	246.44	245.88	245.06	247.31	247.69	247.12	244.25	239.31	237.19	235.12	228.75	221.12	218.19	216.81	216.12	215.75	216.06	216.88	218.19	217.38	218.75	217.94	213.12	212.50	212.38	212.06	211.00	209.56	207.19	206.38	205.56	207.25	206.94	204.00	202.94	200.62	193.00	187.19	178.81	175.19	173.81	171.75	172.44	172.94	173.62	170.88	170.44	170.06	169.81	170.62	170.88	170.19	170.81	171.81	171.88	171.88	172.81	172.69
500.81	527.06	544.94	558.81	559.31	559.94	581.19	609.62	645.62	677.06	703.44	726.88	731.75	704.94	660.56	488.00	539.12	601.94	651.50	713.88	764.19	806.19	820.62	822.00	834.75	837.62	841.56	845.06	849.00	843.75	845.62	852.00	827.38	773.25	806.38	813.44	802.19	812.12	798.44	792.69	807.69	799.88	807.00	826.81	837.88	853.62	841.25	820.50	730.25	614.44	477.12	382.88	336.12	315.25	303.88	298.31	295.38	293.38	292.88	290.50	290.00	290.94	288.75	288.19	289.19	288.56	289.50	289.81	289.44	287.94	282.38	282.19	289.25	292.31	293.25	294.31	293.06	293.75	294.25	295.56	295.25	295.50	296.12	297.00	296.69	295.31	294.50	292.25	291.50	290.50	288.88	286.50	284.81	283.75	283.00	282.00	280.75	280.56	279.31	274.50	271.31	270.38	270.31	270.88	269.25	264.75	263.25	263.06	263.00	263.12	263.69	264.69	263.88	263.44	263.00	264.19	264.56	264.62	264.75	265.62	263.88	263.00	263.00	263.00	263.00	263.00	263.00	263.00	263.00	263.00	263.00	263.00	263.00	263.00	263.00	263.12	264.75	264.31	267.50	269.62	271.00	271.00	269.50	272.62	275.88	278.12	279.88	282.62	285.00	286.06	280.81	287.31	276.31	273.00	273.00	273.00	273.00	273.00	273.94	280.31	280.56	279.31	279.75	279.50	277.94	278.12	276.75	277.19	279.50	279.94	279.06	280.56	286.88	291.50	296.94	296.69	294.62	288.44	287.81	287.62	289.62	289.69	289.25	289.75	287.94	280.81	279.00	273.38	269.25	266.56	264.94	266.81	263.06	260.81	257.06	254.19	249.81	249.25	249.62	249.31	249.25	250.56	249.62	249.06	245.94	241.50	240.50	236.94	230.88	225.81	219.44	217.81	217.69	218.00	218.81	219.31	220.75	219.62	219.50	216.81	214.00	213.25	213.06	212.62	211.50	210.00	208.00	207.50	207.81	209.06	207.12	206.81	205.88	202.81	198.06	194.94	190.31	182.69	180.31	176.69	175.62	175.75	171.94	171.06	171.62	170.75	169.81	170.06	169.81	171.31	172.31	173.50	174.00	174.00	174.50	174.69
547.25	578.00	599.19	613.19	616.88	623.94	647.25	662.25	679.62	702.75	730.12	753.31	750.00	737.00	694.62	571.62	545.75	630.12	651.56	718.25	755.75	785.88	814.19	812.44	832.19	832.12	832.94	837.75	837.12	840.19	836.81	837.88	819.19	773.31	807.44	797.00	779.88	781.44	788.31	811.06	813.44	815.06	834.25	847.38	849.56	848.81	823.12	792.44	681.12	559.88	432.00	361.94	329.44	310.75	301.38	297.25	296.00	296.38	296.75	293.00	290.44	291.88	290.25	290.00	290.25	291.75	291.88	290.81	290.88	287.94	281.75	284.62	291.69	295.62	298.62	297.19	296.25	298.75	297.12	297.00	297.75	299.50	299.81	297.75	295.69	295.38	294.25	292.56	292.00	291.44	289.75	287.56	285.12	284.62	285.00	285.88	284.00	279.94	277.88	274.12	270.81	268.19	268.56	268.62	264.19	263.00	263.00	263.00	263.00	263.00	263.00	263.00	263.00	263.00	263.00	263.00	263.00	263.00	263.00	263.00	263.00	263.00	263.00	263.00	263.00	263.00	263.00	263.00	263.00	263.00	263.00	263.00	263.00	263.00	263.00	263.00	263.62	265.25	267.38	269.44	270.12	270.00	277.50	280.19	275.12	273.88	277.56	280.81	283.25	283.50	278.12	276.62	273.38	273.00	273.00	273.00	276.19	276.06	274.94	278.69	286.25	277.94	275.94	279.44	279.94	279.94	280.38	276.06	277.69	277.69	278.25	279.94	286.12	288.19	288.88	289.69	295.56	294.12	286.31	289.75	284.31	284.75	286.88	283.12	281.94	283.88	278.19	272.56	271.19	270.44	268.81	268.00	265.50	264.69	263.56	262.81	260.44	262.44	260.06	251.50	251.31	253.31	250.06	249.75	246.50	243.19	242.38	238.88	233.62	229.06	222.00	220.44	220.06	221.31	222.88	225.31	226.62	223.81	219.31	216.75	215.00	214.00	214.00	213.25	212.38	210.62	210.56	210.31	210.62	211.62	210.50	210.62	209.00	209.25	208.38	207.12	202.44	198.44	199.44	198.38	180.19	176.06	174.31	175.31	174.94	173.06	171.62	170.00	170.25	171.38	173.00	174.88	175.25	174.38	175.00	174.94
600.81	621.12	638.56	654.19	672.75	681.88	692.44	705.12	715.19	717.19	727.44	732.00	736.12	735.75	702.00	671.06	570.50	653.12	689.12	700.69	740.62	777.94	789.56	799.94	811.25	816.69	822.94	826.38	823.56	828.62	830.75	828.69	811.88	769.62	773.25	767.88	780.75	778.00	789.00	792.38	808.12	818.94	826.50	826.88	829.19	823.31	802.19	740.00	621.25	485.44	386.19	347.31	324.56	308.88	300.19	297.75	296.06	296.88	295.94	293.94	293.12	294.75	293.06	292.25	292.44	293.50	291.69	289.00	289.56	283.12	283.44	289.62	294.25	298.06	299.56	298.25	296.69	297.00	297.06	298.38	299.62	300.38	298.69	297.31	294.88	293.94	293.25	292.12	292.00	291.38	289.50	287.25	285.19	286.00	286.19	285.56	282.44	278.44	275.44	272.44	269.62	266.44	265.00	264.00	263.00	263.00	263.00	263.00	263.00	263.00	263.00	263.00	263.00	263.00	263.00	263.00	263.00	263.00	263.00	263.00	263.00	263.00	263.00	263.00	263.00	263.00	263.00	263.00	263.00	263.00	263.00	263.00	263.00	263.00	263.00	263.00	263.50	266.00	268.38	269.81	270.75	270.00	273.88	278.19	277.12	275.94	276.69	279.00	280.69	280.12	279.62	279.00	274.81	273.62	273.06	273.00	273.00	273.00	273.00	273.00	273.75	273.12	274.31	277.94	278.31	275.69	275.88	274.50	275.69	275.94	277.62	279.44	281.00	282.88	285.31	288.38	288.94	288.69	287.00	282.56	287.75	282.00	281.44	280.31	278.56	276.38	274.12	273.50	275.88	277.06	274.31	274.69	274.00	271.19	270.44	271.44	272.56	270.56	269.00	261.88	255.69	255.56	250.56	248.19	245.50	244.06	242.12	239.81	236.31	230.88	225.62	224.94	225.12	225.44	227.06	229.94	229.06	229.00	222.44	217.12	215.38	214.12	214.38	213.94	212.94	212.25	212.88	212.69	215.44	215.69	214.88	215.25	216.62	216.69	212.19	211.38	208.38	205.00	200.88	195.25	190.50	185.19	174.31	175.56	175.88	174.50	172.38	171.56	171.12	171.44	172.88	174.38	175.25	174.94	175.00	175.00
625.81	644.25	662.88	684.69	684.94	696.06	718.44	726.81	728.81	725.88	731.38	720.31	724.81	732.69	702.44	691.19	595.06	632.31	683.44	693.69	719.62	747.44	777.25	796.62	799.19	809.81	819.00	811.69	816.25	820.56	826.94	820.56	806.62	767.00	753.38	758.19	765.81	770.00	783.62	796.06	806.06	804.69	804.19	820.81	820.19	794.19	766.56	701.75	571.38	434.75	369.94	343.12	322.50	307.69	299.88	298.31	296.56	296.81	296.81	296.12	295.25	296.25	294.56	294.44	294.00	294.56	291.50	286.50	285.19	283.50	289.62	292.69	295.50	299.56	300.50	298.94	297.94	297.06	297.56	299.56	300.62	301.00	299.75	298.56	294.81	293.06	292.50	292.00	291.69	291.12	289.31	286.62	286.00	287.00	287.06	284.56	281.06	276.69	273.75	270.75	267.69	265.19	263.62	263.00	263.00	263.00	263.00	263.00	263.00	263.00	263.00	263.00	263.00	263.00	263.00	263.00	263.00	263.00	263.00	263.00	263.00	263.00	263.00	263.00	263.00	263.00	263.00	263.00	263.00	263.00	263.00	263.00	263.00	263.00	263.00	263.00	263.75	265.31	267.50	269.25	270.31	270.00	270.56	275.56	278.06	278.00	276.56	278.31	279.94	279.38	279.56	279.56	279.69	278.12	276.38	273.81	273.31	273.00	273.00	273.00	273.00	273.00	274.56	276.62	276.25	273.31	275.19	275.25	274.88	275.44	276.94	279.50	279.94	280.75	284.50	285.31	287.81	288.06	289.44	290.88	285.56	283.56	281.69	280.12	280.12	277.56	277.12	276.69	278.19	283.44	281.94	281.81	278.94	273.50	272.06	274.50	276.44	270.31	268.81	266.25	257.50	254.38	251.00	248.94	247.00	244.44	242.31	240.06	236.06	232.88	229.44	228.50	229.50	228.81	230.25	231.00	227.69	226.19	219.81	217.06	215.50	214.88	215.00	214.69	214.12	213.81	213.62	215.25	219.06	218.25	217.69	218.56	219.75	218.19	214.50	213.81	211.88	208.12	205.25	200.44	200.50	196.38	179.69	175.44	176.06	175.50	173.38	173.31	173.00	172.69	172.56	173.56	174.56	175.00	175.00	175.00
641.75	656.06	672.44	689.38	701.44	716.06	736.56	739.00	733.56	725.75	722.62	709.94	718.56	727.19	706.50	688.62	598.12	669.81	679.31	682.12	705.44	728.56	766.50	778.19	785.88	801.44	807.75	803.94	807.50	810.81	814.69	811.81	790.19	746.88	743.81	749.44	748.31	769.31	778.81	778.25	785.81	783.56	797.31	807.44	787.81	759.75	724.44	664.38	540.62	412.88	358.94	337.50	319.06	306.81	300.50	299.38	297.25	297.69	298.75	297.75	297.38	298.00	295.94	295.31	294.00	293.88	289.94	283.56	281.62	285.62	291.94	294.56	297.44	299.56	301.62	299.75	299.50	298.81	298.75	300.44	300.62	300.19	299.12	297.69	295.31	293.12	291.81	291.69	290.75	289.69	287.69	286.75	287.62	288.06	287.50	284.31	280.19	275.62	271.88	268.25	265.00	263.44	263.00	263.00	263.00	263.00	263.00	263.00	263.00	263.00	263.00	263.00	263.00	263.00	263.00	263.00	263.00	263.00	263.00	263.00	263.00	263.00	263.00	263.00	263.00	263.00	263.00	263.00	263.00	263.00	263.00	263.00	263.00	263.00	263.00	263.00	264.19	265.31	266.62	268.94	269.81	269.94	270.06	273.19	275.56	278.56	278.00	279.25	279.75	278.94	278.56	284.31	284.44	284.19	282.50	281.50	276.38	273.00	273.00	273.00	273.62	274.19	273.00	273.19	275.12	274.06	278.44	277.44	276.94	277.44	276.50	278.50	279.19	280.31	283.19	284.31	287.31	287.56	289.69	297.12	287.19	292.81	291.81	289.88	290.31	287.38	282.69	283.19	283.50	287.94	286.06	282.19	277.12	272.94	274.31	275.81	278.25	271.75	271.19	269.56	259.81	255.06	255.12	251.31	248.62	246.19	243.81	241.38	238.56	238.19	237.62	237.25	236.38	233.38	233.00	230.81	227.06	225.31	221.62	217.31	215.88	215.25	215.75	215.44	215.19	215.25	215.31	217.00	218.69	219.19	219.44	219.81	219.00	216.50	217.31	216.69	215.38	212.38	212.50	215.19	218.44	212.00	205.06	190.12	174.75	176.00	175.06	174.19	173.19	172.75	172.81	173.19	174.06	175.00	174.69	174.75
653.38	663.69	678.75	709.69	730.38	731.06	731.62	730.38	728.19	720.12	711.38	708.06	710.56	717.56	703.62	650.94	606.44	670.00	677.69	668.69	690.06	716.44	751.31	759.50	772.81	787.25	802.44	805.38	801.88	791.31	788.44	797.44	780.81	748.75	743.00	743.94	743.31	752.38	756.56	759.31	760.75	769.81	792.81	775.56	729.94	692.00	653.25	586.25	472.31	376.44	341.50	327.06	313.06	305.38	301.38	300.62	298.62	299.38	299.62	298.50	298.69	298.62	296.75	294.12	292.12	290.75	283.69	282.38	284.25	288.44	293.19	296.94	299.56	300.50	302.88	300.50	300.31	301.44	300.12	299.94	299.62	298.81	297.38	295.62	294.38	292.81	291.12	290.12	289.00	288.12	288.56	288.88	289.19	288.88	287.06	284.38	280.31	276.06	269.75	266.12	263.00	263.00	263.00	263.00	263.00	263.00	263.00	263.00	263.00	263.00	263.00	263.00	263.00	263.00	263.00	263.00	263.00	263.00	263.00	263.00	263.00	263.00	263.00	263.00	263.00	263.00	263.00	263.00	263.00	263.00	263.00	263.00	263.00	263.00	263.00	263.00	265.06	266.00	265.69	267.88	268.94	269.50	270.00	270.62	271.50	277.75	279.31	278.75	278.25	276.94	277.44	282.62	285.81	288.25	288.31	284.38	275.56	273.00	273.25	274.44	277.88	279.88	274.12	274.38	276.00	276.38	279.38	279.75	285.94	282.88	277.94	277.12	278.50	279.69	280.62	282.00	286.50	289.31	289.50	293.19	289.62	297.06	296.56	298.19	297.69	297.62	291.00	291.12	290.00	288.88	285.44	281.19	278.19	277.81	277.62	275.69	275.88	274.00	273.88	271.12	267.25	259.31	258.44	254.31	250.94	247.69	246.19	243.62	243.06	244.62	245.94	247.75	242.12	237.69	235.00	230.19	228.94	227.12	228.50	220.12	216.44	216.19	216.75	216.50	216.44	216.75	216.12	216.69	217.69	218.94	219.00	219.38	218.75	218.00	220.31	219.56	219.69	220.56	219.62	219.19	217.31	209.69	203.56	197.50	173.62	175.31	176.94	176.12	175.00	173.50	172.94	172.75	173.75	174.75	173.81	174.00
664.94	676.06	691.94	715.12	727.44	721.88	726.25	729.00	717.50	710.75	715.44	711.56	710.75	713.00	687.00	665.25	616.38	658.12	655.38	676.44	682.94	703.31	725.44	740.75	764.06	789.56	803.94	810.19	811.44	804.88	768.19	745.31	741.88	747.06	744.75	748.06	763.19	759.88	756.25	776.56	795.38	801.81	801.69	766.31	713.69	633.75	577.38	491.81	406.75	351.31	335.31	320.69	309.56	304.88	301.69	300.38	299.94	299.75	299.50	297.44	297.38	296.56	296.12	293.62	289.00	285.75	281.81	287.81	289.56	293.12	296.69	298.19	300.50	301.00	303.25	300.81	300.31	302.25	300.12	298.81	297.69	296.94	296.31	294.81	293.50	291.50	290.12	290.25	290.19	290.25	290.25	290.38	290.12	289.69	288.19	284.38	280.44	278.69	273.56	273.94	265.69	263.00	263.00	263.00	263.00	263.00	263.00	263.00	263.00	263.00	263.00	263.00	263.00	263.00	263.00	263.00	263.00	263.00	263.00	263.00	263.00	263.00	263.00	263.00	263.00	263.00	263.00	263.00	263.00	263.00	263.00	263.00	263.00	263.00	263.00	263.69	266.50	267.06	267.19	267.88	268.88	269.56	270.00	270.88	271.06	275.44	276.25	275.50	275.19	274.56	275.88	282.75	287.75	288.12	288.12	289.06	278.06	274.12	274.31	277.50	277.94	278.94	275.12	276.94	279.50	280.81	281.12	285.00	288.81	290.00	278.56	278.00	279.56	279.94	280.19	283.31	286.12	287.75	289.50	289.75	290.88	296.75	299.25	299.12	298.69	295.12	290.69	290.50	289.44	286.56	287.44	285.88	281.81	280.12	278.94	274.06	272.50	276.88	274.00	270.38	268.69	261.81	260.81	257.38	253.31	249.62	249.06	247.25	246.38	248.94	248.75	248.06	247.06	239.94	235.25	232.44	231.12	233.44	232.44	223.88	218.56	217.38	217.62	218.00	217.62	218.50	217.62	218.00	219.31	219.69	219.56	220.56	221.44	221.69	224.19	223.50	223.69	223.06	220.12	214.75	211.25	208.31	209.50	201.19	178.94	176.88	175.44	176.94	176.38	175.62	173.69	173.19	173.69	174.25	173.62	173.69
673.81	691.38	703.25	718.44	717.00	730.50	735.06	725.62	707.38	694.88	699.94	707.50	700.69	695.69	681.06	660.50	622.56	653.56	668.12	683.31	690.31	698.44	715.50	731.00	760.62	784.62	800.19	810.81	814.12	805.56	773.00	731.50	769.00	777.81	779.69	794.19	792.94	777.50	775.88	785.88	807.06	817.06	805.06	775.75	719.19	636.56	537.88	442.31	381.25	355.19	338.12	318.19	308.38	304.62	302.31	301.19	300.19	298.44	297.75	296.25	295.94	293.31	291.94	290.31	286.38	281.75	282.12	289.31	292.94	296.56	299.75	299.88	300.94	301.12	303.56	301.12	300.38	303.12	299.88	298.94	298.31	296.56	295.19	294.06	292.19	290.56	291.00	291.81	291.69	291.06	290.94	291.50	290.50	289.56	287.88	283.81	280.19	279.06	280.00	279.69	273.38	263.19	263.00	263.00	263.00	263.00	263.00	263.00	263.00	263.00	263.00	263.00	263.19	263.31	263.31	263.19	263.00	263.00	263.00	263.00	263.00	263.00	263.00	263.00	263.00	263.00	263.00	263.00	263.00	263.00	263.00	263.00	263.00	263.00	263.31	265.50	268.50	267.44	268.06	269.50	270.38	270.25	270.25	272.31	274.31	271.38	272.00	272.38	272.81	273.12	274.62	279.38	282.12	282.00	281.38	286.88	286.69	282.81	275.38	273.12	273.75	277.12	276.56	278.94	280.50	280.75	279.94	280.06	279.38	279.12	278.31	279.19	280.62	282.94	282.06	285.69	289.69	289.50	290.44	293.62	296.62	298.00	297.06	298.50	298.62	294.94	294.75	293.06	289.50	289.38	288.56	283.62	280.81	279.00	276.62	274.38	276.56	277.31	272.88	268.88	265.12	263.12	262.25	260.25	257.81	252.88	252.38	250.25	251.44	253.75	255.50	257.38	256.44	248.00	238.31	234.88	232.56	232.19	232.12	228.38	224.25	218.94	219.50	219.75	219.94	220.44	219.44	218.75	220.38	221.31	220.56	220.88	225.06	226.12	228.00	227.62	226.81	222.62	220.19	215.75	216.38	220.62	216.06	204.38	184.38	177.50	175.12	175.88	177.75	175.69	175.06	174.25	174.19	174.00	173.00	173.00
676.62	697.38	707.88	715.94	713.62	732.62	722.00	709.44	697.00	692.00	692.56	710.88	690.12	694.62	668.44	659.62	631.69	654.56	673.19	675.06	685.12	695.88	712.75	731.69	760.19	783.50	798.88	807.94	814.50	806.88	771.38	730.25	773.50	792.25	803.50	809.06	802.25	770.94	775.75	784.75	796.44	805.00	800.12	775.62	736.25	661.69	541.38	414.06	376.69	356.19	338.44	318.75	309.19	304.94	301.94	301.94	300.31	298.25	296.06	295.12	294.62	291.31	289.44	287.31	283.00	280.81	283.94	290.19	293.69	298.06	300.62	301.00	301.12	300.88	302.25	299.62	299.75	304.06	300.06	299.12	299.88	297.81	294.62	292.94	291.38	291.50	293.19	294.00	293.19	291.56	290.75	291.56	290.62	288.44	286.06	283.38	280.44	277.88	278.31	277.75	274.75	263.56	263.00	263.00	263.00	263.00	263.00	263.00	263.00	263.12	263.06	263.25	264.06	264.06	263.94	264.44	263.62	263.06	263.00	263.00	263.00	263.00	263.00	263.00	263.00	263.00	263.00	263.00	263.00	263.00	263.00	263.00	263.00	263.06	264.69	267.88	269.81	268.44	269.06	270.25	271.75	271.19	271.50	274.44	278.69	270.56	270.94	272.50	273.19	273.81	272.75	274.06	276.56	277.81	277.88	281.44	287.88	287.69	279.00	274.06	274.25	278.50	280.25	280.12	279.06	278.88	278.69	278.31	280.25	279.75	278.38	280.00	282.00	284.88	282.31	285.25	288.75	287.81	289.75	293.88	295.81	293.69	295.94	298.31	298.44	298.00	298.25	291.62	287.00	288.31	285.31	278.94	278.94	277.19	276.00	275.81	279.06	277.62	271.62	267.75	266.56	266.62	265.94	265.62	259.69	256.06	255.12	255.06	256.75	259.56	261.00	260.00	260.31	258.69	247.38	237.31	233.50	232.81	232.94	231.25	227.25	223.75	225.06	224.94	224.50	223.88	222.12	220.94	221.75	223.00	222.69	222.75	227.31	230.81	233.44	231.00	226.75	222.38	221.50	220.94	223.88	226.44	216.38	200.69	188.50	177.62	177.12	177.56	180.12	177.12	176.00	176.25	175.19	173.88	172.56	172.50
679.38	692.81	701.88	706.81	714.94	714.69	691.50	701.38	699.31	693.94	696.19	692.38	688.25	681.31	666.69	660.88	667.56	661.94	651.19	661.88	674.62	673.94	680.50	724.81	770.69	783.94	800.88	807.75	813.94	808.62	741.25	743.88	779.31	792.06	795.69	789.62	775.94	760.19	776.06	782.19	798.19	810.56	813.12	790.50	766.12	666.00	525.38	409.00	369.56	351.81	335.62	319.88	310.31	305.19	302.94	301.88	300.12	299.00	295.75	293.69	293.38	291.44	290.94	290.12	285.12	281.50	285.69	291.38	294.19	298.38	300.44	301.50	301.25	300.12	300.25	299.19	299.94	301.75	299.62	298.06	298.62	296.19	293.56	292.31	291.50	292.94	295.19	296.00	294.12	291.38	290.12	290.44	289.31	286.69	284.00	282.25	280.00	276.94	275.25	274.50	272.69	265.06	263.00	263.25	263.00	263.00	263.00	263.19	263.88	263.88	263.56	263.94	265.38	265.19	264.88	265.38	265.25	264.06	263.12	263.00	263.00	263.00	263.00	263.00	263.00	263.00	263.00	263.00	263.00	263.00	263.00	263.00	263.06	263.69	265.50	269.06	269.75	269.75	270.00	270.25	271.69	272.00	272.19	275.50	278.00	270.75	272.06	275.75	275.38	273.56	274.81	276.62	276.25	274.62	275.69	279.38	283.50	289.31	284.00	277.25	274.81	278.81	278.75	277.88	278.12	279.19	279.19	280.31	284.31	284.06	280.25	284.62	286.50	286.88	282.62	282.75	285.12	286.69	289.75	291.38	291.31	292.44	297.44	299.62	299.88	299.50	298.50	293.44	287.06	284.19	281.31	280.88	282.56	280.50	279.69	277.19	277.88	276.38	270.56	269.69	270.50	271.50	271.75	274.25	267.50	261.69	259.94	259.69	263.25	263.25	262.81	260.81	258.50	257.69	251.00	238.25	235.31	234.50	234.44	231.19	230.31	232.81	233.75	232.88	231.00	228.38	226.00	223.00	223.69	224.75	225.38	225.12	230.56	238.00	234.00	228.44	225.19	223.69	223.44	225.75	225.88	222.50	213.94	207.00	190.38	187.44	183.25	181.06	183.81	188.25	181.25	175.94	176.06	174.69	172.62	171.38
679.12	687.31	691.44	707.00	711.31	686.31	688.44	716.06	730.00	732.00	705.31	698.75	707.50	699.19	682.19	678.81	683.06	687.31	685.31	693.88	707.69	706.94	678.12	728.44	770.31	784.38	799.56	809.12	809.75	797.62	742.25	764.50	774.94	785.69	781.12	772.38	763.88	754.81	773.06	799.44	808.81	812.81	809.50	780.62	729.69	609.62	484.31	396.62	365.31	343.50	329.06	317.75	310.19	305.94	303.50	302.12	300.19	297.81	295.25	292.69	291.75	291.00	289.88	289.62	287.25	282.19	285.88	290.38	293.88	298.06	299.81	301.00	301.00	300.31	300.31	300.62	300.44	299.00	297.50	296.44	297.25	297.56	295.19	293.38	291.75	294.00	295.44	295.75	293.69	290.88	289.38	288.69	286.75	284.50	282.69	280.44	279.88	274.19	271.94	271.50	270.25	266.50	264.25	264.38	263.00	263.00	263.31	264.31	264.81	265.00	264.50	265.88	266.31	266.06	267.69	267.12	266.94	265.81	264.00	263.19	263.00	263.00	263.00	263.00	263.00	263.00	263.00	263.00	263.00	263.00	263.00	263.00	263.81	264.00	265.25	267.69	268.00	269.12	269.94	270.06	270.50	270.94	271.31	272.62	273.25	270.38	271.75	277.00	277.69	275.31	277.75	280.25	279.19	274.00	274.06	276.62	279.12	284.69	283.81	282.50	279.19	278.38	276.94	277.44	279.50	279.94	279.88	279.75	284.31	285.69	281.25	286.44	290.31	289.50	283.56	281.25	282.94	284.81	286.94	288.50	290.88	296.25	295.38	297.25	297.88	295.75	293.38	292.50	287.50	288.44	283.06	282.00	281.06	278.38	277.50	276.12	274.31	273.25	270.31	272.38	272.62	275.00	272.12	271.62	272.94	270.81	268.06	267.88	269.06	266.94	262.88	262.50	259.44	256.50	254.12	243.69	236.88	236.56	235.94	233.94	234.25	238.38	240.88	239.31	235.56	231.81	227.56	225.50	225.62	226.69	228.06	227.88	234.69	242.88	230.00	227.06	225.94	225.94	225.06	225.94	222.44	218.12	209.00	201.06	203.69	201.00	194.62	190.62	196.62	196.81	184.06	175.25	175.62	175.25	173.44	171.06
675.19	678.12	687.38	704.38	672.50	673.88	728.69	772.06	782.00	770.00	737.50	726.75	724.00	706.81	702.38	702.69	703.81	701.31	698.25	707.75	717.38	730.12	689.44	727.38	766.38	783.19	794.31	810.38	809.06	797.00	762.25	742.25	780.25	784.06	766.75	746.94	748.19	763.19	776.75	800.50	795.56	802.88	801.44	773.19	705.50	552.38	444.06	388.62	362.19	337.75	327.38	316.62	310.56	305.69	302.75	301.19	299.31	297.31	294.06	292.00	290.56	289.50	288.00	288.00	286.19	281.75	285.88	289.88	293.56	296.62	299.12	300.50	301.06	300.25	300.69	301.19	301.12	298.25	295.69	295.44	297.94	298.25	296.19	293.62	292.25	294.56	295.69	294.75	292.75	290.94	289.31	288.38	287.00	285.56	284.19	279.75	279.31	271.69	269.56	268.81	268.12	269.19	265.75	264.38	263.00	263.12	264.25	265.56	266.56	266.50	266.38	267.50	267.38	267.50	269.44	268.94	268.38	266.94	264.69	263.56	263.00	263.00	263.00	263.00	263.00	263.00	263.00	263.00	263.00	263.00	263.00	263.06	264.50	264.06	265.00	266.38	266.69	267.88	268.75	269.69	270.00	270.06	270.06	270.62	273.94	270.06	271.56	276.31	277.81	277.31	279.69	280.69	279.19	274.56	273.44	275.50	279.25	281.94	283.12	288.44	285.62	283.25	278.88	279.06	280.25	279.94	279.81	279.00	279.50	279.62	280.19	285.44	290.44	293.31	282.69	281.25	283.75	284.12	284.94	287.69	291.50	298.81	297.62	295.50	296.00	293.56	291.69	291.94	289.06	288.12	279.88	277.94	277.31	277.31	278.25	279.50	276.12	271.44	270.88	274.69	274.62	276.50	273.38	272.06	275.31	273.38	270.06	268.44	266.81	265.50	263.94	264.12	262.12	261.75	260.12	254.94	242.06	238.56	236.50	236.81	237.88	240.19	242.12	242.00	236.62	233.62	228.81	227.94	227.44	228.25	229.81	231.19	239.00	242.00	229.31	229.81	228.38	228.12	226.44	222.94	221.19	218.06	206.69	208.88	207.69	203.12	200.12	198.31	202.38	197.75	187.44	179.12	176.38	174.62	173.94	171.62
668.38	670.88	693.00	679.94	680.38	723.12	777.06	800.38	794.06	779.00	763.06	737.62	719.31	711.94	724.00	725.19	727.06	724.00	718.69	723.69	732.25	736.31	696.62	717.00	755.38	770.56	793.44	807.12	795.38	772.06	757.12	732.00	746.94	747.94	740.81	759.44	776.69	783.88	784.06	786.94	791.44	795.38	789.44	753.81	651.69	533.75	428.38	381.94	355.94	337.31	326.31	316.94	309.75	304.81	301.31	299.62	297.81	296.38	293.50	290.88	289.19	287.38	285.50	284.19	282.38	282.62	287.38	290.50	293.50	295.75	298.62	299.75	300.00	299.81	299.88	300.50	300.06	298.25	294.50	295.25	297.75	299.00	297.50	293.75	292.25	294.88	296.25	294.56	293.81	292.81	290.94	290.56	290.75	288.69	287.38	281.00	281.00	276.75	272.81	276.19	276.75	270.56	266.25	264.12	263.12	263.25	265.12	265.88	266.75	267.00	267.12	268.25	268.44	268.25	269.69	269.44	269.75	267.12	265.62	264.25	263.00	263.06	263.00	263.00	263.00	263.00	263.00	263.00	263.00	263.00	263.50	263.69	265.00	265.00	265.06	265.62	266.06	267.31	268.38	269.88	269.94	270.12	270.19	271.75	270.94	270.38	271.38	272.94	275.62	276.44	278.31	279.38	278.19	274.69	274.06	275.88	278.75	280.31	282.38	287.56	290.50	290.25	283.56	279.69	280.00	280.56	280.06	280.50	280.50	280.75	281.25	289.31	287.12	286.06	283.62	281.25	284.69	286.38	286.50	288.62	289.19	294.50	298.94	298.62	298.75	296.81	291.25	290.12	287.62	283.19	278.56	280.12	281.38	279.88	279.50	278.06	276.31	273.19	272.19	277.44	277.31	277.00	275.56	273.75	272.75	270.75	268.94	268.75	266.19	266.19	267.50	266.44	266.50	265.31	263.62	260.06	257.06	243.69	238.69	239.81	243.81	242.81	245.12	244.69	238.81	233.06	231.81	230.81	230.50	231.75	233.19	233.81	239.06	235.62	232.75	237.19	232.94	231.94	227.19	223.25	222.56	219.81	219.31	216.25	209.94	209.06	209.19	210.81	211.56	208.81	198.44	192.81	178.50	174.75	174.00	172.50
656.81	660.25	679.12	662.88	726.31	764.69	799.00	807.31	799.06	784.50	765.75	741.31	729.56	731.25	737.12	741.69	752.38	748.75	749.50	740.44	740.56	722.19	692.75	720.38	712.81	703.12	737.31	741.31	733.31	729.81	733.25	725.19	744.06	749.12	760.31	781.56	793.31	798.88	799.50	804.31	805.81	807.25	803.19	737.25	607.62	476.19	408.06	374.25	350.31	338.62	325.56	318.44	310.88	304.75	301.06	298.25	296.06	294.38	293.12	289.88	287.50	285.38	283.62	282.19	283.19	284.25	288.75	291.19	292.69	295.12	297.19	298.56	298.81	298.94	299.00	298.75	298.19	296.56	294.12	295.00	297.31	298.50	296.44	292.81	292.81	295.44	296.75	295.62	296.19	295.56	294.44	295.50	294.56	289.56	288.25	283.69	282.81	280.69	278.31	281.38	279.31	268.19	264.75	265.19	264.25	263.69	266.06	266.94	267.88	267.38	268.56	268.62	269.00	269.31	268.88	269.50	269.69	268.38	266.69	265.12	263.12	263.50	263.00	263.56	264.62	264.31	263.25	263.00	263.00	263.00	263.56	263.00	264.44	265.56	266.38	266.50	267.06	267.75	268.38	269.81	270.12	269.88	270.00	271.50	272.75	272.06	271.94	272.50	272.56	276.94	278.94	279.25	279.25	276.25	276.12	276.38	279.50	280.50	284.25	287.69	288.75	295.12	294.94	288.88	286.81	284.44	285.69	287.38	285.19	283.69	281.38	281.19	283.69	285.38	282.38	281.00	284.12	289.25	289.12	286.50	290.25	294.25	297.56	299.81	298.31	294.12	290.88	288.62	284.62	284.44	281.12	287.25	282.25	278.75	277.44	275.62	275.00	277.31	273.62	277.50	279.19	279.75	277.88	274.88	274.88	274.50	271.88	269.00	269.19	270.50	271.06	271.19	270.62	269.88	265.75	260.38	258.31	249.56	242.19	240.38	243.94	246.38	243.69	241.94	237.56	235.25	235.44	235.31	238.00	241.44	236.44	233.62	236.50	236.25	234.44	234.94	231.69	229.94	226.88	223.81	224.38	223.75	223.81	220.50	216.50	215.12	214.12	217.69	217.44	213.62	197.88	183.38	176.50	174.25	174.06	172.00
651.12	650.94	661.31	677.56	744.50	774.81	802.12	809.12	801.62	786.62	765.38	750.00	743.62	736.88	746.94	756.75	766.00	764.31	764.31	754.19	747.94	740.00	693.25	708.19	712.56	720.81	700.69	701.94	711.69	717.56	723.88	728.69	749.81	762.31	781.56	797.94	804.06	809.81	810.12	816.81	817.06	815.00	802.19	713.31	591.75	461.75	396.75	371.00	354.25	339.94	323.50	315.12	309.19	305.44	301.56	298.31	295.12	293.12	291.69	289.50	286.50	284.94	283.75	282.62	283.69	285.25	290.25	292.00	292.69	294.50	296.44	298.06	298.12	298.38	297.88	297.69	297.44	295.69	294.00	294.94	296.88	297.38	294.44	293.81	294.25	296.25	296.75	296.56	297.62	297.50	297.69	299.25	297.69	291.69	288.38	284.81	284.31	282.62	281.75	284.56	282.62	267.31	265.81	265.81	265.19	264.75	266.00	267.69	268.44	266.31	267.69	268.81	269.06	269.62	268.31	268.31	269.31	269.19	267.38	265.81	263.31	263.12	263.00	263.25	264.81	265.19	263.25	263.00	263.00	262.88	262.88	263.06	264.06	266.50	267.25	267.38	268.12	268.38	269.19	271.31	272.06	270.50	270.56	272.12	273.38	274.31	274.69	275.94	274.69	276.25	278.25	278.56	278.44	277.38	277.38	276.69	278.00	280.38	284.19	289.31	291.06	293.88	286.62	289.00	288.31	285.38	288.56	289.88	288.50	285.56	282.38	281.12	282.75	284.44	281.81	281.12	283.00	288.25	288.31	285.75	288.62	289.81	291.12	295.06	294.62	291.50	290.12	289.00	284.81	284.31	283.81	286.88	282.69	281.31	279.06	277.81	277.81	278.50	273.94	275.50	278.25	279.88	278.25	277.25	277.44	276.88	272.94	270.69	270.62	273.12	274.06	275.06	272.44	273.69	267.62	262.19	262.38	256.94	246.81	242.56	245.69	247.00	243.06	240.81	238.94	237.81	237.69	238.12	244.19	245.31	237.25	234.25	236.50	236.31	233.12	230.88	229.38	228.19	226.12	224.12	225.81	226.62	226.88	224.00	220.19	219.19	218.25	218.31	219.50	211.69	193.31	177.81	175.06	173.69	173.94	172.06
642.50	636.25	643.06	710.38	766.94	785.62	804.00	806.75	803.44	791.50	766.38	759.19	758.06	745.38	756.81	767.31	776.81	778.88	771.25	760.25	751.06	736.31	709.31	717.19	737.50	729.06	734.19	735.06	742.56	747.44	743.00	742.00	753.81	769.50	783.44	795.50	807.12	809.31	811.12	823.44	829.62	817.12	784.12	660.25	539.81	435.94	383.75	359.81	345.50	336.19	322.12	309.88	306.31	304.75	301.50	297.81	294.00	292.00	290.62	288.38	286.44	285.81	284.62	285.00	285.75	286.44	290.94	292.56	293.25	294.75	296.50	297.94	298.00	297.94	298.31	296.88	296.75	294.12	293.56	294.19	294.56	294.75	295.25	293.75	295.69	297.31	296.94	297.56	298.38	299.00	302.19	303.19	300.62	294.81	289.31	286.88	286.31	285.81	286.06	286.56	283.38	268.75	268.00	266.44	266.50	266.50	267.00	267.50	268.25	267.50	267.62	267.88	269.25	270.62	270.88	269.88	268.88	270.06	268.38	266.81	264.31	264.19	263.38	263.00	264.44	266.12	263.38	263.00	263.25	262.75	263.25	265.00	266.56	268.12	268.44	269.06	269.75	270.88	271.38	273.62	274.00	272.25	271.94	275.69	276.56	277.25	277.38	279.56	277.38	276.31	276.81	276.88	277.50	278.00	277.62	278.19	279.00	277.81	278.81	281.94	286.31	281.50	279.56	283.31	286.25	285.75	289.44	288.94	288.00	285.75	282.75	282.31	283.62	285.31	286.31	283.50	281.69	283.69	285.00	288.44	289.19	289.56	290.81	293.38	296.50	296.00	293.38	289.50	286.25	287.81	287.00	287.50	286.50	285.62	279.12	277.75	277.44	277.31	277.25	274.31	276.94	278.88	279.25	279.31	279.31	278.25	273.06	272.31	271.94	273.31	276.25	276.81	271.94	269.69	266.62	264.69	262.75	256.62	249.69	244.94	247.62	246.31	244.19	243.06	241.44	240.25	239.75	240.94	247.06	243.56	237.06	235.19	236.50	237.00	232.06	229.50	229.12	227.69	225.38	224.31	226.81	229.38	229.19	226.62	221.88	221.75	220.88	218.88	219.00	207.94	190.25	178.19	174.81	172.81	173.56	172.50
620.19	630.88	665.00	734.00	773.25	794.19	810.81	801.69	789.56	779.06	763.81	759.69	746.50	758.50	765.62	774.94	778.62	771.38	766.44	752.81	744.75	731.38	730.94	756.94	749.69	744.50	755.81	768.25	768.62	763.38	764.44	766.50	760.81	768.06	781.75	791.62	796.81	802.69	815.38	830.38	828.56	807.06	734.69	599.00	496.94	415.19	379.38	356.38	339.44	328.94	318.06	307.06	302.75	302.69	301.19	296.12	292.62	291.38	289.38	286.19	285.88	283.38	283.81	286.94	287.19	288.00	290.94	292.56	293.69	295.19	296.75	297.62	298.00	297.44	298.75	296.75	295.62	293.50	292.56	292.69	293.62	295.19	295.69	295.38	297.31	298.69	298.00	298.75	299.88	300.50	304.12	303.75	300.12	295.94	291.44	289.56	288.31	288.94	289.56	286.62	280.00	269.44	268.88	267.94	267.94	268.25	268.81	269.25	269.62	270.50	269.56	270.12	272.00	272.31	274.06	272.50	271.00	270.38	269.44	267.94	266.06	265.19	264.12	263.44	266.19	267.00	264.31	264.38	265.56	265.25	266.44	268.31	270.62	271.81	271.19	272.88	274.00	274.94	274.19	276.69	276.56	275.12	273.62	277.38	279.44	279.75	279.75	282.19	282.94	281.06	281.75	284.88	285.94	282.75	280.38	281.06	283.25	281.25	280.38	280.44	279.69	279.88	278.25	280.19	283.19	285.38	289.12	285.88	284.94	283.19	282.56	283.25	284.81	287.88	289.12	286.12	284.06	282.56	284.12	290.56	289.56	290.88	293.31	295.06	298.75	295.31	297.62	294.44	291.31	289.69	289.50	288.69	288.31	280.25	277.81	277.94	277.81	279.12	278.81	276.25	276.00	277.94	278.00	278.69	278.56	275.75	272.19	273.75	272.81	273.50	276.69	274.00	271.00	267.19	268.25	268.12	262.88	263.19	255.06	249.12	249.44	247.19	246.88	246.44	244.00	243.00	242.50	244.62	245.88	240.06	237.44	236.94	236.50	235.38	232.00	229.50	228.62	226.44	225.44	226.69	228.88	229.19	228.44	225.19	224.25	223.81	221.94	216.00	218.25	205.50	185.94	176.94	174.19	172.00	173.56	173.00
626.62	637.00	666.06	725.19	763.12	786.38	801.50	790.31	772.44	761.12	757.94	757.69	749.12	758.56	767.12	770.06	768.19	767.50	761.75	751.31	746.31	739.62	738.56	749.62	754.69	751.00	760.00	770.75	777.81	780.75	770.12	762.62	761.06	781.19	793.94	797.44	800.50	808.06	815.12	810.00	804.62	768.69	670.19	558.31	472.25	399.81	373.12	351.69	337.75	325.44	314.62	303.88	299.56	300.81	299.75	295.00	290.62	289.19	288.06	283.69	285.94	288.38	288.38	288.31	288.25	286.88	290.31	292.12	293.88	295.62	296.75	297.00	297.00	297.00	298.75	297.00	294.88	292.81	292.81	294.81	295.44	294.50	297.25	296.19	298.06	299.25	299.00	299.69	300.81	301.69	303.69	301.62	298.50	295.06	292.06	291.12	290.00	290.19	289.38	284.94	275.88	270.12	271.75	269.62	270.62	271.12	271.06	273.19	273.19	273.38	272.06	272.94	275.31	275.75	275.19	274.75	273.62	271.31	269.81	269.31	268.00	268.00	266.88	266.81	268.56	267.81	267.12	268.81	270.06	271.06	271.19	273.00	276.06	276.50	276.62	278.62	279.31	279.19	278.88	280.56	280.44	279.00	280.12	281.38	281.81	282.88	280.50	282.31	287.81	285.62	283.69	284.94	288.31	290.25	292.12	290.69	288.75	287.69	285.69	285.12	283.75	286.06	280.94	279.31	280.94	283.38	286.81	286.81	283.88	282.50	282.38	282.00	283.31	287.25	284.88	284.19	288.00	287.00	284.00	287.56	289.62	290.31	293.31	296.06	299.19	297.88	296.12	298.94	296.31	288.81	287.19	284.62	280.88	279.31	280.62	279.50	279.25	279.88	278.06	278.00	276.81	276.62	276.81	278.56	278.88	275.38	273.75	273.31	271.88	273.06	275.44	273.44	273.12	269.62	269.69	267.44	266.94	267.69	262.69	258.06	257.38	251.00	251.44	251.44	246.62	245.75	245.62	245.75	245.19	241.19	237.81	236.94	236.69	235.25	232.69	229.94	228.62	227.69	226.75	229.00	229.75	229.50	228.75	226.75	226.69	224.88	220.75	214.38	209.69	193.81	187.19	177.75	173.88	172.69	174.31	173.69
629.38	626.31	644.25	700.56	736.38	760.94	774.06	767.75	762.81	750.75	746.94	753.38	750.88	756.62	761.81	763.31	761.69	760.06	753.31	749.00	743.69	745.25	743.25	748.88	752.75	758.25	763.75	765.31	773.69	779.50	770.38	756.56	764.44	780.81	785.69	793.00	803.88	800.25	794.75	805.69	778.00	704.19	617.81	512.06	439.62	386.75	361.50	344.12	332.69	322.31	311.12	300.06	296.06	299.12	297.94	296.06	294.56	291.56	288.19	283.56	289.44	289.88	289.69	289.44	287.44	287.31	291.50	292.50	293.69	295.56	296.56	296.62	296.94	297.00	298.38	297.00	294.75	292.94	295.44	295.94	297.12	296.38	297.12	296.75	298.19	299.81	299.81	300.38	301.56	303.00	303.50	301.06	298.12	295.19	293.56	292.19	290.06	289.56	286.25	281.38	275.00	273.00	275.56	272.31	274.38	275.44	275.38	277.31	277.50	276.81	275.69	276.12	278.50	278.50	277.31	274.31	275.69	274.31	273.50	272.94	271.25	270.75	269.88	272.00	272.38	269.75	270.31	273.88	276.06	277.06	275.62	278.31	281.69	282.06	282.12	283.00	283.62	283.12	286.31	288.50	288.06	287.25	288.00	288.38	287.44	289.25	287.19	289.00	286.94	284.50	283.69	287.44	288.56	290.31	292.00	292.62	292.88	294.00	293.56	291.62	289.31	289.25	284.50	279.44	280.25	283.12	285.44	287.69	286.50	286.50	282.62	282.00	282.25	283.69	284.38	288.19	287.00	287.81	283.06	288.50	291.12	291.31	293.12	297.31	299.62	299.06	298.94	297.31	296.31	290.00	288.62	286.94	284.81	283.69	286.31	280.31	279.25	278.00	275.81	277.69	277.19	276.94	274.56	276.44	276.62	276.81	275.00	273.00	271.50	273.31	274.81	275.44	276.12	273.62	271.81	272.56	270.56	269.00	270.12	272.38	268.94	257.94	255.62	254.50	249.44	248.25	248.75	247.50	244.69	240.56	237.88	238.38	237.56	235.81	234.50	232.44	230.19	229.12	228.19	229.19	230.00	229.81	229.19	228.88	227.44	223.44	217.19	202.06	204.06	205.50	205.56	178.56	173.94	173.75	174.38	174.62
611.75	623.81	646.19	678.50	710.94	737.50	752.38	753.81	757.38	752.19	748.44	752.31	749.19	750.19	752.31	751.50	751.00	750.12	749.25	749.62	747.88	744.38	743.06	748.06	751.25	752.69	754.81	760.56	769.56	777.50	769.00	752.06	761.69	774.75	791.06	800.88	788.50	780.00	786.88	782.56	727.19	657.19	566.25	481.38	412.31	378.75	356.62	339.69	326.88	317.12	305.56	297.12	293.31	296.00	295.62	297.44	297.75	293.25	289.12	285.62	289.25	291.25	291.19	289.75	286.31	289.94	293.25	293.50	293.06	294.88	295.81	295.94	296.19	296.50	297.81	297.12	294.12	293.88	297.00	296.88	298.06	297.25	297.06	297.31	298.44	300.25	301.38	301.94	302.88	303.88	303.81	301.62	299.50	296.81	295.69	292.06	290.00	286.75	280.75	278.44	277.81	277.81	278.56	275.56	277.50	279.25	279.69	280.94	281.00	280.00	279.06	278.75	281.44	280.81	279.38	278.88	275.19	277.88	278.19	276.94	275.88	274.38	273.69	276.88	275.62	273.06	274.81	278.00	280.94	280.94	280.00	283.12	286.25	287.44	287.25	286.81	287.31	286.94	287.06	291.88	293.56	293.50	296.06	299.50	296.81	293.81	291.81	297.19	293.94	287.12	284.94	286.94	288.88	288.62	289.50	291.69	294.50	297.38	297.12	294.62	296.62	291.25	289.88	281.12	282.94	286.38	285.44	285.31	285.69	290.06	286.25	282.38	282.06	282.00	284.50	288.81	284.50	283.44	283.38	293.19	298.81	295.50	293.38	298.12	300.00	299.31	299.75	297.88	290.44	288.88	286.62	285.31	287.19	286.19	284.31	280.50	280.00	278.69	278.69	279.75	279.19	275.50	276.12	277.25	277.19	276.81	275.88	272.75	272.62	273.12	275.12	276.88	277.38	275.25	274.31	273.12	272.38	271.19	273.19	279.88	277.81	269.44	259.56	256.19	252.50	250.75	251.44	249.62	247.69	244.88	242.38	244.19	242.38	239.44	236.69	235.88	232.00	230.25	229.56	229.56	229.38	229.19	228.38	226.88	225.06	220.88	214.56	217.62	218.88	217.00	207.25	177.19	174.75	174.88	174.88	177.69
605.12	623.50	640.25	655.81	682.25	716.94	738.06	745.06	750.00	745.88	740.50	734.69	743.12	745.62	748.62	748.12	747.38	747.25	748.19	749.25	747.69	742.94	742.25	746.06	746.69	753.88	761.75	758.94	762.25	759.69	749.69	742.94	756.75	769.25	771.00	767.56	776.75	775.31	766.25	745.88	672.12	607.31	523.94	441.31	398.94	370.38	350.50	338.25	323.06	314.69	304.19	295.62	290.44	291.62	292.69	291.19	289.81	291.69	285.75	289.06	289.25	291.88	292.00	288.31	287.12	291.38	293.81	294.50	294.75	294.06	294.94	295.25	296.00	296.00	296.75	296.69	293.75	293.88	296.62	297.19	298.75	297.94	298.62	298.69	300.12	303.12	304.62	303.94	303.50	304.44	304.69	303.50	301.50	298.81	296.56	291.38	287.19	282.19	278.50	280.12	281.06	281.69	281.06	279.44	281.31	283.44	284.31	284.81	283.81	283.62	283.75	282.19	283.81	284.25	283.62	284.00	279.50	276.50	280.38	280.25	279.81	278.62	280.75	283.19	279.50	279.94	281.56	282.88	285.44	284.81	285.25	288.00	291.19	292.12	293.75	292.44	292.12	292.25	291.00	293.31	297.50	298.25	300.00	302.62	303.19	302.56	298.94	297.94	296.56	292.69	289.06	291.62	290.19	290.12	289.62	291.19	294.00	297.06	298.12	295.00	291.38	293.31	285.25	280.25	284.31	289.19	287.56	289.06	289.12	288.81	288.31	285.50	283.94	282.62	283.19	285.94	282.62	284.31	284.88	287.69	289.88	288.25	292.06	298.88	299.44	298.50	298.56	299.38	292.19	292.00	289.94	287.88	284.75	286.25	285.00	282.81	281.62	281.25	279.94	278.56	280.56	282.75	281.50	277.75	274.44	274.00	274.00	273.31	274.56	273.25	275.31	278.38	280.31	278.44	277.94	275.19	276.12	273.50	270.50	270.94	270.88	270.00	271.44	266.31	254.94	254.12	253.88	251.44	251.62	250.69	249.69	249.75	251.00	247.12	239.31	236.25	234.25	231.94	230.62	229.62	229.25	228.75	228.81	231.50	229.69	223.31	225.44	227.19	216.81	211.62	191.19	177.81	176.25	176.12	184.44	207.50
600.56	610.88	622.88	644.44	662.94	693.38	722.31	728.31	732.12	733.44	733.69	734.50	739.88	750.88	752.12	750.19	749.81	748.50	749.38	744.62	742.50	742.75	742.81	748.19	742.81	741.69	742.31	735.00	738.62	740.88	750.56	745.31	747.38	762.44	762.31	753.56	765.31	765.69	754.19	709.00	625.81	534.69	475.88	413.38	388.12	363.06	345.50	334.00	320.88	311.19	300.94	296.12	291.81	288.50	286.38	290.31	293.56	290.25	291.62	293.06	290.75	291.06	290.62	286.69	287.94	291.94	293.94	295.88	295.88	295.19	295.50	295.88	296.00	296.00	295.44	294.31	292.19	292.62	298.19	297.81	298.75	298.69	300.12	300.31	302.31	305.81	307.25	305.75	304.19	304.62	305.00	304.50	303.56	299.19	295.19	288.75	281.81	280.69	282.81	285.62	284.69	286.25	286.06	283.06	285.50	288.25	289.12	288.44	286.56	288.25	289.00	286.94	287.81	288.69	289.12	288.25	281.06	278.06	282.38	283.19	282.88	284.75	288.50	290.25	287.56	288.06	289.06	289.19	290.44	290.06	292.00	293.75	296.06	296.38	296.88	299.56	300.12	297.75	297.62	299.19	301.38	303.00	303.56	303.56	303.56	305.06	302.50	302.50	302.50	299.00	294.69	294.88	295.88	291.50	291.38	291.00	291.62	293.00	290.94	291.44	287.69	285.31	281.75	279.56	280.69	286.38	287.12	288.31	288.75	289.31	289.81	290.00	289.62	289.81	288.44	285.75	286.25	288.00	286.62	288.06	291.62	292.75	290.25	293.75	296.25	296.00	296.62	298.81	298.31	297.12	296.44	289.75	288.19	288.00	286.25	285.69	286.56	287.06	288.06	283.75	287.75	281.81	278.56	277.25	275.56	276.44	276.38	277.25	278.00	279.31	277.56	277.62	279.38	279.75	278.81	276.94	278.88	276.06	273.56	270.06	267.69	268.56	270.44	267.19	258.94	258.00	256.81	253.69	255.19	254.88	249.88	249.00	251.38	251.62	242.06	238.75	236.38	233.62	231.81	229.62	228.56	229.00	229.62	233.12	230.44	228.62	228.88	224.88	218.31	216.25	193.94	179.44	192.06	208.75	212.88	221.00
601.62	609.56	623.06	644.12	655.12	674.69	709.56	716.06	721.94	728.12	729.88	731.06	744.06	749.56	750.00	750.38	751.56	746.56	744.25	742.00	741.94	741.50	742.38	743.56	731.06	729.00	734.06	742.69	753.81	759.44	763.81	752.12	740.19	747.25	745.44	748.44	762.31	756.06	732.38	674.62	584.62	511.06	447.00	404.00	380.56	358.88	343.75	332.31	319.12	308.94	300.88	296.00	292.12	287.19	286.50	292.88	295.75	293.81	294.19	294.19	291.94	290.56	288.44	287.56	290.44	291.81	294.12	296.62	296.56	296.38	296.31	296.25	296.00	296.00	294.75	293.75	292.31	293.38	298.62	298.06	298.75	299.50	301.12	302.44	304.06	306.44	308.00	306.00	304.75	305.00	304.88	304.06	303.06	295.38	292.38	285.88	282.25	284.38	284.75	286.12	288.50	289.25	288.94	285.81	288.50	290.56	290.50	289.56	288.75	290.25	291.12	289.75	290.06	290.69	290.25	288.31	279.56	279.69	283.75	285.25	285.12	288.62	291.25	292.75	292.50	292.81	294.06	294.06	295.62	294.94	297.62	298.44	298.88	298.88	299.00	299.81	302.88	301.56	302.12	303.81	304.38	305.94	304.62	304.12	303.88	305.38	303.50	304.75	304.62	301.88	297.88	298.38	297.06	296.81	295.81	292.31	291.25	291.06	290.25	288.31	289.00	285.50	283.31	280.88	278.62	286.25	287.25	290.56	291.75	291.00	292.06	291.12	293.56	297.00	296.81	294.06	294.12	289.31	286.94	289.69	300.00	300.81	294.06	298.38	296.56	294.44	294.38	296.62	297.00	298.31	297.81	292.69	289.12	287.50	285.38	285.50	285.94	286.00	287.25	283.38	282.56	280.06	278.69	277.69	276.62	277.00	277.19	276.56	278.25	278.06	276.00	276.56	277.75	278.88	282.44	277.62	279.88	277.06	273.38	271.62	269.19	268.19	268.62	265.62	263.19	264.38	258.94	254.56	257.88	258.12	253.06	250.25	250.69	251.50	240.94	238.06	235.69	234.06	231.75	229.31	228.56	229.31	230.12	234.12	231.62	228.50	227.88	223.50	222.62	216.94	196.00	192.44	219.25	220.75	219.75	227.06
607.31	616.12	627.12	642.25	644.50	664.50	697.75	705.00	712.38	719.12	725.31	725.50	740.12	748.31	750.94	753.06	753.00	747.62	745.31	743.94	743.50	740.56	733.06	731.00	727.38	726.56	740.50	752.69	763.62	765.50	753.06	740.81	713.75	715.56	730.44	752.06	748.31	725.19	686.56	629.75	529.69	480.25	422.38	394.62	373.06	354.56	341.75	329.50	316.88	306.69	301.19	296.06	291.62	287.38	289.69	295.38	297.94	297.81	297.31	297.00	294.44	288.94	290.00	293.06	294.12	294.44	295.94	298.19	298.25	298.12	298.44	297.81	297.50	297.56	296.31	296.38	295.44	296.88	299.88	298.94	299.75	301.06	304.00	305.88	307.00	307.81	308.31	306.88	305.62	305.31	304.69	302.38	299.44	290.38	288.44	286.31	288.50	288.44	287.88	290.00	291.56	292.69	291.69	289.50	291.50	292.25	291.88	290.69	290.19	291.75	292.06	291.56	291.62	292.06	289.25	284.19	279.44	282.25	285.44	288.25	289.06	289.38	292.56	295.69	298.62	301.44	300.69	301.50	302.31	301.88	303.00	305.44	303.94	304.75	305.94	305.94	307.50	307.12	307.94	310.19	309.00	309.06	304.81	304.00	304.00	304.12	303.94	305.88	306.50	305.38	301.06	301.56	300.38	297.75	298.44	299.12	298.00	293.00	291.88	290.62	290.69	289.62	288.44	285.69	281.12	288.75	289.06	289.19	292.00	294.94	300.31	297.56	295.88	297.00	298.44	298.06	300.31	299.06	294.19	291.25	297.50	304.19	300.81	299.31	300.00	294.94	293.19	293.12	294.38	297.75	297.75	295.25	292.44	290.19	288.06	285.94	285.81	284.88	287.06	284.75	283.25	280.69	279.31	279.31	279.38	276.75	275.25	275.38	276.44	277.12	277.56	278.56	280.38	282.12	286.56	278.25	278.44	273.31	268.25	268.19	267.88	267.81	266.38	265.44	266.31	265.94	258.25	255.62	258.62	259.31	255.19	252.62	251.31	248.00	239.88	236.31	234.38	233.00	231.38	229.88	230.56	231.75	235.00	238.06	233.38	229.31	229.81	230.00	227.06	217.69	210.75	217.44	227.62	225.88	228.06	234.75
616.00	624.31	624.31	638.19	646.12	669.62	686.62	696.25	706.94	716.31	720.81	718.44	732.31	747.75	756.00	760.69	759.25	752.19	742.25	745.44	750.38	744.81	727.69	723.81	722.44	722.75	736.94	743.44	746.69	732.12	708.69	688.38	685.88	697.38	721.69	734.31	719.69	687.50	642.12	560.94	500.44	441.75	411.88	385.50	367.88	351.62	339.00	328.62	316.75	304.50	301.81	298.44	295.88	293.12	294.50	301.19	301.75	303.44	300.69	300.38	294.38	292.75	300.94	301.25	301.31	300.81	301.19	302.00	302.06	301.62	301.88	301.81	302.62	302.25	301.50	301.00	300.81	301.25	302.00	301.81	305.38	306.31	308.56	309.50	310.31	310.00	309.06	307.69	307.00	306.00	303.88	301.00	297.44	296.06	295.06	292.38	293.50	293.06	292.75	294.50	296.12	296.56	295.00	294.56	295.75	294.88	294.12	292.94	291.44	293.06	292.88	293.56	292.94	291.88	286.94	286.81	286.94	288.00	288.75	291.25	293.56	294.75	295.88	299.62	303.50	309.62	307.50	309.38	309.06	309.06	309.88	312.38	311.31	313.75	314.00	313.19	314.69	315.06	313.12	316.25	316.12	315.00	309.44	304.38	304.00	304.06	304.94	305.62	304.06	305.62	305.88	304.69	307.62	305.19	300.19	297.31	305.50	302.50	295.44	295.69	297.25	292.88	290.00	296.62	289.69	289.44	290.88	293.12	295.81	295.56	297.75	299.88	299.00	295.31	294.56	297.69	304.81	303.88	302.00	299.44	298.69	301.75	310.00	310.25	310.69	304.06	295.62	295.06	296.06	296.19	295.62	296.19	294.81	295.62	294.31	290.69	290.69	288.62	289.75	292.50	286.50	283.75	281.56	282.44	280.38	278.56	278.44	278.94	281.69	285.44	288.00	290.56	288.56	287.00	281.94	274.38	273.81	271.12	268.94	267.25	267.44	265.56	264.69	263.38	261.06	259.56	258.75	259.00	258.81	258.69	256.19	254.69	253.44	246.19	239.69	238.25	236.62	234.25	233.06	232.94	233.94	237.50	243.38	241.25	237.38	230.25	234.44	234.75	230.00	231.69	235.25	233.69	234.44	240.62	239.50	242.19
605.81	613.56	626.12	644.19	650.81	670.19	679.38	686.19	693.69	704.88	711.31	715.00	730.50	743.44	753.44	754.81	750.75	746.69	730.38	722.31	735.38	731.69	737.06	729.00	719.62	715.25	713.38	704.75	690.00	684.56	668.06	656.50	646.75	630.62	665.50	700.81	682.06	646.94	579.44	520.88	461.88	423.12	401.69	379.12	362.19	348.50	334.88	322.50	312.19	304.75	301.62	298.12	293.88	293.81	294.94	296.44	296.12	302.19	303.94	297.44	296.06	304.56	303.56	301.38	302.31	301.94	301.44	301.94	302.19	302.06	302.12	302.25	302.88	302.56	301.56	301.56	301.69	302.19	304.94	307.06	309.31	310.12	311.31	311.31	309.94	309.19	308.25	306.38	304.81	304.94	302.94	298.94	297.69	299.56	298.00	297.25	297.94	295.62	297.00	298.00	299.38	299.56	296.62	297.88	298.44	297.69	295.81	294.94	294.00	294.62	294.62	294.62	293.56	291.50	288.50	288.25	289.56	291.19	291.81	293.44	294.06	297.31	299.88	302.50	304.44	304.25	308.06	309.88	315.00	313.31	313.88	317.62	317.00	319.75	320.50	319.00	320.00	322.94	320.88	320.00	317.94	314.50	312.19	308.75	306.94	309.88	317.62	322.50	312.12	306.12	307.62	304.75	306.12	307.75	308.44	304.00	298.81	300.12	302.56	295.44	293.94	299.88	294.69	294.81	294.31	290.44	292.38	293.62	293.50	296.25	298.31	300.62	300.12	300.75	300.06	298.31	298.94	302.75	301.44	301.12	298.56	307.25	309.44	309.62	306.25	305.00	297.31	299.50	299.56	299.12	299.69	297.81	295.44	297.19	298.19	295.62	293.19	295.06	290.25	293.12	289.25	284.19	280.38	278.88	280.38	280.19	282.06	283.31	285.56	286.81	285.31	282.12	277.44	278.62	279.19	277.25	276.44	279.19	278.69	276.31	275.25	269.88	266.62	265.06	261.75	261.69	265.12	267.25	265.38	261.62	255.56	250.50	249.38	244.62	240.06	238.88	237.19	235.19	234.38	234.00	234.56	234.31	234.50	232.56	232.75	232.25	233.69	231.69	233.81	237.25	240.94	237.94	244.88	243.19	238.69	244.62
615.56	617.62	636.00	640.81	653.00	661.38	668.19	665.56	666.88	681.75	700.88	708.62	714.56	732.38	738.62	739.75	732.44	719.38	700.88	696.19	709.00	708.44	718.38	714.69	704.62	691.50	687.44	681.31	681.69	661.00	656.81	649.75	621.12	608.19	617.56	661.62	639.50	594.62	530.81	484.38	432.50	406.56	390.75	371.94	361.56	343.38	327.25	318.62	306.44	304.94	300.62	297.81	292.50	293.94	294.81	293.19	293.44	296.00	297.31	300.69	305.44	304.38	303.62	302.81	302.81	302.25	302.19	301.88	301.00	302.00	303.00	303.06	303.56	303.31	302.44	302.88	303.25	304.94	309.69	310.75	311.00	312.38	312.81	310.62	309.00	306.69	306.06	304.06	302.12	301.88	301.31	300.00	302.25	301.06	301.88	301.00	299.50	298.25	300.56	301.19	301.69	300.19	298.50	299.75	300.56	298.94	296.44	295.19	295.62	295.56	294.88	294.25	292.69	291.69	291.31	288.56	289.44	292.06	294.31	296.12	298.12	300.38	303.56	305.81	306.94	307.69	311.62	313.25	315.25	315.88	315.62	317.31	318.56	319.94	322.62	321.69	322.69	323.31	320.88	320.38	316.56	313.69	312.50	311.88	310.25	313.12	316.81	326.12	321.31	310.25	308.44	307.00	307.00	307.50	309.12	309.94	307.56	301.38	300.88	301.25	298.56	299.00	298.31	297.69	297.44	296.00	294.31	293.75	294.25	297.94	297.75	300.25	301.62	303.44	302.44	302.38	303.12	302.88	304.38	301.81	301.81	302.00	304.75	308.88	305.00	305.06	297.69	300.69	300.75	300.62	300.81	302.31	303.69	304.06	301.12	296.88	294.31	295.81	292.31	289.31	286.56	283.56	282.50	281.88	283.62	283.69	281.75	281.25	280.44	280.12	278.88	277.94	280.31	283.00	281.00	281.56	282.38	284.06	283.94	278.69	278.00	270.44	267.44	267.19	265.00	263.19	264.00	266.88	268.31	271.75	268.44	258.75	250.12	243.94	241.00	239.12	237.38	237.00	236.44	235.56	235.44	234.75	234.31	234.69	236.12	241.25	242.12	234.88	234.56	234.31	235.50	237.25	250.50	249.25	245.44	249.06
629.62	627.06	638.56	648.25	650.25	657.62	664.25	666.06	665.88	667.56	684.88	694.94	698.81	714.56	717.25	721.94	711.62	694.06	691.12	689.75	686.19	687.12	696.69	705.25	690.50	677.00	684.62	699.50	700.69	684.94	701.12	680.62	633.38	614.38	601.44	619.00	594.62	552.81	500.31	453.69	414.56	397.25	380.81	366.00	356.12	336.75	321.56	314.12	305.56	304.31	300.25	298.44	292.00	293.75	292.50	291.31	291.69	292.75	301.94	306.38	305.56	305.12	304.38	304.06	303.56	303.38	302.88	302.25	300.50	302.50	303.81	303.69	304.00	303.75	303.50	304.06	306.12	309.00	312.25	312.62	312.50	312.69	311.69	309.25	307.75	305.75	304.06	302.38	301.50	300.88	299.94	303.81	303.94	303.12	304.50	300.62	301.06	300.69	302.94	303.69	302.31	300.50	300.56	300.94	302.12	299.44	296.19	297.00	296.00	294.62	293.62	292.69	292.56	292.94	293.06	290.19	289.12	292.44	295.38	297.62	301.94	301.31	304.19	307.12	308.75	309.12	312.12	315.81	319.38	317.62	317.31	316.94	316.94	318.00	319.38	319.69	321.75	322.81	319.00	316.81	315.62	313.94	314.75	314.88	313.38	317.00	316.88	314.75	314.06	314.06	309.00	308.69	308.69	307.75	308.25	308.25	309.88	308.00	302.12	302.12	303.06	300.69	300.69	300.44	299.19	298.50	299.06	296.06	292.88	297.75	297.88	300.00	302.44	304.06	304.50	303.56	304.94	304.75	306.31	309.00	304.00	304.69	303.19	301.12	302.62	303.94	301.69	299.25	296.56	299.38	303.25	300.44	303.94	307.75	306.38	297.31	297.00	296.94	293.94	288.44	286.56	285.62	284.50	286.00	283.62	282.25	282.81	282.81	284.44	286.00	284.06	283.12	284.25	282.06	281.81	281.25	281.00	281.88	282.94	281.81	283.75	271.44	267.50	266.38	265.75	263.88	263.19	266.25	270.06	269.88	267.69	255.12	248.31	244.75	241.50	239.88	237.38	239.81	237.81	236.31	237.50	236.56	236.69	237.19	246.81	248.19	242.62	235.50	235.50	235.12	237.88	245.56	256.06	246.00	246.50	243.44
