1091.25	1108.00	1124.25	1169.31	1228.69	1292.19	1280.75	1326.88	1266.44	1224.00	1212.88	1232.62	1250.44	1193.44	1176.00	1166.44	1060.12	1015.62	997.94	998.75	1022.69	1021.94	1025.62	1037.75	1043.69	1053.69	1067.88	1069.88	1059.00	1054.19	1051.31	1057.81	1036.06	1024.69	1024.56	1024.19	989.94	974.00	967.25	998.00	1016.81	1013.19	977.12	962.00	1004.12	994.19	958.88	948.44	955.12	993.00	1002.88	979.69	1050.50	1065.50	1050.75	1042.38	1054.50	1023.69	1025.75	1039.06	1059.12	1044.62	1084.50	1114.25	1130.19	1144.88	1111.50	1091.81	1093.69	1094.81	1103.69	1120.25	1136.94	1159.06	1171.69	1193.25	1232.69	1281.50	1270.56	1247.25	1245.31	1275.31	1255.88	1221.44	1196.19	1188.44	1225.62	1214.38	1194.75	1208.19	1219.00	1249.19	1237.25	1218.06	1224.50	1195.50	1176.81	1173.56	1170.69	1143.06	1133.69	1127.88	1121.44	1116.06	1100.94	1106.56	1099.00	1089.50	1079.31	1082.12	1089.31	1075.38	1077.88	1068.19	1029.31	1026.38	1017.81	1017.38	1015.50	1030.56	1055.69	1097.38	1135.94	1249.38	1180.12	1109.94	1050.75	1029.50	1010.06	998.00	995.31	1007.44	1040.50	1012.25	1006.12	1042.44	968.50	947.44	934.25	921.25	912.81	900.19	892.88	885.62	877.94	868.31	860.81	856.31	852.31	845.81	842.50	837.88	833.81	830.81	825.56	820.44	814.75	807.94	803.12	805.44	811.69	816.50	801.50	786.75	761.75	729.62	712.06	704.12	703.75	710.12	726.38	749.38	759.88	766.31	765.06	757.25	750.69	753.25	746.56	733.31	722.00	718.12	717.19	715.38	713.38	708.00	694.31	692.88	697.94	700.00	693.56	686.94	684.56	682.88	681.31	680.12	675.69	671.69	669.56	666.19	661.88	656.44	656.81	690.19	685.56	671.00	657.38	650.06	645.25	637.00	623.81	606.94	592.81	575.06	576.06	584.19	585.94	600.44	598.31	585.44	586.75	596.12	588.19	585.44	578.38	572.75	574.00	571.75	541.81	528.56	547.88	570.38	565.06	551.12	534.75	542.56	560.44	557.06	560.06	551.00	558.75	560.88	559.31	573.94	579.31	567.69	574.81	602.94	604.00	597.50	587.81	584.31	571.69	579.00	568.50	567.88
1061.75	1086.00	1144.44	1145.31	1185.38	1205.69	1223.44	1256.06	1288.62	1267.00	1202.31	1229.75	1276.75	1263.44	1252.38	1248.19	1162.75	1043.69	1016.06	1012.81	1023.94	1029.56	1026.94	1030.81	1037.38	1049.19	1064.50	1071.00	1065.44	1064.06	1060.62	1059.94	1056.50	1034.00	1012.31	1007.25	994.06	977.12	961.50	960.94	1014.44	1029.06	1011.94	987.31	992.94	1017.12	1009.56	1003.62	1025.81	1054.62	1042.44	1043.69	1143.62	1179.56	1146.00	1081.00	1075.25	1074.94	1054.56	1059.50	1056.88	1052.06	1061.06	1067.50	1087.88	1132.12	1111.81	1108.94	1126.19	1107.00	1118.94	1144.50	1169.94	1198.88	1195.25	1207.31	1194.88	1212.00	1238.81	1200.00	1196.56	1217.38	1223.31	1193.12	1189.06	1206.06	1213.94	1219.50	1177.44	1192.62	1208.31	1239.00	1223.69	1220.88	1206.56	1188.12	1178.56	1160.06	1149.38	1140.94	1131.06	1123.94	1121.38	1120.94	1108.94	1107.12	1101.25	1092.25	1093.44	1101.00	1095.38	1078.75	1082.38	1106.44	1040.38	1051.94	1043.38	1027.00	1029.31	1040.12	1063.44	1136.25	1194.75	1264.12	1193.44	1111.56	1049.81	1034.19	1010.06	997.94	1001.50	1021.19	1049.12	1015.12	993.25	1009.62	985.88	949.25	931.38	922.06	915.94	905.31	907.50	889.69	874.88	868.75	863.44	859.38	855.31	849.62	846.44	842.12	836.50	831.88	826.88	821.81	817.38	811.56	805.00	802.31	818.38	812.75	810.50	800.50	781.25	758.81	730.88	711.44	710.69	719.75	734.81	757.31	767.00	766.56	759.50	748.44	742.94	736.75	731.88	724.75	722.19	720.62	722.62	719.62	701.06	705.50	699.00	687.81	694.50	696.88	693.69	689.19	685.94	683.00	680.62	677.75	673.62	670.44	667.94	664.88	660.44	655.19	652.50	673.62	689.12	674.31	661.19	658.81	647.06	632.88	626.19	607.38	588.50	574.00	571.94	575.62	593.00	591.56	592.31	591.94	575.88	584.19	598.38	582.00	586.81	575.12	566.88	558.69	558.88	539.69	522.31	537.62	552.81	565.94	559.62	554.75	556.94	548.38	548.62	562.62	560.75	558.69	570.12	568.81	574.12	574.44	579.75	595.31	597.44	587.38	590.50	581.88	575.38	580.94	579.25	579.69
1054.00	1077.56	1111.19	1130.06	1153.38	1160.06	1184.06	1246.44	1285.81	1232.50	1198.81	1212.62	1271.38	1282.25	1285.19	1289.50	1217.88	1084.19	1034.62	1040.56	1039.69	1034.94	1033.31	1037.50	1044.50	1050.75	1064.44	1067.19	1056.75	1059.06	1055.88	1066.12	1073.38	1048.69	1038.88	1025.69	1015.81	1008.75	982.06	955.44	960.44	973.00	995.88	997.19	981.38	1014.75	1030.12	1042.75	1084.12	1064.69	1034.44	1049.31	1138.19	1149.88	1151.75	1105.88	1117.06	1170.94	1162.06	1116.06	1111.88	1124.69	1121.00	1097.25	1096.12	1129.06	1133.69	1143.19	1144.44	1123.62	1139.94	1169.00	1195.69	1206.19	1215.12	1196.00	1179.94	1200.88	1206.12	1178.38	1174.19	1170.56	1186.62	1172.12	1172.94	1195.56	1207.19	1205.88	1173.25	1204.38	1207.81	1231.12	1243.81	1236.50	1199.44	1195.94	1168.50	1149.00	1144.44	1142.94	1134.62	1123.50	1113.75	1111.06	1107.62	1100.94	1095.12	1085.81	1091.12	1096.75	1094.38	1109.50	1092.81	1104.81	1054.19	1088.25	1067.19	1039.69	1043.12	1053.12	1104.06	1251.62	1252.88	1212.75	1158.19	1078.81	1051.56	1034.25	1009.69	996.50	1001.19	1016.12	1027.06	1002.25	998.88	1009.88	962.81	941.56	922.56	910.31	909.88	908.75	923.31	891.56	873.88	873.44	872.69	864.62	857.94	852.31	847.75	848.56	841.44	834.88	828.12	822.56	817.62	812.06	807.12	801.88	802.56	803.38	812.69	808.69	788.62	773.12	754.81	735.06	721.19	719.56	740.38	760.50	763.44	755.12	746.75	740.75	735.94	732.94	729.56	726.56	724.44	719.56	725.44	716.81	703.06	702.94	701.31	699.38	699.31	696.81	696.56	691.56	686.38	683.19	680.38	678.12	675.00	670.88	667.31	663.69	660.88	654.94	650.62	651.94	680.12	680.81	669.50	660.81	648.81	635.12	626.94	610.38	588.31	577.56	575.06	572.25	582.94	591.31	591.12	591.75	582.81	571.94	583.88	597.19	575.56	577.75	567.06	549.19	539.62	558.44	551.50	537.75	533.44	559.44	554.25	557.62	571.94	561.62	563.12	557.94	565.06	571.06	562.50	570.56	576.25	576.56	578.50	588.06	591.75	593.00	593.69	583.56	580.06	586.50	590.38	589.56
1057.50	1058.56	1092.62	1126.69	1146.12	1142.06	1157.50	1192.94	1249.75	1247.81	1189.56	1181.25	1238.69	1231.12	1237.31	1241.19	1291.62	1250.06	1099.38	1060.75	1057.94	1042.44	1043.19	1057.12	1058.94	1062.81	1059.62	1051.12	1056.81	1050.62	1054.25	1058.94	1078.00	1065.56	1043.81	1033.06	1038.50	1032.31	1007.56	966.50	960.06	960.44	963.56	985.75	990.56	1029.56	1053.38	1038.62	1050.75	1095.06	1050.50	1027.38	1057.94	1078.50	1112.44	1109.25	1130.19	1147.81	1149.50	1152.62	1182.25	1216.38	1156.12	1152.25	1117.25	1117.06	1162.00	1194.94	1160.62	1161.62	1158.69	1181.19	1197.56	1215.31	1192.69	1193.62	1173.75	1173.56	1176.62	1159.38	1149.00	1152.06	1159.31	1154.62	1159.69	1158.31	1157.56	1174.75	1168.62	1198.25	1211.50	1214.56	1217.50	1218.94	1157.94	1147.69	1140.62	1137.50	1136.06	1130.31	1124.94	1123.25	1111.81	1099.44	1093.25	1087.81	1093.25	1083.38	1079.12	1087.62	1105.31	1133.75	1120.81	1117.31	1071.00	1074.38	1078.62	1098.00	1065.69	1111.00	1155.81	1223.06	1357.75	1213.44	1138.88	1069.12	1046.25	1029.25	1008.75	1000.00	1011.19	1003.75	998.88	982.44	986.94	980.94	948.00	933.69	921.31	910.56	901.81	895.38	899.44	889.44	879.25	892.44	886.12	873.50	862.81	853.81	850.56	856.19	854.00	841.62	829.62	823.06	816.00	811.19	808.00	802.69	792.75	793.31	805.31	815.25	802.81	789.19	775.81	762.00	739.94	727.69	756.62	763.69	756.88	746.88	745.00	741.00	739.38	737.12	732.81	729.50	726.12	717.56	718.31	715.69	712.38	709.88	706.31	703.19	699.44	695.19	695.75	694.69	686.62	684.12	680.94	677.88	676.12	673.31	666.12	661.06	658.38	658.38	649.19	645.75	653.88	680.81	674.00	655.69	647.88	630.75	620.56	615.31	590.31	575.88	570.38	570.38	570.31	592.19	596.12	595.06	585.88	577.00	568.81	576.94	598.00	569.94	559.81	554.94	538.88	533.81	551.44	565.44	565.56	549.56	562.81	559.62	563.25	568.75	563.00	571.12	568.94	572.94	577.00	586.25	582.12	581.88	579.00	578.38	587.44	595.38	587.62	588.06	595.62	598.56	601.00	594.44
1063.12	1060.50	1074.81	1103.88	1137.44	1120.44	1127.44	1147.69	1190.50	1228.00	1165.50	1155.44	1180.19	1173.75	1178.00	1212.44	1293.31	1281.12	1129.38	1085.38	1064.88	1055.12	1056.50	1059.81	1065.88	1057.62	1047.94	1045.06	1055.06	1053.62	1047.75	1048.19	1062.81	1058.56	1025.50	1022.31	1025.38	1009.06	989.06	965.62	962.81	963.88	966.94	971.12	987.12	1005.62	1031.25	1052.38	1063.44	1058.44	1031.69	1033.12	1064.88	1064.25	1094.38	1084.25	1101.88	1111.12	1131.94	1131.94	1144.31	1168.69	1152.50	1122.44	1111.88	1116.56	1148.56	1170.75	1167.19	1170.44	1175.69	1195.12	1216.19	1213.19	1184.88	1174.94	1172.44	1161.88	1160.81	1137.19	1129.12	1143.25	1185.94	1177.31	1149.19	1138.69	1137.00	1139.75	1144.69	1158.31	1178.06	1193.19	1192.25	1161.88	1140.56	1134.12	1127.88	1124.25	1125.12	1119.06	1111.56	1117.38	1106.44	1110.75	1110.06	1086.31	1075.88	1065.62	1075.56	1107.56	1179.44	1175.69	1137.31	1119.62	1074.75	1064.38	1091.12	1119.88	1092.50	1196.00	1252.75	1255.88	1244.00	1121.56	1111.75	1063.94	1047.12	1024.75	1010.25	1000.12	1005.38	996.44	988.25	987.69	975.38	957.88	949.62	944.06	928.94	915.50	907.94	917.31	915.44	897.12	885.44	886.75	883.50	869.62	862.12	858.00	854.69	853.56	850.75	845.19	834.12	830.62	820.12	808.81	802.25	797.06	795.62	793.12	795.19	815.56	806.88	799.25	792.62	773.31	751.44	737.56	765.75	757.06	753.19	750.56	748.06	744.94	741.81	737.50	733.62	729.88	726.56	723.19	719.69	716.75	714.56	711.88	701.62	691.31	694.56	683.00	687.81	697.94	686.94	682.31	680.62	678.62	674.38	673.81	670.06	661.25	656.25	655.06	650.25	642.19	639.81	660.50	681.12	660.75	654.06	638.19	629.81	619.06	597.19	576.88	568.44	565.94	565.06	572.44	589.25	598.00	588.44	574.69	578.38	564.44	565.94	591.00	563.31	554.12	569.75	571.19	544.94	532.31	554.12	566.06	558.50	567.00	566.12	567.25	565.44	581.75	577.94	574.69	580.38	584.00	581.56	584.44	585.81	584.94	595.12	594.12	596.31	591.94	609.94	606.50	603.88	596.75
1063.62	1061.44	1067.25	1080.75	1094.12	1114.19	1108.50	1114.25	1141.25	1186.88	1143.19	1126.44	1162.06	1127.38	1144.75	1171.56	1252.31	1207.12	1243.44	1116.44	1104.69	1082.75	1074.31	1057.88	1061.75	1069.69	1052.19	1041.50	1060.94	1056.81	1061.62	1037.81	1041.62	1041.31	1023.38	1013.00	998.94	985.75	977.81	967.00	964.38	963.94	968.06	971.75	977.50	984.06	1009.69	1014.38	1016.00	1042.25	1028.19	1028.56	1049.50	1082.69	1078.06	1091.00	1124.31	1096.69	1098.75	1097.12	1109.88	1120.62	1143.50	1137.06	1123.88	1128.62	1145.50	1159.19	1197.62	1175.00	1192.31	1202.00	1195.00	1203.19	1187.31	1180.56	1170.56	1174.00	1149.06	1128.31	1125.25	1154.75	1186.62	1147.25	1131.12	1125.00	1125.44	1128.50	1132.12	1163.94	1176.94	1176.19	1151.88	1141.00	1130.19	1123.19	1117.75	1113.75	1120.06	1151.75	1125.06	1108.12	1091.88	1132.19	1141.50	1141.44	1070.56	1059.81	1074.62	1155.56	1197.31	1115.81	1083.12	1111.06	1082.44	1077.44	1119.69	1096.31	1129.94	1288.75	1280.44	1302.81	1316.25	1123.62	1119.50	1061.88	1044.75	1026.00	1011.56	1002.62	994.94	991.62	1011.62	1012.31	1040.69	975.62	958.75	948.12	930.62	920.06	924.25	945.62	930.19	902.75	896.69	891.12	890.44	876.31	867.62	863.50	861.62	859.25	858.75	855.00	842.88	834.94	822.75	813.62	806.81	798.81	792.62	788.50	788.00	800.31	806.19	808.38	796.50	784.94	768.25	761.44	761.88	758.12	755.94	752.31	749.12	745.44	741.50	737.81	733.31	732.62	727.81	715.12	725.19	725.25	725.94	721.00	710.19	682.31	677.06	673.88	667.56	693.44	690.38	682.62	678.81	679.12	671.62	670.44	671.38	661.56	658.81	653.50	653.19	647.00	635.81	641.25	677.31	668.00	652.06	641.62	631.44	626.81	605.50	582.88	569.75	568.12	559.88	564.88	570.75	582.88	591.56	582.94	574.56	579.06	573.94	561.50	582.38	566.62	529.31	545.44	580.38	560.00	535.31	542.19	566.62	582.62	566.50	581.06	584.38	577.69	580.06	581.25	578.75	582.94	593.94	590.19	589.75	588.69	594.31	602.19	601.50	601.44	617.00	614.38	605.62	597.44
1069.00	1067.56	1071.19	1072.44	1076.69	1092.38	1089.88	1101.19	1124.31	1165.31	1114.50	1110.12	1119.25	1107.44	1113.56	1125.88	1142.12	1137.25	1152.38	1108.44	1117.12	1099.50	1073.19	1058.12	1064.62	1070.56	1059.69	1038.62	1041.94	1054.12	1048.31	1037.06	1043.19	1032.25	1012.31	1003.56	987.25	974.38	979.50	968.12	964.62	967.44	969.62	974.38	979.19	982.06	987.06	993.00	1001.50	1014.69	1023.88	1028.81	1050.12	1077.00	1114.56	1145.75	1160.00	1108.12	1100.38	1102.31	1119.19	1125.19	1129.62	1133.62	1131.88	1129.00	1138.38	1146.38	1193.81	1193.88	1194.62	1171.25	1175.44	1179.62	1181.44	1196.81	1180.06	1184.25	1159.44	1120.88	1122.88	1126.50	1116.38	1124.81	1116.56	1118.56	1117.12	1126.62	1136.19	1149.75	1168.56	1173.62	1159.88	1143.50	1133.81	1122.00	1111.94	1106.69	1116.62	1154.44	1194.56	1164.38	1093.44	1084.75	1097.00	1087.50	1060.25	1053.25	1071.44	1122.31	1099.94	1075.06	1075.69	1106.12	1077.62	1084.44	1091.38	1107.81	1116.31	1197.69	1327.00	1315.94	1312.38	1121.38	1115.88	1059.50	1041.00	1026.44	1015.25	1008.12	999.88	1002.00	1004.19	1011.00	1015.75	989.00	959.75	942.25	930.44	924.12	925.31	948.19	924.94	902.44	902.94	898.56	892.25	881.19	871.38	868.75	866.62	865.62	862.69	868.25	851.88	844.00	828.25	818.69	812.69	799.56	795.38	789.19	788.31	784.38	798.56	807.00	797.75	789.31	776.50	769.31	763.62	759.94	754.25	744.31	735.25	734.25	737.94	735.75	732.62	738.25	725.25	709.44	734.25	729.31	726.69	724.06	718.38	703.31	678.25	662.00	658.62	678.88	695.19	685.31	680.62	678.62	671.31	666.50	666.50	661.81	656.81	653.88	652.06	646.44	635.69	633.25	653.94	671.88	657.12	653.50	640.75	631.81	616.25	583.62	571.50	571.50	563.38	558.06	565.00	581.94	574.12	587.25	577.00	581.25	571.25	583.81	555.94	569.62	559.00	539.69	551.06	572.31	567.81	561.62	564.38	580.56	573.19	576.62	585.44	576.38	587.25	595.38	586.12	586.88	594.31	594.69	591.06	591.31	590.44	602.62	610.31	621.12	620.12	612.62	603.31	596.31
1075.38	1075.44	1080.06	1075.88	1085.06	1085.25	1093.38	1097.38	1105.62	1105.19	1108.38	1097.75	1088.50	1085.62	1100.31	1103.88	1116.88	1111.38	1103.94	1089.06	1098.12	1096.19	1074.50	1067.94	1075.31	1082.94	1063.94	1044.06	1031.88	1029.94	1036.88	1038.44	1028.12	1024.25	1010.50	989.31	979.88	975.50	971.38	971.50	966.06	969.44	973.81	976.50	980.62	984.81	989.00	994.81	1001.31	1008.50	1015.75	1023.19	1051.94	1111.75	1156.94	1151.25	1139.31	1108.19	1104.75	1127.38	1161.12	1152.75	1136.00	1129.56	1135.38	1135.56	1140.25	1140.38	1184.50	1198.50	1161.75	1155.56	1155.62	1167.50	1184.31	1190.75	1195.94	1178.31	1150.31	1110.44	1106.88	1098.06	1096.44	1105.06	1124.88	1108.94	1115.25	1125.81	1132.38	1151.50	1161.56	1167.06	1165.50	1156.62	1140.44	1127.75	1112.94	1102.69	1110.44	1131.69	1172.06	1182.31	1111.38	1077.88	1119.75	1104.31	1054.56	1045.25	1050.88	1072.12	1055.94	1062.19	1105.19	1108.00	1084.06	1091.06	1100.25	1118.88	1130.00	1178.06	1219.25	1226.69	1175.31	1112.38	1094.81	1059.38	1041.62	1031.94	1023.12	1019.19	1004.06	997.06	988.62	1024.50	1057.12	995.25	958.69	944.94	932.56	922.94	916.50	915.75	906.88	898.06	901.81	909.56	898.69	892.69	885.56	879.44	875.31	872.19	873.75	867.88	852.56	841.31	830.19	822.19	815.25	805.75	794.06	792.94	784.50	784.38	781.50	798.44	796.12	782.50	773.12	769.75	766.12	757.56	753.88	739.88	726.69	718.44	721.81	730.56	721.44	719.88	697.31	699.19	709.12	695.12	718.00	725.00	720.56	714.75	704.50	670.75	652.25	658.56	689.94	689.75	682.31	679.50	675.69	661.94	657.06	665.94	651.88	654.25	651.44	646.00	635.44	630.44	632.44	670.81	669.75	654.31	639.62	627.81	610.75	591.62	578.31	567.38	563.25	555.19	556.06	564.94	591.00	573.31	582.81	565.75	579.00	571.06	595.75	561.38	553.38	566.12	554.75	559.75	558.25	565.81	587.31	578.81	578.12	580.31	586.88	583.75	588.56	594.19	594.38	590.25	596.69	597.00	596.31	600.38	596.62	602.00	623.38	625.38	617.56	611.81	603.75	599.38
1082.81	1087.19	1087.62	1083.38	1088.12	1090.12	1088.19	1088.12	1101.12	1094.06	1090.69	1078.62	1077.31	1071.69	1094.94	1084.00	1086.56	1093.25	1084.31	1072.19	1076.25	1086.38	1085.62	1080.12	1098.81	1095.12	1068.44	1047.31	1033.56	1025.25	1027.88	1028.62	1029.12	1012.88	990.44	984.69	985.19	978.31	977.56	973.75	971.31	967.62	973.00	977.19	981.12	986.25	991.06	997.12	1001.69	1007.06	1015.94	1028.12	1079.25	1124.81	1109.56	1141.50	1126.81	1122.06	1124.88	1130.62	1154.38	1149.88	1138.00	1134.94	1144.31	1143.62	1141.19	1133.12	1138.62	1135.75	1136.88	1141.31	1151.69	1162.75	1161.12	1168.06	1142.81	1128.50	1119.62	1104.56	1096.50	1088.38	1088.19	1086.94	1093.88	1099.69	1118.81	1142.94	1139.38	1152.94	1168.00	1170.50	1181.12	1186.19	1176.44	1141.25	1117.19	1113.94	1108.81	1182.06	1141.94	1171.25	1148.75	1067.50	1140.94	1119.25	1059.62	1040.25	1057.19	1061.50	1049.88	1091.50	1146.75	1124.12	1106.25	1101.19	1101.88	1102.94	1137.12	1137.00	1144.38	1141.19	1119.12	1094.12	1074.31	1057.06	1046.50	1037.31	1027.62	1017.12	1007.81	998.94	988.31	1020.88	1023.25	974.88	952.31	942.06	932.62	924.75	917.00	911.31	916.81	906.69	904.19	914.50	906.75	892.50	900.81	886.44	885.88	877.25	873.06	873.88	863.81	851.69	838.25	824.50	816.62	809.31	799.00	795.19	788.69	785.94	785.81	789.94	782.06	776.25	776.19	774.25	771.31	754.25	759.31	752.81	734.25	713.81	714.56	727.00	711.06	723.75	696.44	688.75	679.88	682.19	691.56	717.94	721.50	716.88	709.88	682.25	652.69	649.50	668.44	694.19	684.31	681.75	678.25	670.75	666.44	666.69	657.31	651.19	653.62	646.56	634.06	628.06	627.31	644.06	668.44	654.38	647.69	635.50	620.56	601.94	585.12	565.31	558.81	559.31	549.75	557.06	570.81	598.25	577.00	574.12	564.06	581.94	560.44	589.00	577.88	548.44	558.44	569.50	559.75	573.31	566.50	588.69	581.00	586.75	580.94	589.75	593.00	593.00	593.12	601.06	598.50	601.00	600.50	606.00	601.81	605.06	618.94	618.44	612.38	605.88	609.31	612.75
1093.44	1098.12	1093.50	1093.00	1095.44	1099.25	1094.06	1094.38	1103.12	1084.88	1079.31	1068.88	1062.69	1060.12	1062.44	1072.12	1085.69	1076.00	1069.00	1066.88	1071.94	1086.50	1076.00	1085.31	1094.50	1074.44	1059.06	1043.38	1036.06	1025.50	1012.19	1006.81	1002.69	1000.81	996.75	999.12	990.38	987.12	985.38	974.94	973.31	971.62	972.62	981.06	984.62	989.88	995.31	1003.25	1007.00	1012.56	1020.50	1044.75	1086.19	1093.25	1132.88	1192.81	1154.75	1140.56	1148.69	1157.75	1151.19	1138.56	1141.06	1144.50	1144.69	1136.75	1132.31	1125.94	1117.88	1118.50	1133.75	1138.50	1136.88	1137.94	1139.12	1143.25	1131.12	1107.19	1098.44	1088.75	1083.12	1080.81	1082.44	1079.50	1085.00	1092.06	1129.75	1146.69	1137.25	1172.69	1182.94	1157.75	1193.31	1204.25	1174.19	1154.69	1130.62	1144.69	1149.81	1235.50	1214.56	1116.06	1180.81	1106.56	1065.88	1158.31	1078.12	1039.25	1033.19	1037.69	1078.19	1185.56	1152.88	1122.31	1111.06	1101.06	1092.00	1087.88	1106.38	1156.56	1175.81	1158.50	1131.19	1084.31	1070.88	1065.25	1054.94	1045.62	1059.19	1034.12	1017.94	1007.88	991.44	1014.44	1017.88	966.00	960.38	946.00	934.62	926.94	920.81	920.88	922.00	917.50	909.81	907.56	911.75	896.94	895.69	898.69	895.75	889.06	871.62	870.62	875.00	858.25	840.38	830.56	822.88	811.56	804.25	802.00	797.94	793.19	790.00	785.69	782.56	788.88	791.31	791.88	781.69	769.31	759.62	754.50	734.50	717.06	711.00	727.25	712.31	713.25	697.94	694.00	684.25	682.62	684.69	714.06	719.75	718.12	713.75	707.81	680.50	650.06	665.81	693.94	688.75	682.31	679.56	676.50	669.56	657.69	663.19	647.31	650.69	646.06	634.62	629.12	624.75	627.62	648.12	665.00	650.31	643.75	625.62	610.62	596.25	577.44	560.69	555.94	551.00	551.62	559.12	573.12	588.62	570.56	581.69	552.81	591.75	551.25	572.44	593.81	569.44	555.12	568.31	576.69	578.75	582.50	587.94	588.81	593.12	597.31	590.56	599.06	599.25	600.94	602.50	604.75	605.88	605.38	605.06	602.50	604.56	607.31	607.38	613.81	621.12	623.69
1105.31	1103.88	1104.62	1106.00	1104.44	1108.12	1107.62	1106.12	1094.38	1083.38	1075.38	1071.81	1065.12	1061.00	1067.12	1074.31	1086.38	1081.69	1068.62	1065.94	1064.75	1071.94	1069.25	1077.62	1072.31	1069.81	1052.69	1046.81	1033.06	1015.94	1004.75	1003.38	1004.50	1007.75	1009.44	1004.31	993.56	992.94	984.56	975.88	979.88	981.50	974.69	978.94	985.19	992.12	1003.06	1007.25	1012.50	1019.62	1039.94	1125.56	1146.31	1154.06	1182.81	1181.12	1179.50	1164.12	1191.06	1165.62	1163.56	1150.31	1143.31	1146.69	1140.94	1132.50	1135.81	1121.31	1114.00	1116.19	1112.12	1121.06	1121.38	1121.25	1120.19	1123.19	1108.25	1096.19	1085.62	1081.75	1074.19	1073.25	1073.25	1072.56	1076.06	1074.44	1089.69	1114.31	1102.12	1119.19	1134.06	1154.62	1185.69	1225.12	1222.44	1152.12	1163.62	1202.00	1209.88	1215.31	1231.69	1135.62	1153.88	1214.19	1054.81	1043.12	1082.50	1029.00	1026.69	1040.19	1074.25	1097.06	1091.56	1089.94	1087.62	1091.06	1081.12	1075.62	1087.06	1119.62	1128.19	1119.75	1101.81	1086.62	1082.12	1073.19	1060.88	1063.31	1040.81	1028.94	1021.75	1009.62	994.38	991.62	974.88	963.06	984.62	948.44	943.56	930.56	925.44	927.94	941.56	928.75	913.75	905.81	906.00	902.50	902.19	920.81	902.38	893.56	878.00	863.44	873.62	857.31	838.44	830.38	823.12	815.88	809.06	805.50	799.94	797.19	793.00	789.31	783.94	794.44	802.75	802.75	798.94	782.12	764.06	761.25	738.69	719.00	709.31	712.31	713.75	692.81	679.81	669.69	677.06	685.19	688.56	699.44	717.19	719.06	717.94	714.00	707.44	666.62	658.50	689.62	693.62	682.62	679.12	679.06	674.31	663.94	666.44	648.38	640.94	641.81	634.69	623.50	626.62	623.31	641.00	673.50	657.12	648.56	629.19	623.88	613.31	585.69	560.06	548.69	548.25	546.00	553.69	556.62	575.94	584.06	567.69	556.00	557.38	595.44	552.62	558.38	574.31	581.75	566.56	578.88	587.44	581.25	597.75	592.38	591.69	592.31	593.81	606.25	600.56	605.38	606.75	609.81	614.56	608.62	609.94	610.38	612.94	613.62	618.12	621.38	631.12	624.25
1118.75	1112.25	1114.81	1113.00	1111.12	1116.81	1114.75	1109.25	1099.38	1093.81	1083.94	1079.56	1071.00	1066.94	1075.00	1075.38	1080.44	1069.44	1065.38	1070.31	1066.38	1066.19	1061.81	1070.75	1057.00	1052.00	1045.88	1038.31	1034.62	1015.81	1009.38	1009.69	1011.25	1016.81	1017.38	1012.44	998.50	999.94	991.44	993.75	981.56	983.00	974.31	977.25	983.56	991.19	1006.62	1024.12	1018.06	1024.12	1039.50	1068.12	1107.94	1116.12	1146.06	1148.31	1175.12	1179.06	1164.56	1158.88	1154.00	1141.06	1139.50	1140.38	1136.12	1127.56	1119.19	1113.69	1123.44	1120.94	1107.19	1113.00	1109.44	1109.00	1112.69	1108.94	1096.62	1085.81	1076.69	1072.19	1066.81	1067.56	1068.19	1068.06	1069.06	1065.75	1075.31	1089.06	1092.25	1124.25	1149.06	1196.94	1223.44	1232.50	1242.19	1167.81	1150.06	1216.44	1221.12	1199.06	1233.75	1192.31	1136.19	1245.06	1054.56	1044.44	1029.38	1034.56	1047.69	1062.25	1085.56	1061.56	1087.19	1087.81	1082.44	1087.00	1075.31	1069.06	1068.44	1082.75	1105.44	1107.88	1085.69	1087.50	1088.94	1075.62	1061.00	1053.94	1055.25	1061.62	1033.19	1012.31	996.12	985.06	972.88	963.56	955.31	946.88	940.50	935.12	932.50	929.88	936.56	938.81	920.81	911.50	909.38	911.56	906.81	924.12	910.44	886.12	888.94	867.06	860.81	858.50	840.88	833.56	823.50	817.88	811.00	805.25	801.31	798.69	795.06	790.56	783.06	795.69	816.44	812.00	811.00	797.06	776.06	757.81	752.19	724.56	709.56	702.31	702.88	683.56	678.12	672.06	669.44	682.75	678.69	677.00	690.00	706.00	721.31	715.31	708.88	699.94	674.06	685.38	695.06	684.44	679.50	679.00	675.56	665.50	663.25	655.50	640.31	642.31	633.06	626.00	620.94	622.00	624.88	664.00	660.81	649.25	639.88	631.88	618.88	596.12	565.62	550.00	546.19	545.75	551.19	552.44	564.44	578.56	570.44	572.88	555.00	568.12	582.81	557.88	568.19	577.69	580.75	575.31	592.69	586.88	590.38	594.44	590.50	600.38	597.75	609.19	605.38	601.94	608.44	613.75	609.00	613.94	613.31	608.12	609.75	613.19	622.50	630.06	630.19	629.88
1127.00	1122.25	1124.38	1118.62	1118.00	1120.69	1117.75	1109.44	1101.38	1095.12	1088.44	1080.75	1076.75	1072.12	1076.94	1074.38	1071.38	1065.00	1066.06	1079.75	1074.31	1065.75	1054.00	1060.75	1054.94	1042.12	1045.06	1036.75	1028.50	1017.75	1019.25	1016.50	1019.81	1023.44	1020.06	1014.50	1004.12	1009.12	999.81	996.69	991.25	986.81	980.56	979.81	981.94	990.56	1014.00	1053.25	1035.44	1043.75	1063.56	1053.38	1059.75	1076.69	1094.25	1111.25	1135.00	1147.31	1146.44	1137.88	1137.12	1136.75	1136.06	1136.19	1129.50	1123.56	1118.69	1121.00	1119.31	1106.38	1098.88	1098.81	1102.56	1101.56	1099.50	1094.62	1089.12	1083.00	1075.88	1064.50	1060.31	1064.81	1065.69	1062.62	1062.06	1060.38	1070.81	1078.19	1085.19	1149.19	1169.69	1192.69	1231.69	1229.50	1217.56	1206.44	1142.31	1170.31	1184.00	1171.44	1130.94	1176.44	1118.06	1090.44	1036.12	1030.50	1022.56	1114.12	1095.75	1069.25	1065.19	1046.06	1067.69	1099.50	1089.94	1080.00	1069.69	1058.75	1055.38	1064.69	1086.25	1095.00	1073.69	1079.56	1086.81	1077.69	1069.12	1061.31	1069.25	1058.19	1034.00	1011.19	998.19	988.06	974.06	965.69	956.50	950.44	943.81	942.38	941.50	937.38	957.94	943.25	930.06	919.50	915.69	910.94	902.06	916.19	913.94	883.19	876.31	859.75	850.19	854.50	849.56	835.19	824.06	818.00	812.19	807.81	803.88	801.00	796.31	788.38	784.56	797.50	822.75	822.75	819.19	803.25	784.00	759.94	748.25	739.50	715.25	706.12	708.06	680.44	676.06	673.69	670.81	681.44	674.94	662.50	662.81	697.12	718.56	715.50	713.12	708.62	704.75	695.00	695.00	690.00	680.94	678.12	677.81	670.00	665.44	663.31	646.50	645.56	633.06	631.31	621.62	619.94	620.12	651.44	666.12	655.12	644.06	636.81	626.00	608.44	578.50	556.31	549.19	543.69	546.06	549.75	553.25	576.56	585.19	565.19	581.94	559.19	583.25	571.44	559.19	583.56	578.38	584.00	590.38	586.56	612.31	601.50	586.94	601.81	606.62	609.38	608.38	607.81	614.00	614.50	615.81	611.06	613.12	613.44	612.31	616.06	624.94	639.44	637.56	638.88
1135.94	1131.50	1135.88	1131.06	1132.75	1131.12	1126.88	1128.00	1110.12	1098.31	1090.62	1086.81	1082.12	1077.62	1078.69	1073.19	1069.19	1065.75	1067.38	1075.00	1073.81	1073.12	1063.56	1046.62	1050.00	1045.31	1043.56	1042.44	1033.31	1029.25	1033.56	1032.19	1031.19	1036.69	1032.44	1032.38	1026.81	1027.75	1015.31	1000.12	1004.69	999.75	996.19	989.88	988.56	994.31	1002.56	1030.00	1094.94	1088.06	1095.88	1079.44	1078.44	1094.94	1114.19	1133.81	1183.38	1175.00	1172.38	1146.12	1154.31	1146.81	1145.81	1141.56	1133.00	1135.06	1124.94	1124.06	1117.62	1104.81	1094.75	1088.00	1085.75	1090.94	1092.56	1090.00	1078.50	1084.31	1071.81	1055.31	1056.50	1064.12	1057.44	1054.88	1053.81	1055.56	1063.31	1072.19	1087.62	1124.31	1159.44	1194.00	1232.56	1283.62	1246.00	1273.81	1141.00	1191.94	1198.06	1153.88	1120.56	1176.56	1161.06	1087.94	1027.44	1023.25	1022.88	1040.56	1058.81	1043.56	1046.94	1045.38	1060.88	1100.88	1105.94	1085.31	1060.31	1054.62	1043.88	1050.94	1061.81	1060.00	1060.50	1072.44	1080.44	1087.31	1086.56	1070.06	1065.19	1053.69	1046.56	1023.94	1006.12	992.38	979.19	971.00	962.44	958.12	952.50	953.88	957.06	950.69	957.31	958.06	936.19	941.00	925.38	908.25	901.69	907.31	901.44	890.56	866.69	857.12	848.62	843.00	845.75	832.31	823.56	819.19	814.12	810.62	805.81	800.19	794.56	791.06	786.75	799.50	822.56	834.50	828.00	812.00	798.19	779.62	755.50	735.62	728.19	717.06	720.12	688.00	676.62	677.44	678.81	686.06	683.00	664.94	665.75	670.19	704.44	712.69	702.75	710.44	709.44	703.81	700.94	696.94	683.44	679.06	677.81	673.81	669.19	664.44	652.00	646.88	636.06	628.06	629.00	611.25	621.38	619.69	641.94	657.19	645.44	638.88	629.75	618.31	593.94	565.25	554.88	544.75	538.81	539.25	547.06	563.38	577.38	576.38	563.19	598.69	558.50	567.50	587.94	572.56	578.94	592.06	593.50	596.81	603.31	594.06	592.12	613.94	607.31	607.62	608.88	613.50	612.12	616.19	612.12	620.31	616.75	615.62	617.38	621.94	628.38	652.62	648.81	640.75
1152.81	1145.88	1149.94	1147.56	1154.69	1143.00	1136.38	1134.38	1113.19	1107.69	1097.06	1092.56	1085.88	1082.69	1080.31	1077.06	1078.31	1075.31	1063.69	1062.44	1066.44	1066.19	1053.62	1054.00	1059.75	1057.75	1053.56	1046.75	1041.38	1047.56	1047.25	1051.06	1041.94	1047.75	1045.50	1046.25	1038.44	1038.62	1032.19	1023.88	1023.62	1017.19	1009.69	1008.50	1005.81	1007.19	1008.44	1031.25	1080.75	1147.81	1134.00	1122.31	1130.56	1157.69	1168.81	1146.00	1163.50	1167.38	1171.00	1152.44	1153.06	1147.75	1148.56	1145.62	1139.06	1139.50	1139.81	1134.81	1107.12	1111.94	1116.75	1091.12	1081.00	1077.62	1079.56	1074.31	1071.06	1097.62	1059.81	1056.12	1058.12	1044.81	1045.12	1047.44	1046.75	1050.00	1058.81	1068.69	1081.81	1145.12	1186.75	1200.31	1223.38	1187.44	1232.31	1218.75	1104.06	1151.69	1158.06	1208.19	1167.75	1188.62	1137.94	1092.81	1034.88	1010.00	999.81	996.25	1005.88	1023.75	1034.56	1045.81	1061.38	1068.75	1068.62	1080.44	1059.50	1043.69	1034.31	1039.00	1046.94	1045.75	1051.88	1063.94	1080.94	1096.75	1101.50	1083.06	1073.50	1066.19	1109.56	1055.12	1016.12	1000.62	985.31	976.31	972.69	975.38	981.62	972.56	970.06	968.31	965.94	961.12	968.12	963.00	942.88	904.69	903.44	909.62	896.56	876.31	864.44	852.88	848.94	841.62	836.69	831.44	825.94	822.38	816.00	810.19	805.06	800.12	795.06	795.56	789.00	799.44	825.19	838.94	833.44	827.44	817.12	792.19	773.44	747.62	735.44	727.06	735.88	705.25	685.94	692.56	699.94	693.88	691.50	680.69	673.12	695.38	710.12	712.00	697.88	712.44	711.06	706.56	702.62	700.50	686.50	679.62	677.19	674.62	670.69	666.12	662.00	651.00	643.88	632.94	628.00	621.12	617.75	618.06	620.50	651.81	649.00	641.75	634.88	621.31	607.00	577.94	552.00	544.31	540.31	538.25	545.31	554.94	581.12	583.25	591.06	566.56	587.56	573.88	576.25	582.62	590.56	600.06	589.62	600.12	608.56	606.38	601.44	613.62	608.69	612.12	613.81	617.38	615.25	621.44	619.56	618.06	621.81	622.06	624.62	628.56	639.38	658.00	644.94	635.88
1169.75	1165.19	1161.88	1158.38	1171.69	1149.19	1150.12	1134.25	1124.19	1121.81	1108.50	1093.12	1085.81	1087.69	1093.56	1078.31	1077.50	1082.50	1066.25	1059.25	1061.69	1059.94	1051.06	1055.25	1064.50	1066.00	1059.88	1049.12	1051.12	1057.44	1060.69	1071.50	1061.31	1060.38	1061.38	1054.50	1042.00	1049.50	1045.56	1049.44	1044.00	1033.50	1026.69	1027.75	1021.81	1016.12	1043.50	1063.44	1080.62	1091.88	1152.06	1181.94	1163.81	1176.25	1183.94	1189.38	1176.69	1156.88	1143.19	1141.69	1132.00	1136.88	1137.44	1144.38	1147.06	1159.38	1173.69	1164.06	1109.62	1102.31	1095.75	1096.44	1088.31	1073.12	1068.75	1065.75	1068.88	1064.94	1047.94	1077.44	1065.06	1045.38	1037.31	1039.56	1041.44	1045.69	1055.88	1063.94	1074.62	1111.31	1178.75	1184.38	1180.50	1170.62	1124.94	1099.25	1086.06	1148.94	1146.62	1165.44	1125.50	1128.69	1174.19	1157.88	1030.31	1002.06	991.19	988.31	997.69	1011.06	1025.94	1039.06	1056.88	1058.56	1055.75	1045.56	1039.81	1038.00	1025.94	1029.81	1032.06	1035.81	1043.75	1054.94	1072.75	1100.12	1140.19	1130.69	1104.12	1090.88	1093.31	1062.19	1031.69	1015.94	993.12	984.31	999.19	1012.12	1018.44	1013.81	973.44	960.38	969.00	990.94	972.06	940.94	913.50	896.19	893.88	902.81	887.44	868.81	857.50	851.75	847.81	841.00	835.06	831.88	827.31	822.44	816.38	810.75	806.06	802.31	796.62	793.19	789.00	794.38	815.06	845.88	843.31	835.19	822.19	800.38	786.69	765.81	737.69	735.12	725.25	710.38	721.06	722.75	704.62	703.06	705.94	709.31	690.06	696.19	719.19	712.69	716.50	716.12	712.19	709.62	703.69	700.81	691.19	680.44	676.88	675.25	671.56	668.00	664.94	656.75	650.00	641.75	630.38	624.19	613.81	617.25	612.12	622.00	652.12	644.56	635.31	626.06	616.31	591.06	558.69	547.00	542.81	538.44	544.00	555.50	574.38	573.25	585.69	595.00	565.31	583.88	588.38	584.50	596.56	593.25	600.50	601.25	603.25	607.00	608.00	614.19	607.00	616.75	619.00	618.25	620.00	620.00	623.12	623.00	624.62	620.62	629.19	640.00	637.50	644.94	646.44	645.00
1164.06	1170.56	1163.94	1155.38	1157.88	1159.00	1165.00	1139.50	1134.12	1137.38	1122.94	1096.88	1091.06	1090.62	1092.88	1080.69	1075.44	1079.81	1071.50	1061.62	1062.12	1052.19	1057.31	1058.62	1069.75	1074.88	1069.62	1070.12	1070.81	1075.19	1081.50	1085.94	1085.94	1074.50	1069.38	1059.25	1052.38	1056.00	1060.00	1062.00	1056.94	1047.81	1042.12	1036.06	1025.44	1018.44	1044.50	1082.00	1106.94	1092.88	1117.50	1187.81	1176.44	1177.69	1196.06	1186.94	1160.25	1137.69	1129.44	1123.56	1119.56	1124.06	1133.75	1142.81	1151.50	1158.56	1170.19	1146.00	1117.00	1108.25	1099.88	1089.00	1079.38	1070.94	1064.38	1060.25	1056.94	1050.25	1043.50	1047.00	1047.31	1034.69	1032.69	1034.19	1035.06	1041.75	1045.50	1057.25	1062.19	1066.19	1102.44	1147.50	1161.25	1170.69	1125.06	1095.88	1072.50	1088.06	1163.81	1114.88	1093.62	1100.94	1142.81	1090.50	1017.50	990.06	982.81	982.81	992.38	1005.19	1020.25	1037.69	1052.50	1045.38	1050.62	1047.25	1036.38	1023.44	1017.75	1022.88	1023.12	1028.44	1037.25	1056.00	1067.00	1086.12	1114.69	1135.12	1144.12	1156.44	1120.06	1073.44	1035.81	1014.00	997.69	998.88	1030.75	1020.44	1018.19	996.19	976.00	956.75	958.56	999.19	946.81	926.12	903.81	889.38	882.75	894.25	874.12	865.06	859.12	854.81	847.44	842.81	838.81	833.19	828.50	823.38	817.69	812.69	809.44	805.94	799.81	789.88	794.06	794.88	807.19	839.88	848.69	846.25	827.56	814.00	796.19	777.69	751.44	739.44	731.31	717.56	739.75	717.06	691.62	687.75	698.94	703.25	713.62	717.19	725.25	718.25	715.12	716.69	710.31	712.00	706.06	701.06	693.69	684.88	676.88	673.75	672.50	667.62	666.31	663.38	651.06	648.56	637.06	621.12	615.56	611.69	615.00	614.69	651.38	646.25	636.50	629.06	617.25	595.88	568.56	548.62	548.56	540.75	543.50	562.25	570.94	574.06	571.38	574.62	597.31	576.25	596.38	580.50	588.38	610.69	602.25	601.12	621.94	620.69	621.62	624.12	613.50	619.00	620.12	618.75	626.69	622.81	627.19	620.38	625.81	623.00	632.44	632.75	634.50	657.81	659.56	654.12
1169.56	1172.94	1170.00	1159.19	1156.19	1158.25	1157.12	1139.69	1132.00	1126.31	1114.31	1106.19	1098.31	1096.69	1095.56	1085.50	1078.81	1077.56	1071.81	1070.00	1065.50	1058.81	1060.50	1075.31	1082.81	1089.06	1091.00	1094.44	1093.69	1094.25	1102.50	1109.31	1102.56	1089.12	1086.25	1076.06	1078.12	1079.19	1077.69	1067.75	1064.44	1061.25	1050.62	1043.00	1029.81	1022.31	1032.00	1075.75	1053.44	1059.88	1093.94	1161.75	1160.62	1171.81	1180.56	1167.06	1138.31	1145.75	1128.25	1117.81	1120.75	1140.81	1140.31	1135.44	1137.12	1161.81	1162.12	1151.88	1118.94	1110.00	1097.50	1086.38	1078.12	1069.88	1062.81	1057.62	1053.25	1048.25	1045.31	1046.31	1036.50	1031.56	1028.44	1032.62	1031.44	1069.62	1045.94	1032.94	1048.38	1039.06	1053.81	1094.38	1145.62	1180.62	1163.06	1155.50	1088.31	1054.94	1059.12	1089.50	1107.75	1090.12	1197.62	1094.56	1008.44	982.06	974.56	976.44	986.56	999.44	1019.69	1053.75	1047.88	1033.56	1036.06	1035.44	1027.81	1016.81	1009.25	1012.38	1016.00	1027.62	1037.69	1050.19	1062.50	1075.00	1084.62	1090.00	1097.56	1106.19	1097.88	1085.69	1051.56	1022.19	1002.88	1000.38	990.44	986.31	1004.44	1006.31	975.00	975.12	957.94	997.75	944.31	914.06	902.56	887.69	881.00	881.94	871.75	866.69	863.25	857.12	850.06	845.12	839.50	833.44	829.25	824.38	819.31	815.50	815.56	808.75	801.38	806.50	801.62	811.81	813.62	830.25	847.31	850.62	836.12	813.19	797.31	785.12	764.81	735.88	732.44	738.19	743.62	727.25	697.50	682.12	674.06	679.25	701.75	714.12	716.81	702.56	722.94	714.00	704.69	711.69	708.44	705.12	697.88	689.12	677.12	672.38	672.50	670.19	666.25	665.50	650.75	650.38	642.81	620.94	617.50	605.69	610.88	620.19	630.19	649.31	640.69	630.62	618.38	605.50	581.06	554.94	555.94	547.06	544.88	566.06	571.25	577.62	580.12	583.31	578.44	583.50	594.31	600.75	595.50	609.94	602.12	614.75	609.12	612.94	616.69	610.31	620.38	627.31	625.25	623.44	626.56	622.75	623.44	621.44	629.12	627.81	627.88	638.31	643.94	668.62	657.69	647.12
1169.19	1173.62	1174.88	1172.75	1165.12	1157.88	1152.81	1140.94	1143.50	1140.12	1123.25	1113.12	1099.19	1093.38	1091.44	1085.50	1088.56	1087.75	1085.56	1082.81	1079.06	1070.44	1072.69	1082.81	1093.62	1103.44	1110.94	1114.75	1115.56	1113.94	1123.00	1126.19	1112.75	1100.12	1095.25	1094.81	1097.00	1100.69	1096.62	1077.31	1075.38	1073.06	1061.69	1053.75	1041.75	1028.38	1029.12	1034.31	1037.12	1041.50	1065.88	1122.94	1142.25	1152.88	1177.44	1160.75	1136.06	1130.62	1100.25	1099.62	1100.00	1154.38	1122.31	1127.25	1119.94	1128.62	1147.31	1163.06	1138.06	1109.44	1095.62	1086.38	1078.50	1072.19	1066.75	1060.62	1052.12	1048.75	1057.19	1055.12	1038.25	1033.94	1031.56	1022.75	1023.00	1027.75	1020.00	1018.44	1020.50	1025.69	1028.38	1051.94	1111.88	1153.00	1101.62	1101.88	1088.94	1051.62	1044.62	1044.50	1075.75	1070.38	1073.94	1037.81	993.69	974.31	968.31	971.25	982.56	998.31	1012.19	1027.81	1029.88	1018.88	1022.56	1025.31	1018.88	1008.94	1001.19	1002.19	1009.88	1025.44	1038.88	1055.12	1065.88	1066.31	1065.12	1072.25	1073.75	1063.38	1050.50	1039.44	1027.19	1017.81	1012.12	1004.50	986.31	975.81	970.62	969.00	959.38	962.31	992.88	958.06	931.88	909.00	900.19	889.00	883.75	880.44	874.44	868.75	863.50	858.50	854.12	849.19	843.00	836.69	832.69	829.44	823.44	820.81	820.00	813.25	808.88	814.19	803.56	812.62	819.75	837.38	847.56	851.12	840.94	819.75	797.19	783.25	770.69	751.62	730.19	746.25	748.44	733.75	689.25	661.44	655.06	661.38	689.31	711.88	708.38	712.69	725.00	715.12	713.19	711.62	709.88	703.31	699.00	691.19	679.06	673.00	673.06	670.12	666.94	664.19	655.50	643.06	645.88	623.81	610.81	613.56	605.94	612.50	625.62	649.00	644.62	632.50	625.25	604.56	592.31	566.06	555.62	549.94	549.19	555.62	576.62	570.31	588.38	589.69	580.88	587.06	591.31	602.38	588.38	608.44	610.75	608.75	612.19	616.69	618.62	621.31	617.00	620.06	625.06	626.62	628.19	629.62	631.12	632.88	629.38	628.31	643.00	646.12	644.50	648.62	656.81	664.62
1170.62	1174.25	1185.56	1179.31	1171.88	1175.94	1164.12	1161.69	1161.38	1164.50	1131.25	1109.06	1096.50	1095.44	1095.31	1103.00	1105.69	1104.62	1102.50	1100.00	1087.50	1084.81	1091.31	1091.00	1106.69	1122.44	1128.44	1128.50	1122.88	1134.88	1142.00	1142.44	1129.44	1122.00	1105.88	1108.12	1124.94	1125.19	1119.62	1100.12	1093.25	1093.50	1078.06	1067.06	1052.69	1034.00	1032.88	1035.62	1041.50	1052.19	1063.56	1078.50	1114.31	1131.62	1139.38	1133.38	1131.38	1111.44	1089.06	1088.88	1112.38	1148.12	1136.06	1127.06	1115.75	1103.88	1111.88	1120.88	1117.31	1104.00	1094.19	1085.56	1085.19	1083.50	1074.69	1065.19	1056.50	1054.56	1059.06	1053.75	1045.06	1036.56	1032.25	1023.38	1016.88	1013.62	1017.06	1014.69	1009.62	1014.38	1013.56	1018.50	1026.56	1046.69	1064.25	1054.50	1023.81	1024.06	1021.62	1008.81	1003.88	1011.69	1083.75	1026.94	983.25	967.25	962.44	968.38	980.81	993.31	999.75	1008.38	1006.88	1004.69	1009.50	1013.81	1007.12	998.56	992.88	994.62	1004.88	1018.62	1031.44	1047.44	1051.62	1047.50	1049.62	1076.81	1070.75	1064.38	1052.19	1038.50	1031.81	1022.00	1019.38	1044.75	1008.50	984.31	974.81	979.81	956.69	944.75	935.06	924.88	913.56	905.44	897.56	890.31	887.06	882.06	881.56	873.88	866.19	862.31	858.25	855.25	848.88	842.62	838.81	834.25	827.62	826.31	824.19	817.75	813.50	813.06	815.56	819.94	824.75	839.44	838.56	847.56	843.44	825.38	806.44	786.25	781.88	766.75	741.50	727.31	752.62	737.88	696.88	670.88	660.69	677.56	707.88	717.81	729.38	727.12	719.38	718.75	715.62	712.06	710.06	705.44	698.69	695.50	685.25	673.25	671.50	671.88	666.69	660.94	660.31	643.12	639.44	624.50	609.88	606.75	612.06	609.31	621.56	637.31	644.56	632.31	623.62	608.88	595.94	576.44	557.00	552.31	552.06	559.75	568.56	598.69	577.62	588.69	590.50	591.44	595.62	601.62	605.75	595.31	597.69	610.69	614.81	615.94	618.06	632.50	626.56	629.31	627.75	628.56	632.19	628.75	628.81	630.62	631.62	630.19	632.69	642.19	645.94	655.88	676.88	672.81
1165.88	1180.44	1186.69	1182.06	1177.75	1203.19	1177.94	1176.88	1159.38	1143.56	1113.94	1103.75	1102.44	1107.00	1116.31	1128.62	1129.81	1128.31	1118.38	1116.25	1102.69	1097.38	1097.50	1102.00	1110.50	1125.06	1140.50	1137.25	1137.75	1172.50	1184.06	1173.00	1157.12	1151.81	1130.31	1130.56	1142.38	1146.00	1140.38	1118.12	1115.94	1106.44	1094.88	1079.38	1062.81	1046.44	1039.38	1035.38	1044.81	1048.62	1076.81	1077.44	1080.38	1099.75	1123.81	1118.06	1118.88	1091.94	1077.00	1076.25	1107.12	1137.94	1146.56	1132.56	1120.12	1122.19	1109.62	1113.69	1093.88	1109.19	1101.12	1096.31	1098.44	1092.00	1079.75	1074.19	1064.75	1059.38	1067.38	1064.75	1048.06	1035.44	1034.50	1021.44	1012.62	1010.88	1015.31	1030.38	1008.44	1002.69	1002.69	1003.81	1001.25	1011.81	1065.31	1028.94	1007.88	1006.00	1006.44	998.56	990.06	981.75	973.75	970.38	968.75	958.69	956.94	969.81	991.75	989.88	1009.56	1003.56	1006.75	990.50	1001.25	1003.31	998.75	990.44	985.50	986.38	997.38	1011.75	1021.00	1032.38	1039.56	1034.44	1033.69	1053.06	1053.56	1049.19	1048.75	1043.00	1032.31	1015.38	1008.38	1022.88	1049.06	1005.75	971.06	959.50	955.94	941.94	929.69	917.81	908.81	903.69	900.06	895.31	892.12	888.38	884.62	878.56	871.44	868.56	865.12	860.31	853.12	848.94	845.44	838.81	833.62	836.12	835.62	826.19	821.81	815.12	814.06	822.75	825.62	832.94	840.00	851.12	841.88	828.88	815.94	792.38	781.25	774.06	756.38	734.88	757.31	737.56	700.81	682.81	673.12	691.06	716.00	741.12	740.06	729.31	715.06	717.38	716.19	714.38	711.69	707.06	702.12	696.94	689.81	674.06	671.25	670.75	668.19	661.25	660.88	654.50	642.12	639.31	622.62	604.44	600.81	608.12	613.06	626.00	637.69	627.44	620.19	615.88	604.94	585.25	562.88	557.06	555.25	558.50	564.88	585.81	597.62	594.44	589.12	600.19	599.12	603.25	600.81	608.31	603.75	615.38	612.81	618.94	617.94	629.88	625.69	625.19	632.00	637.06	635.00	638.12	637.06	637.00	635.94	636.12	638.62	652.44	659.19	660.44	675.94	675.00
1171.94	1176.94	1158.25	1160.88	1175.00	1207.00	1192.00	1182.19	1151.75	1133.00	1113.75	1110.81	1114.19	1114.75	1130.88	1156.38	1149.25	1145.00	1138.12	1126.62	1111.00	1103.75	1101.25	1114.75	1119.56	1121.50	1143.12	1154.81	1159.06	1177.94	1224.69	1185.00	1188.00	1180.69	1156.94	1156.62	1173.62	1182.38	1171.56	1136.31	1140.19	1130.25	1118.31	1087.62	1067.44	1051.69	1047.81	1045.69	1047.38	1048.38	1065.38	1087.81	1084.38	1100.56	1121.75	1110.88	1101.75	1085.56	1068.94	1069.19	1082.19	1092.25	1090.50	1078.56	1075.25	1079.12	1082.44	1109.06	1108.44	1103.75	1096.69	1094.44	1097.19	1093.06	1086.62	1080.44	1073.62	1066.69	1063.81	1058.00	1045.31	1050.06	1068.75	1039.94	1009.62	1012.94	1015.06	1002.81	1009.44	994.06	992.81	991.50	987.12	986.88	1012.06	995.50	991.81	993.25	995.62	988.81	982.94	975.88	966.94	959.19	954.38	950.44	951.00	969.31	1042.44	994.38	997.81	989.06	987.38	978.75	987.56	997.31	992.44	985.38	979.44	977.69	987.06	999.06	1008.38	1020.00	1025.31	1023.25	1025.56	1031.75	1032.94	1033.38	1040.50	1035.75	1021.50	1013.56	997.25	1008.94	998.56	993.69	970.44	950.81	942.38	938.19	936.69	917.50	912.00	911.38	907.38	901.19	899.00	893.94	889.12	883.81	877.81	876.88	872.69	867.81	863.44	855.44	854.00	845.38	840.44	843.94	844.94	831.25	836.62	824.69	817.62	820.94	822.06	821.94	832.62	847.25	845.38	833.56	816.06	793.81	778.31	775.06	766.50	749.50	753.38	728.75	708.44	694.81	683.56	685.50	729.69	750.38	736.88	734.81	716.00	717.25	716.25	714.88	713.06	709.25	706.62	699.12	694.25	677.38	672.44	670.81	669.69	663.62	663.44	663.00	646.38	641.12	628.81	609.69	593.44	594.38	609.19	617.62	621.75	630.44	611.25	610.00	605.38	593.31	568.25	560.88	559.44	566.06	560.50	594.19	579.69	586.75	606.19	593.06	608.62	617.25	615.12	612.00	629.69	607.94	616.69	610.56	624.19	631.00	635.00	630.12	625.50	639.06	633.81	636.94	641.19	639.50	639.69	639.12	637.50	647.62	661.81	670.56	674.56	689.44
1171.44	1176.12	1157.94	1156.56	1169.19	1198.69	1199.81	1175.06	1144.50	1126.00	1116.50	1117.56	1121.31	1121.44	1134.12	1165.75	1156.75	1146.50	1149.44	1133.06	1122.69	1116.00	1110.31	1118.06	1130.31	1131.31	1153.94	1175.50	1177.62	1190.31	1204.62	1195.62	1208.38	1189.19	1170.62	1175.38	1198.25	1206.50	1195.75	1171.81	1156.88	1145.12	1121.50	1090.75	1072.44	1055.56	1053.00	1054.81	1052.44	1054.44	1064.75	1083.06	1084.56	1098.25	1119.81	1105.94	1088.25	1078.94	1064.88	1066.12	1070.75	1087.50	1074.94	1064.19	1064.44	1070.06	1094.38	1143.19	1126.81	1091.75	1086.25	1084.19	1089.62	1095.56	1090.69	1083.19	1076.56	1072.19	1061.25	1056.50	1054.44	1063.88	1087.56	1052.88	1012.81	1011.19	1023.56	1014.44	1007.19	992.56	989.62	986.50	980.44	980.00	982.81	981.38	984.81	988.38	988.56	982.06	977.88	971.25	963.12	955.62	949.50	946.00	947.19	960.31	1001.56	973.06	978.69	979.12	968.69	972.31	984.12	993.31	988.81	977.75	973.25	972.00	980.50	991.25	1000.44	1010.88	1016.56	1013.00	1012.69	1011.44	1015.50	1022.62	1032.69	1032.50	1020.62	1017.12	997.75	993.31	984.12	975.69	962.75	950.50	941.38	932.94	929.88	920.12	919.31	918.50	912.19	905.62	903.25	898.81	893.62	889.38	884.44	883.69	880.88	873.19	864.94	860.12	862.25	851.88	844.50	846.06	849.69	834.88	836.94	831.12	820.75	820.19	823.56	823.94	819.94	841.44	839.00	835.88	826.00	805.88	784.94	771.62	767.69	757.44	754.56	742.69	718.94	701.38	691.44	700.94	751.88	749.44	738.25	727.88	721.19	715.19	712.50	715.19	713.56	708.62	706.69	701.38	695.75	684.06	672.25	670.50	669.31	666.69	664.12	662.00	649.88	638.81	635.62	617.25	596.62	589.00	602.50	613.31	626.50	632.75	615.44	603.50	601.69	591.81	571.25	563.94	563.81	565.19	561.12	581.88	600.50	592.88	599.94	603.38	597.81	611.12	619.62	610.69	622.94	619.00	624.50	627.56	631.31	646.25	628.19	628.12	630.94	638.81	634.81	637.94	640.19	645.62	644.25	644.31	640.44	650.56	670.44	675.12	685.56	690.12
1166.12	1168.94	1167.38	1167.12	1169.12	1204.19	1199.62	1164.25	1138.88	1128.25	1131.38	1129.19	1132.50	1133.94	1155.19	1170.94	1172.75	1157.31	1162.12	1151.62	1138.75	1125.88	1122.94	1129.69	1141.31	1148.81	1166.81	1196.38	1212.94	1247.50	1238.69	1215.31	1216.62	1205.38	1204.75	1199.56	1234.12	1252.31	1201.62	1229.44	1177.88	1162.75	1127.81	1099.31	1079.88	1070.56	1063.81	1065.12	1062.19	1062.94	1073.69	1104.19	1086.25	1085.88	1092.44	1087.81	1079.81	1066.81	1057.19	1059.81	1059.88	1067.56	1062.81	1051.25	1053.31	1076.69	1118.31	1158.94	1144.25	1097.62	1075.88	1070.88	1076.12	1088.69	1095.12	1082.06	1074.50	1067.12	1060.00	1052.69	1051.00	1058.31	1060.88	1055.12	1017.31	1016.69	1043.31	1045.25	1011.44	990.25	987.56	983.25	978.75	975.50	976.88	970.25	979.38	1013.19	996.38	971.88	968.31	964.94	957.06	951.56	944.38	940.44	941.25	979.62	993.50	954.88	950.75	959.56	959.69	970.69	981.69	989.75	979.38	968.62	963.75	965.00	972.62	982.75	989.12	1001.19	1006.31	999.19	1004.12	999.62	1006.19	1011.94	1017.56	1026.88	1028.12	1017.75	1020.94	1033.81	994.38	969.31	957.62	948.06	938.38	933.81	930.94	931.19	929.19	921.88	918.56	913.62	909.25	908.81	903.75	895.56	895.06	894.38	887.50	877.88	869.88	868.94	870.38	856.44	851.25	851.81	849.50	840.75	837.81	833.19	834.56	830.19	826.75	819.19	811.69	831.19	842.38	836.25	825.44	817.12	797.75	784.25	770.75	757.00	757.44	765.88	731.50	712.69	706.19	722.06	738.69	735.81	729.19	719.00	719.56	707.69	708.81	705.38	709.50	707.25	706.44	703.12	696.69	689.19	673.88	668.88	667.69	666.00	661.38	660.12	655.62	641.25	643.06	623.50	606.06	591.25	589.31	602.69	616.00	627.06	620.69	597.06	596.88	588.06	571.12	567.69	571.06	564.44	561.50	573.94	596.50	606.81	602.31	605.75	611.56	611.75	619.56	609.88	616.56	622.62	625.50	630.38	635.50	620.31	632.56	638.38	634.25	636.69	641.19	638.94	641.38	647.88	643.50	644.00	643.12	652.50	677.00	675.25	671.81	675.31
1165.12	1167.06	1168.31	1166.62	1175.00	1203.62	1203.81	1166.62	1147.62	1144.12	1153.06	1149.94	1144.44	1150.38	1164.00	1171.12	1179.06	1168.62	1174.44	1168.25	1159.56	1134.75	1138.44	1139.75	1150.50	1161.62	1175.00	1198.69	1234.69	1281.19	1262.62	1309.69	1261.88	1244.50	1276.62	1218.12	1243.50	1241.12	1194.31	1204.56	1176.56	1159.12	1114.88	1087.62	1081.06	1081.50	1077.56	1075.00	1071.94	1067.69	1085.19	1090.94	1077.75	1071.94	1074.25	1069.44	1070.81	1060.88	1050.31	1049.81	1053.19	1051.62	1044.56	1040.75	1051.50	1075.75	1105.75	1136.50	1142.50	1101.81	1080.69	1063.31	1065.25	1077.62	1078.06	1069.06	1066.81	1068.69	1059.19	1052.31	1041.44	1034.88	1037.12	1042.25	1028.50	1013.94	1024.81	1019.31	998.31	985.94	984.75	980.50	976.62	973.94	969.81	968.12	963.88	976.44	996.38	962.88	958.75	955.69	951.38	951.69	939.88	935.00	935.38	1015.50	1052.00	937.88	938.12	946.31	953.94	972.12	982.75	981.75	972.19	963.06	955.44	958.25	973.44	1020.69	988.88	996.94	995.25	989.81	991.50	990.38	994.31	1000.31	1004.81	1015.19	1028.75	1028.50	1050.50	1133.25	1015.06	975.62	952.44	944.56	939.31	942.12	941.38	939.00	934.12	930.56	925.06	921.62	918.06	916.62	916.00	906.81	903.81	900.19	891.94	883.44	876.19	875.81	869.00	860.81	862.06	855.88	849.88	847.75	840.75	833.81	839.75	839.81	826.06	807.88	813.69	823.56	846.19	836.25	821.81	816.88	804.62	787.12	784.69	772.06	765.50	762.06	743.56	728.75	719.31	723.62	716.12	715.19	716.81	715.50	714.69	703.69	694.94	681.25	698.75	704.12	705.31	704.25	696.25	690.44	679.56	668.69	665.25	664.62	661.75	658.19	657.81	647.81	635.12	622.56	612.75	593.19	583.31	591.69	605.25	615.50	599.50	593.38	581.06	576.88	569.94	572.81	571.81	569.12	563.88	571.44	598.81	595.06	611.31	613.31	606.81	620.06	614.25	626.81	618.69	631.06	624.62	629.38	635.06	635.94	630.81	636.88	644.56	636.38	638.25	640.81	647.81	645.94	651.62	645.00	648.44	651.88	674.38	675.81	672.31	667.31
1170.12	1174.31	1178.50	1181.56	1185.75	1194.69	1203.06	1169.44	1155.44	1144.88	1155.00	1165.00	1159.62	1175.06	1185.62	1184.25	1192.19	1194.19	1190.56	1184.38	1165.94	1150.25	1147.81	1159.38	1164.69	1172.69	1177.44	1192.44	1222.44	1243.56	1228.81	1243.00	1235.62	1235.50	1242.94	1213.25	1203.06	1194.06	1189.75	1204.94	1175.12	1135.88	1103.25	1089.31	1090.88	1099.12	1099.31	1087.00	1079.69	1073.56	1069.06	1065.75	1066.38	1064.44	1064.00	1058.38	1061.62	1058.12	1042.88	1042.88	1043.56	1038.25	1031.56	1033.88	1054.69	1073.06	1111.00	1131.81	1118.38	1075.38	1051.62	1058.50	1090.62	1083.56	1061.88	1055.69	1062.00	1059.19	1050.56	1045.25	1042.81	1030.12	1029.19	1028.06	1034.38	1013.75	1006.25	1001.56	991.06	988.25	989.25	985.81	977.75	973.12	970.06	977.81	970.81	970.62	958.75	953.56	949.88	946.81	945.06	958.00	939.38	930.44	929.06	929.56	936.81	926.62	930.88	937.75	951.56	969.44	973.62	971.31	964.00	954.81	948.56	949.94	965.38	982.25	988.50	987.62	984.12	978.44	981.56	980.00	984.75	991.62	1005.19	1023.00	1031.50	1045.38	1104.81	1054.69	990.19	974.19	953.62	947.62	950.00	949.44	949.62	946.81	944.19	937.62	933.06	930.81	932.19	927.88	925.00	917.44	914.19	905.50	894.62	888.88	883.00	882.50	870.69	868.06	870.44	861.62	858.69	855.56	850.38	841.31	841.44	833.56	826.06	806.62	813.44	812.19	831.50	834.44	823.19	816.00	811.94	793.44	788.81	792.81	775.00	748.62	727.25	732.50	730.56	724.31	718.75	710.62	708.38	708.06	686.25	671.19	681.06	677.88	682.25	695.06	701.06	702.69	693.12	683.94	685.00	671.62	665.19	663.00	661.56	658.69	649.06	651.94	638.69	623.69	603.88	594.50	584.31	583.00	594.56	605.94	614.12	590.62	577.94	577.25	585.38	575.12	573.31	572.94	567.62	564.56	588.69	610.88	598.56	616.38	613.81	614.06	623.56	625.62	632.19	623.06	627.00	632.62	636.25	627.62	633.69	629.38	635.81	648.44	643.06	641.94	647.75	652.88	654.81	653.19	650.81	649.44	666.81	675.06	676.50	673.31
1183.94	1189.12	1186.81	1193.25	1201.00	1209.69	1206.25	1173.19	1158.25	1153.88	1168.44	1189.31	1179.50	1195.12	1222.12	1206.62	1214.56	1214.25	1205.88	1204.75	1188.62	1180.25	1166.75	1171.69	1181.19	1187.31	1193.56	1200.19	1207.44	1215.19	1217.12	1229.56	1269.69	1262.44	1230.38	1207.06	1188.62	1184.50	1182.44	1187.75	1183.12	1141.44	1112.69	1095.00	1101.25	1123.31	1127.88	1106.19	1088.12	1080.75	1069.88	1060.69	1051.25	1050.75	1046.44	1048.31	1062.00	1052.12	1038.00	1033.56	1029.12	1034.44	1026.25	1035.50	1078.12	1086.31	1122.75	1082.62	1058.44	1047.88	1038.62	1054.38	1069.19	1067.88	1049.75	1046.62	1060.50	1059.75	1049.06	1041.00	1034.88	1027.75	1051.69	1038.88	1012.69	1028.94	1010.12	994.31	992.75	995.75	998.94	992.81	983.94	977.06	972.00	974.88	987.56	1073.12	997.25	962.00	947.06	943.56	940.56	939.25	935.88	948.44	934.81	935.94	925.56	918.50	922.94	928.62	943.81	959.19	958.06	966.38	956.25	946.06	940.88	946.12	960.44	977.50	978.75	988.25	977.12	968.06	968.38	972.44	981.44	992.56	1000.50	1013.19	1025.88	1133.31	1123.56	1007.25	989.19	996.56	955.56	958.31	962.75	961.50	961.12	956.75	952.00	945.56	941.75	941.25	941.25	939.44	938.81	932.38	918.00	909.50	903.75	897.38	890.19	887.00	878.31	872.75	874.62	873.12	869.88	860.50	851.00	845.94	846.69	833.00	821.75	816.56	819.75	817.19	831.00	841.50	831.50	821.75	806.25	786.06	782.56	782.50	771.25	754.25	739.56	728.00	736.81	726.00	716.12	701.19	697.88	672.75	669.50	653.81	660.44	699.62	695.94	674.00	685.31	694.25	691.00	670.31	676.31	677.50	666.25	662.31	660.12	658.06	632.19	650.25	641.00	630.31	614.94	600.19	583.38	578.88	583.88	603.25	599.44	611.50	592.06	589.75	588.25	578.31	575.81	572.69	569.88	569.88	581.00	599.69	612.31	609.75	613.88	622.38	623.56	630.50	626.94	628.25	645.31	628.19	634.88	645.19	654.38	651.44	649.75	641.62	643.12	639.12	648.06	655.06	656.94	656.56	655.56	653.19	654.25	675.69	674.19	677.00
1200.00	1204.06	1199.56	1200.38	1211.06	1226.06	1220.00	1191.81	1176.94	1165.06	1165.94	1194.81	1190.94	1199.00	1226.19	1221.88	1231.25	1223.88	1216.81	1216.06	1203.44	1202.56	1191.75	1189.38	1194.69	1199.12	1213.38	1211.38	1221.94	1223.38	1233.94	1240.75	1257.75	1267.62	1228.56	1208.94	1189.31	1186.06	1186.88	1203.25	1217.12	1169.56	1128.88	1113.25	1120.94	1144.81	1155.62	1123.06	1103.12	1084.00	1072.25	1062.31	1052.50	1041.88	1036.50	1041.75	1053.25	1053.25	1039.50	1026.81	1023.19	1038.50	1022.56	1038.12	1095.19	1109.69	1098.44	1051.88	1033.88	1027.19	1033.69	1072.19	1071.12	1046.94	1034.00	1042.56	1057.06	1050.94	1042.00	1034.44	1029.94	1024.38	1026.44	1027.88	1010.44	1004.19	999.19	997.62	1001.88	1004.06	1005.62	997.62	986.31	981.31	979.50	980.12	985.75	1024.75	1022.31	972.94	952.44	950.62	959.94	969.75	947.56	939.38	930.81	941.56	943.00	915.94	914.50	918.38	928.75	938.00	948.88	950.75	947.50	939.19	933.56	941.00	959.00	998.62	992.38	983.56	973.50	960.94	961.81	970.44	979.69	989.06	998.44	1010.31	1036.06	1171.56	1025.69	997.25	1005.62	1004.81	964.00	966.25	972.69	974.94	971.56	965.06	957.69	951.31	949.25	951.50	952.75	949.75	953.69	938.00	925.69	919.06	911.88	904.00	896.12	891.94	888.69	880.25	879.94	877.75	870.19	862.25	848.81	839.31	837.12	825.88	816.25	814.88	824.44	823.62	832.44	814.06	797.00	780.50	771.56	762.06	764.75	774.88	767.94	759.25	745.50	727.06	713.62	719.94	711.56	701.25	691.12	661.00	651.62	652.38	646.88	671.06	683.81	664.31	666.31	691.75	687.62	678.75	674.88	679.62	669.25	661.00	657.12	646.25	618.81	617.12	642.94	634.31	629.75	603.81	585.44	578.75	580.62	597.94	622.75	607.19	614.69	609.69	592.56	581.12	579.31	572.88	577.06	573.19	578.88	599.62	608.38	618.62	618.00	617.12	633.50	632.75	631.25	645.06	631.50	639.56	643.12	643.12	634.12	643.62	653.12	638.94	641.44	638.94	651.06	657.75	660.69	662.50	657.25	658.44	653.94	661.19	677.62	677.75
1215.81	1221.56	1205.81	1216.00	1221.06	1235.62	1225.06	1204.50	1199.62	1178.62	1170.19	1184.62	1199.88	1206.25	1208.62	1231.00	1238.38	1243.69	1233.75	1228.12	1223.44	1224.50	1221.81	1213.06	1212.94	1222.25	1228.69	1240.00	1246.94	1240.69	1256.06	1268.69	1293.81	1305.38	1269.50	1229.50	1209.69	1197.25	1194.00	1219.75	1221.81	1180.00	1151.25	1131.62	1140.06	1168.19	1181.25	1139.44	1109.38	1083.38	1071.81	1060.75	1050.00	1039.19	1033.06	1030.62	1035.69	1035.75	1031.56	1021.69	1018.62	1022.75	1018.19	1033.75	1093.88	1140.44	1095.19	1048.62	1022.38	1020.19	1029.62	1048.31	1046.81	1028.19	1026.38	1038.44	1053.19	1050.50	1044.75	1042.44	1038.06	1028.44	1022.69	1016.88	1007.75	1003.62	1002.94	1009.25	1011.44	1012.44	1008.12	998.19	991.00	988.81	989.00	986.00	980.81	986.44	986.88	965.75	955.81	974.69	1009.00	1013.19	964.12	936.50	926.50	922.00	920.31	913.12	909.88	910.81	919.88	929.62	934.62	936.19	942.75	946.94	926.50	932.31	951.56	965.75	972.56	968.50	959.19	953.12	960.44	970.88	982.06	997.31	1005.38	1015.50	1031.06	1056.50	1027.44	995.25	1003.50	1005.88	970.19	972.50	981.75	987.69	980.88	971.50	967.50	960.75	958.25	960.06	965.62	961.56	961.12	949.50	937.00	930.94	918.31	907.75	900.31	894.69	889.19	883.19	877.25	872.00	864.81	859.00	851.12	837.06	832.38	826.75	814.81	810.38	819.38	809.62	799.62	787.81	778.94	769.31	758.31	760.38	766.81	779.94	771.62	756.31	743.75	732.38	724.25	715.81	719.62	714.19	705.75	680.75	659.69	654.31	655.62	667.38	685.81	680.94	686.75	690.38	683.31	677.50	674.94	672.62	673.75	661.88	652.38	646.56	635.00	601.31	635.62	633.25	631.62	613.19	591.50	581.81	581.75	599.31	610.50	621.00	610.81	607.69	591.12	585.50	591.00	575.75	576.19	581.75	578.00	585.62	614.00	612.88	618.50	627.12	621.25	634.06	648.00	630.69	627.81	639.06	647.25	642.31	648.06	633.44	646.50	643.75	630.38	647.69	655.62	655.75	663.38	661.50	660.19	663.06	661.44	661.94	673.19	678.25
1203.94	1204.81	1199.62	1206.44	1221.50	1242.00	1240.62	1231.81	1209.38	1175.69	1175.69	1193.31	1207.88	1220.88	1217.94	1228.44	1244.31	1265.00	1253.06	1245.94	1251.62	1251.56	1250.12	1238.06	1238.94	1258.44	1266.44	1286.62	1307.31	1283.56	1279.00	1291.94	1303.44	1332.81	1285.12	1255.75	1235.69	1215.94	1226.38	1232.69	1179.50	1171.00	1154.56	1133.69	1145.00	1188.12	1174.25	1139.56	1110.69	1089.25	1078.94	1060.88	1045.00	1035.00	1028.19	1021.81	1018.25	1018.50	1019.12	1018.81	1012.56	1014.44	1006.88	1017.94	1063.19	1080.56	1039.19	1021.12	1014.50	1023.62	1027.62	1027.94	1025.88	1016.94	1025.31	1038.31	1065.25	1043.00	1044.44	1051.44	1044.19	1030.69	1024.06	1015.88	1013.19	1017.06	1012.38	1017.19	1023.88	1018.81	1008.94	1003.25	1000.44	1004.81	999.12	990.38	985.06	991.69	1025.44	990.19	966.31	970.56	975.38	992.00	965.12	934.50	927.25	919.12	912.44	908.81	907.06	906.50	909.44	916.38	919.81	927.56	924.25	919.00	919.81	924.56	934.31	942.75	950.19	948.38	943.50	949.50	960.81	970.06	982.88	996.69	1012.69	1014.75	1006.38	1013.44	990.50	993.25	1007.19	1005.69	977.44	980.94	991.06	997.69	987.75	985.25	978.81	971.62	968.25	971.19	975.62	979.44	969.06	956.31	937.62	928.69	916.25	905.38	895.62	886.44	879.75	872.44	865.25	860.12	855.62	848.38	847.19	834.31	824.12	816.56	807.44	800.00	803.94	798.31	790.38	783.06	774.94	767.06	760.00	759.44	751.69	761.00	766.75	757.56	741.94	730.62	730.75	721.75	722.50	725.12	698.44	675.44	671.75	660.75	663.75	680.00	690.38	688.31	684.19	684.00	678.38	676.19	674.56	665.88	674.06	663.50	652.19	645.19	637.00	611.62	611.75	632.00	623.31	614.88	592.62	584.06	588.25	600.12	602.00	609.38	618.62	598.44	591.12	598.94	600.62	588.19	573.12	579.75	575.38	576.69	608.75	612.12	626.25	623.62	624.88	632.25	654.06	637.19	632.19	638.00	642.06	654.88	645.81	650.62	655.56	650.94	640.50	657.38	662.19	660.12	655.56	657.62	660.25	661.75	663.50	659.88	667.06	677.62
1176.75	1184.31	1188.62	1193.56	1196.50	1218.44	1221.94	1232.94	1192.00	1163.12	1169.31	1200.81	1221.25	1232.88	1236.50	1236.38	1247.44	1267.75	1275.88	1260.56	1266.38	1267.31	1269.12	1253.06	1263.31	1287.50	1290.38	1303.19	1342.81	1309.19	1293.81	1311.38	1319.25	1383.56	1322.19	1308.62	1274.62	1254.12	1219.38	1197.69	1173.81	1159.12	1145.44	1135.94	1138.06	1175.38	1153.19	1128.81	1105.69	1085.50	1068.62	1059.25	1041.69	1033.94	1027.12	1020.75	1014.94	1011.31	1010.50	1007.38	1007.31	1005.94	1002.38	1007.00	1038.38	1048.38	1011.88	1005.44	1013.94	1022.50	1023.38	1016.25	1013.25	1013.88	1022.56	1035.19	1067.38	1037.06	1036.00	1047.25	1044.75	1030.38	1022.00	1019.44	1023.62	1025.00	1020.25	1020.44	1029.88	1023.38	1014.44	1017.06	1009.69	1006.00	1002.56	992.44	992.69	1011.81	1028.50	1052.31	984.44	979.31	963.69	954.75	945.31	936.06	928.62	920.62	913.75	912.00	905.50	903.69	903.12	906.75	909.81	917.31	915.19	912.75	914.75	919.12	924.00	930.69	935.69	935.62	937.56	949.38	962.75	974.12	987.75	997.81	1009.88	1012.19	1013.38	1029.56	990.44	990.94	1013.31	989.81	987.00	986.62	996.88	1006.38	996.06	990.19	987.12	982.44	977.75	981.56	985.25	991.56	968.25	953.81	936.25	925.50	912.62	902.81	893.25	882.62	875.44	869.06	856.88	851.31	846.38	840.75	840.69	833.56	824.88	814.75	807.56	799.44	792.81	788.25	785.50	778.75	773.38	766.25	761.81	756.50	753.69	751.19	757.06	752.50	738.44	727.19	721.69	717.12	708.44	707.56	691.38	683.88	677.50	667.44	668.56	683.00	678.19	680.81	683.75	680.94	682.38	675.19	673.56	666.50	673.38	667.75	653.00	644.69	640.62	621.69	600.00	628.00	615.19	610.56	591.88	587.06	595.56	600.25	605.00	613.69	610.81	601.44	602.25	610.44	611.50	601.62	579.56	577.69	575.00	575.94	602.38	610.31	621.25	631.50	629.31	635.38	639.06	647.25	651.00	635.62	652.06	650.00	649.81	657.94	654.25	649.00	631.44	661.19	669.75	666.88	657.31	651.62	653.31	662.44	664.19	666.94	667.81	675.19
1174.06	1183.94	1189.56	1192.31	1190.50	1191.44	1195.00	1193.06	1180.50	1169.88	1171.19	1193.69	1216.38	1254.56	1271.69	1257.81	1260.56	1281.62	1287.00	1281.19	1284.12	1301.19	1296.50	1277.31	1286.19	1289.06	1291.75	1313.94	1337.12	1329.38	1312.00	1317.31	1342.19	1339.12	1348.69	1339.12	1294.38	1306.69	1258.94	1208.50	1176.94	1159.75	1157.81	1148.19	1136.06	1130.19	1122.06	1102.94	1092.62	1077.94	1062.69	1054.81	1043.25	1038.12	1031.44	1024.88	1018.81	1019.50	1007.31	1002.75	1001.12	1000.19	997.94	995.94	997.94	997.88	998.38	1002.75	1017.00	1027.69	1020.56	1006.69	1003.75	1012.25	1017.94	1025.00	1035.88	1035.06	1031.56	1040.38	1043.62	1044.31	1032.19	1028.94	1039.31	1033.62	1029.50	1026.50	1035.38	1029.19	1027.38	1028.56	1019.38	1014.50	1006.56	1000.31	996.06	1011.50	1033.75	1018.12	1031.69	993.06	988.44	990.88	970.38	941.38	931.06	923.62	921.50	917.62	907.62	900.81	898.62	898.25	902.50	905.44	905.19	906.75	909.12	910.88	913.06	918.31	923.50	928.69	940.38	953.75	959.25	967.94	978.12	984.69	995.44	1000.12	1044.25	998.25	994.44	1000.44	1001.81	998.31	1004.88	998.44	1001.81	1014.81	1007.00	999.69	1002.00	998.12	989.31	995.19	999.50	985.88	970.12	952.69	951.31	937.94	911.88	903.12	894.50	891.38	876.88	866.50	866.94	849.38	838.56	833.50	829.50	824.38	818.06	813.50	805.38	801.12	792.94	787.44	783.12	777.06	772.25	766.88	762.81	758.56	752.38	747.31	745.31	743.12	735.19	729.88	723.62	717.38	712.00	705.62	699.88	696.81	691.25	682.00	679.06	678.56	667.44	674.81	690.44	687.00	682.94	677.00	674.38	663.56	659.50	669.56	657.06	645.81	639.75	628.75	606.00	607.94	620.62	607.06	594.75	587.88	599.56	599.69	607.56	612.19	604.44	597.81	612.38	616.62	623.19	618.12	595.50	582.25	577.44	578.69	593.12	610.81	615.81	628.38	630.12	639.25	640.12	641.19	645.06	645.56	641.75	641.25	651.25	643.06	649.50	662.38	627.75	651.44	677.94	672.25	665.38	657.38	650.88	653.19	662.00	667.75	670.75	673.25
1163.62	1184.38	1197.31	1199.06	1196.44	1193.25	1188.44	1182.56	1175.19	1172.50	1176.88	1181.19	1188.69	1239.25	1284.75	1278.38	1281.31	1305.19	1298.88	1299.88	1305.88	1336.88	1325.00	1311.19	1305.38	1297.06	1312.31	1332.19	1339.44	1330.88	1317.62	1320.19	1348.38	1352.31	1358.06	1349.00	1309.12	1291.31	1252.44	1206.94	1185.38	1182.69	1173.50	1164.50	1142.56	1127.94	1113.50	1095.75	1085.31	1073.94	1066.19	1055.12	1042.25	1041.44	1036.81	1025.56	1023.62	1030.31	1014.50	1009.94	996.44	995.44	993.69	991.31	988.88	992.44	993.69	1001.38	1033.19	1043.00	1022.88	999.81	1000.31	1009.75	1012.62	1024.31	1015.12	1021.56	1034.69	1040.19	1045.00	1050.00	1047.69	1038.75	1046.94	1037.69	1024.25	1023.25	1030.69	1026.44	1029.62	1044.75	1037.12	1021.75	1009.81	1005.06	991.19	987.12	991.56	987.56	1025.56	1059.31	1029.06	1022.69	1004.75	944.00	930.19	924.06	919.06	919.25	913.62	908.31	900.19	895.81	900.25	896.94	899.62	908.25	921.69	908.94	907.75	913.25	919.31	929.44	943.69	957.44	956.31	958.38	963.06	971.44	980.19	990.81	1002.00	980.50	964.31	973.62	986.38	1004.38	1016.38	1010.00	1011.88	1021.38	1018.25	1012.31	1016.50	1021.19	1018.19	1022.88	1026.38	1010.19	984.38	971.94	976.56	964.06	924.38	923.94	923.25	914.25	876.81	862.94	852.62	845.00	837.06	830.88	824.12	817.88	812.56	807.94	804.06	800.56	794.38	790.44	785.38	782.31	774.25	765.62	761.44	765.06	751.56	758.62	762.50	763.88	757.19	733.62	725.94	718.56	710.69	707.06	701.56	697.06	692.56	687.00	681.94	677.19	674.19	681.62	682.38	676.81	675.75	661.75	656.50	650.38	641.81	657.75	657.88	647.31	635.88	630.44	608.88	600.81	607.62	600.25	594.38	598.12	606.75	607.69	608.88	599.38	599.06	602.56	616.31	624.56	631.44	629.31	603.75	586.50	583.00	580.94	584.25	601.62	619.44	620.81	631.06	630.62	639.50	646.69	646.62	653.25	651.81	645.81	653.69	645.38	657.25	654.50	634.50	626.06	682.88	682.38	674.56	665.50	659.19	651.50	652.75	661.06	665.69	670.19
1159.19	1180.81	1206.50	1209.75	1209.38	1211.69	1207.50	1198.44	1189.75	1187.12	1187.38	1189.69	1195.31	1207.88	1264.94	1299.56	1286.94	1291.75	1303.81	1312.19	1322.44	1349.81	1357.25	1341.31	1307.44	1296.81	1326.94	1358.88	1342.94	1331.88	1322.62	1329.56	1368.31	1365.19	1366.94	1348.75	1318.25	1285.12	1257.69	1197.50	1193.88	1208.19	1184.12	1189.06	1153.00	1126.62	1109.94	1097.81	1086.75	1075.75	1064.62	1054.44	1045.12	1055.62	1052.00	1034.31	1036.38	1030.00	1031.06	1020.81	994.81	1003.06	995.25	987.56	984.88	984.12	990.94	1007.06	1028.19	1024.81	1017.00	994.25	1000.44	1005.56	1006.00	1015.75	1009.75	1031.12	1034.62	1039.62	1045.06	1042.19	1036.12	1038.75	1051.38	1051.75	1033.19	1022.88	1044.12	1017.81	1012.81	1034.94	1058.12	1032.44	996.31	994.75	992.12	1006.19	1020.69	982.06	998.81	1093.69	1063.69	973.44	964.44	937.56	926.31	920.44	919.56	913.88	916.12	914.56	906.56	892.94	891.88	890.81	898.75	914.62	920.44	914.69	904.69	913.25	921.94	930.06	944.56	948.38	939.31	950.56	957.56	960.88	984.12	993.50	961.38	948.69	961.50	966.75	987.75	1009.12	1024.31	1019.88	1022.25	1029.56	1029.75	1024.12	1039.94	1044.50	1056.62	1039.88	1048.50	1027.56	988.25	974.06	968.88	958.56	934.44	948.31	947.31	911.75	880.19	868.31	861.19	850.81	837.81	831.25	823.75	817.69	814.31	814.81	811.75	804.75	799.44	798.06	789.88	789.06	779.06	769.12	767.88	760.62	758.56	765.19	760.38	759.75	752.31	748.62	720.81	718.62	708.81	705.56	699.25	695.12	691.75	686.06	681.50	677.19	673.31	671.19	668.06	656.50	664.06	644.19	644.38	639.06	633.44	639.00	653.69	646.06	639.50	629.56	615.38	601.56	603.25	604.62	592.94	598.31	613.00	610.06	608.69	598.75	598.75	599.88	611.06	635.88	639.94	640.44	622.00	593.81	589.75	583.81	583.81	593.94	611.62	615.06	636.31	635.94	637.00	644.81	656.06	629.19	658.44	656.12	657.62	650.94	663.06	654.00	652.00	610.69	666.88	688.94	682.44	673.25	664.94	657.44	653.69	654.50	660.75	667.44
1175.69	1146.31	1182.12	1206.06	1198.25	1213.06	1225.38	1216.25	1198.62	1199.94	1195.31	1197.69	1207.25	1217.31	1234.44	1301.81	1320.56	1320.56	1322.88	1330.31	1337.31	1386.81	1467.56	1378.19	1310.19	1297.88	1303.38	1325.62	1349.00	1358.19	1379.00	1341.94	1366.12	1366.38	1375.44	1384.44	1316.12	1265.50	1230.69	1208.19	1190.44	1191.12	1172.81	1160.19	1144.12	1127.12	1111.50	1093.19	1080.75	1074.75	1064.94	1056.25	1054.69	1073.38	1069.56	1046.81	1044.25	1038.25	1049.44	1017.81	997.38	993.25	995.81	988.12	980.88	979.31	982.50	998.44	1006.31	1015.12	993.50	992.06	1000.50	1001.44	1001.19	1011.38	1009.44	1028.31	1024.88	1020.50	1028.81	1028.44	1025.44	1036.88	1045.94	1058.25	1075.06	1031.88	1037.75	1029.12	1008.19	1012.44	1015.50	1014.50	987.94	980.19	993.94	1057.94	1037.06	967.81	959.25	978.62	1047.88	976.50	942.94	930.12	919.69	912.06	908.50	908.62	908.38	905.06	907.19	908.00	884.44	887.12	892.62	895.69	897.62	897.12	903.94	913.81	923.44	931.31	940.19	938.31	927.81	932.75	943.56	966.38	1002.62	947.50	940.75	964.50	983.12	966.50	990.75	1009.81	1006.31	1004.88	1011.94	1014.50	1024.56	1022.00	1024.25	1056.25	1054.00	1048.25	1059.69	1017.31	1004.12	997.94	1000.44	962.12	953.75	944.25	941.50	908.12	894.69	878.50	873.56	859.62	844.19	834.31	825.69	821.44	819.81	822.31	817.44	809.56	806.56	805.19	806.50	797.94	785.75	778.44	767.50	754.31	766.19	764.81	753.62	757.38	745.06	733.06	720.25	716.31	710.44	706.19	700.50	694.88	690.81	683.81	681.62	677.31	673.69	670.75	663.38	659.31	665.75	634.31	635.25	635.75	637.69	641.56	644.81	646.38	640.94	628.06	625.31	608.44	607.25	623.69	601.81	604.94	617.56	612.31	599.75	594.69	596.44	602.88	607.12	626.56	650.31	650.62	636.50	603.44	602.81	589.69	586.88	588.38	606.50	612.75	631.38	626.31	649.25	648.69	644.81	650.75	655.62	647.56	660.38	652.69	659.25	650.38	657.19	608.12	639.06	687.88	689.69	681.31	672.81	665.06	657.69	657.75	658.19	660.69
1124.69	1164.81	1170.81	1169.75	1182.06	1190.88	1207.19	1193.81	1173.62	1189.56	1204.44	1202.44	1204.25	1228.00	1253.25	1317.38	1344.44	1343.88	1339.25	1339.94	1346.25	1369.12	1403.62	1352.81	1310.31	1312.00	1319.75	1343.06	1355.69	1353.38	1386.75	1372.81	1340.00	1347.62	1346.38	1330.19	1301.56	1273.62	1223.69	1205.00	1195.38	1193.56	1168.56	1156.25	1141.38	1124.38	1106.00	1089.94	1083.50	1076.38	1068.56	1062.38	1060.62	1080.69	1064.31	1050.56	1051.69	1067.00	1063.88	1021.44	1002.94	989.88	990.19	984.75	977.12	975.50	974.50	978.06	981.06	980.94	988.19	1005.44	1009.50	1010.38	1011.44	1020.50	998.06	1020.00	1007.25	1009.06	1015.38	1013.38	1020.94	1040.75	1052.75	1034.50	1046.06	1041.94	1033.50	1012.31	998.25	1008.50	998.19	983.19	977.75	982.12	980.00	1002.38	969.69	947.31	936.81	936.88	935.25	938.19	930.56	923.00	913.69	905.50	901.12	904.88	906.31	905.88	920.31	895.50	882.12	881.06	882.81	884.81	889.00	893.81	903.06	914.62	924.06	930.88	930.12	922.81	918.12	932.44	961.44	958.06	952.06	925.94	943.25	1018.94	986.94	970.94	986.06	1001.94	993.44	989.31	994.50	1004.56	1029.25	998.00	1007.94	996.88	996.94	997.62	1007.56	1022.56	1007.88	1030.25	1002.88	974.88	964.25	966.50	950.12	923.06	907.00	891.88	884.62	863.94	854.56	845.75	832.88	830.19	827.94	824.31	827.06	818.56	813.75	809.06	812.81	804.56	790.12	780.25	771.69	757.75	757.00	759.19	740.88	744.88	739.94	722.25	721.44	727.38	704.94	703.25	700.06	694.50	689.50	685.25	681.62	674.19	673.75	669.31	660.06	657.75	660.50	649.38	641.19	641.81	638.81	641.00	643.31	640.75	632.56	626.38	622.62	605.38	601.50	609.56	621.00	617.62	613.56	603.00	595.12	597.12	594.62	598.00	623.81	624.50	654.50	659.12	644.88	617.50	608.12	602.38	591.62	591.25	595.50	616.56	628.62	623.69	639.38	652.44	661.12	642.75	650.38	654.62	665.19	654.88	659.56	647.19	653.56	612.31	622.81	688.50	695.31	688.88	682.00	671.00	663.06	661.62	661.31	660.94
1105.94	1159.94	1160.81	1144.81	1172.81	1200.06	1193.12	1176.12	1156.69	1169.69	1194.81	1196.31	1183.12	1215.75	1255.62	1306.56	1353.12	1365.75	1354.00	1350.25	1361.62	1352.31	1345.62	1334.00	1328.38	1329.19	1345.94	1382.94	1388.00	1358.69	1339.81	1332.94	1325.62	1329.19	1319.00	1303.12	1285.56	1276.88	1245.38	1207.62	1199.00	1192.88	1168.38	1152.94	1131.94	1113.44	1097.19	1078.81	1072.56	1068.75	1059.50	1058.94	1055.69	1057.50	1054.25	1040.12	1044.50	1069.06	1055.12	1024.88	1001.88	990.06	980.62	977.75	974.75	972.00	971.06	969.75	978.75	991.00	997.19	1000.38	997.94	1020.56	1010.62	1019.56	1005.56	999.31	1000.25	997.69	1000.69	1013.19	1038.44	1029.75	1038.62	1033.56	1039.12	1086.06	1035.19	993.50	1004.19	1022.62	1001.12	970.56	985.56	1035.69	979.25	974.69	951.69	936.56	926.56	921.44	916.44	917.75	919.19	913.06	907.00	896.50	892.38	893.31	900.12	901.56	890.62	881.81	879.19	877.06	877.00	880.69	886.81	894.75	906.31	916.88	922.81	923.38	919.62	913.38	912.19	941.38	964.56	915.50	911.62	925.88	965.06	1022.44	1000.88	974.69	966.56	970.69	976.69	979.50	983.19	983.69	983.75	988.88	1011.19	983.38	970.94	966.00	957.69	985.38	999.19	1002.69	1004.25	978.50	969.50	967.19	969.56	932.88	922.88	909.25	894.88	879.44	870.56	855.38	842.38	837.44	833.00	827.62	829.44	825.81	820.12	817.75	811.12	800.50	798.38	786.06	774.44	762.38	754.19	750.12	744.19	742.44	732.44	722.75	718.81	730.56	706.38	697.44	696.94	693.00	688.56	683.81	680.75	676.12	675.94	660.56	657.88	657.06	654.62	650.31	643.06	640.44	638.88	642.69	647.31	641.50	632.25	617.94	609.69	603.31	602.75	604.81	622.31	621.06	612.75	603.56	596.38	594.50	592.12	593.00	611.44	627.00	641.00	665.00	659.69	633.06	615.56	616.44	597.06	595.00	597.12	607.62	618.00	634.44	630.12	646.56	644.88	661.81	651.38	657.88	657.00	662.06	657.50	660.56	656.62	637.19	615.31	654.44	679.88	692.31	690.44	677.50	669.38	665.56	665.06	664.31
1063.31	1122.19	1116.19	1156.38	1172.12	1181.12	1187.31	1184.56	1145.06	1165.19	1179.62	1201.75	1176.75	1204.44	1277.31	1325.12	1332.69	1368.56	1376.88	1367.38	1371.00	1366.31	1353.50	1337.56	1353.00	1351.25	1361.31	1400.31	1431.19	1386.94	1361.94	1344.94	1324.81	1311.69	1295.62	1283.38	1265.75	1249.56	1235.38	1207.94	1190.62	1176.44	1160.88	1146.19	1125.62	1104.50	1090.25	1071.38	1059.12	1058.50	1052.19	1049.50	1054.50	1051.56	1043.12	1030.44	1033.25	1047.25	1039.81	1017.06	999.12	989.62	979.31	977.75	974.62	969.75	967.88	966.88	1043.69	1047.81	1003.19	993.69	997.62	999.06	1003.44	994.50	1010.62	992.75	989.31	986.81	993.94	1040.69	1037.12	1032.31	1031.44	1032.56	1038.62	1044.69	1062.31	996.25	990.62	995.62	977.50	957.31	975.00	992.62	971.94	950.75	937.50	929.06	919.56	914.00	908.06	907.44	908.19	904.75	903.88	896.31	890.62	888.50	888.88	888.00	885.25	878.81	874.00	875.69	873.38	877.31	886.44	895.94	908.75	916.44	913.25	913.38	919.19	911.00	900.94	934.25	906.06	900.38	907.50	928.44	1007.06	1031.75	1038.62	979.12	954.88	951.75	955.94	960.56	958.81	961.25	978.06	977.88	996.25	971.62	954.94	942.06	952.81	1023.94	979.50	956.31	976.81	958.75	951.88	947.38	972.38	937.81	922.00	915.25	903.31	888.69	887.69	871.19	855.19	846.31	844.44	838.94	834.06	835.94	826.31	816.75	809.06	798.81	794.38	791.69	783.12	767.75	763.19	747.75	739.69	730.19	730.12	722.94	721.44	725.25	715.69	702.56	692.19	690.25	687.12	682.06	678.00	672.31	672.69	660.25	650.56	654.44	652.50	648.56	646.56	639.81	635.75	641.94	648.50	649.00	648.69	635.44	616.38	609.19	606.25	609.88	630.19	609.75	601.38	601.81	595.94	593.44	592.31	592.12	607.69	630.31	624.62	674.19	667.44	644.06	632.38	625.94	604.81	599.00	600.75	607.25	610.69	630.06	628.12	644.44	654.69	657.12	666.88	653.19	651.50	668.44	662.12	660.56	658.81	646.56	613.12	621.81	666.88	699.50	701.94	688.06	674.88	669.75	669.25	668.12
1045.94	1127.50	1081.25	1069.00	1143.56	1157.56	1156.25	1123.50	1164.19	1148.38	1187.88	1180.81	1196.06	1199.44	1265.88	1340.12	1355.88	1348.62	1382.56	1387.12	1380.62	1390.94	1383.06	1356.56	1356.88	1383.00	1364.44	1379.88	1405.06	1404.19	1382.81	1361.19	1337.88	1314.06	1284.31	1267.12	1247.12	1231.12	1216.50	1198.25	1183.75	1167.81	1141.25	1130.44	1115.12	1094.81	1077.81	1064.81	1054.00	1052.88	1047.94	1041.81	1060.31	1054.50	1037.88	1022.94	1029.81	1049.50	1054.69	1017.00	997.25	987.81	978.38	973.12	973.94	968.06	964.31	965.19	1040.19	1076.75	1035.81	1002.31	1001.38	991.44	977.38	990.00	998.62	980.62	978.50	981.62	1005.31	1021.38	1007.75	1025.44	1045.38	1039.88	1094.00	1083.81	1036.50	988.75	984.12	973.81	955.81	949.00	962.69	972.31	953.88	938.19	927.88	919.31	913.62	908.56	902.62	898.50	897.00	896.06	896.56	900.38	895.94	888.81	879.00	879.25	879.31	878.38	871.62	871.25	869.88	873.88	885.94	894.50	905.81	911.31	904.25	903.38	909.69	902.50	891.50	895.00	892.69	896.50	908.44	930.00	954.12	1032.62	1019.25	965.06	955.56	944.31	939.25	941.88	941.12	948.69	965.00	958.56	961.38	951.62	938.88	927.69	943.69	940.38	924.94	909.75	905.00	926.25	927.56	938.94	961.81	922.62	901.94	904.69	903.31	902.12	892.12	880.75	866.00	858.81	850.25	839.44	841.06	839.31	830.00	818.12	810.25	800.31	796.06	788.19	781.88	774.25	761.00	753.44	744.81	733.00	729.25	724.25	723.75	724.81	715.88	703.38	692.56	685.12	683.44	680.25	675.56	668.38	668.06	662.75	649.44	650.62	651.44	652.31	646.06	638.94	636.50	648.12	651.81	654.94	650.62	642.94	627.38	610.25	606.75	617.88	618.75	603.88	603.31	616.12	604.88	593.69	593.12	596.69	616.75	635.06	623.81	683.69	674.19	659.38	638.62	625.31	615.06	603.69	602.00	605.00	613.06	617.69	621.25	642.00	651.62	655.56	666.56	654.06	656.81	658.38	660.88	662.75	659.81	653.56	613.69	618.25	641.44	691.56	708.25	700.62	686.00	675.31	674.25	672.19
1055.06	1080.06	1087.56	1046.56	1071.50	1162.12	1113.38	1088.06	1146.44	1116.75	1230.31	1234.81	1233.62	1181.12	1266.12	1309.56	1322.62	1344.88	1373.75	1380.25	1397.44	1409.88	1387.56	1366.50	1368.69	1385.38	1361.69	1379.75	1388.81	1395.50	1383.00	1364.75	1341.69	1349.19	1315.00	1259.44	1233.06	1218.50	1203.56	1193.81	1184.12	1162.06	1137.38	1120.19	1103.69	1087.44	1083.69	1061.38	1051.81	1046.31	1051.00	1050.25	1037.75	1036.81	1027.88	1018.06	1025.12	1041.06	1059.12	1023.69	998.56	987.00	978.31	972.06	969.50	966.06	963.38	960.94	974.06	1002.75	1007.50	990.38	1016.56	973.50	975.44	986.31	983.69	971.12	974.50	980.94	985.12	987.81	995.12	1012.38	1050.00	1046.62	1099.56	1156.25	1118.69	1025.19	976.38	952.12	941.94	938.94	954.44	954.38	939.75	928.69	924.50	914.62	906.81	902.06	897.94	892.81	888.50	887.62	885.94	894.50	895.44	884.62	876.94	874.69	874.06	874.44	869.88	866.44	865.88	870.06	881.69	894.06	907.25	909.56	899.75	895.19	911.00	906.94	886.00	883.31	886.12	893.69	906.12	922.50	938.81	966.69	961.00	949.69	950.94	942.00	932.62	930.31	933.75	941.31	949.75	942.19	942.44	934.94	924.75	915.31	909.94	898.12	891.06	890.56	886.12	900.50	932.31	938.56	934.81	897.19	890.19	891.50	889.50	909.94	898.69	886.06	881.19	866.62	851.12	837.38	837.62	838.88	829.31	819.56	810.62	802.44	795.44	788.25	780.00	772.19	760.56	753.38	746.12	731.88	724.62	722.81	717.62	719.00	712.81	704.19	696.44	684.00	679.19	676.31	672.44	667.56	665.50	663.31	657.75	654.50	651.00	648.81	643.88	641.88	638.81	652.50	656.06	664.75	662.88	651.31	628.44	612.69	608.38	627.25	619.50	607.25	606.31	615.00	612.00	594.25	592.69	602.88	618.00	633.69	630.69	681.50	680.56	664.12	649.88	631.56	628.88	609.25	605.25	605.38	612.31	615.44	618.06	622.81	652.25	659.56	657.00	672.31	660.94	651.31	674.94	653.00	659.31	638.12	624.81	616.00	624.69	671.69	701.44	709.06	699.88	688.25	678.00	677.81
1043.00	1041.25	1066.69	1044.50	1030.06	1097.25	1053.38	1058.56	1082.94	1130.19	1204.12	1210.38	1226.81	1129.50	1234.62	1291.12	1295.31	1317.25	1352.88	1363.75	1381.62	1403.94	1395.56	1391.19	1396.75	1397.69	1375.50	1371.75	1378.62	1376.69	1365.00	1354.38	1333.00	1361.88	1340.12	1253.31	1224.25	1210.44	1195.19	1184.69	1176.56	1156.56	1130.12	1115.44	1100.38	1090.12	1085.88	1063.69	1045.62	1042.38	1046.25	1055.88	1048.50	1029.38	1019.75	1013.62	1022.75	1045.44	1041.19	1032.50	1005.88	990.38	987.25	976.38	968.38	963.81	961.19	959.19	962.81	963.75	965.88	985.69	994.81	964.38	965.94	974.88	968.06	964.44	969.19	981.50	977.06	985.69	995.81	1006.62	1022.19	1032.56	1070.62	1137.06	1161.19	1082.25	1023.19	960.19	938.50	932.75	948.00	936.06	927.81	920.19	918.25	910.69	903.75	897.88	894.00	889.94	884.62	880.19	878.81	889.69	890.12	882.62	871.88	872.00	868.12	871.19	865.56	863.44	862.25	868.56	879.62	891.81	901.00	911.56	911.38	899.56	890.31	889.88	883.50	878.88	883.69	889.44	899.31	911.38	920.62	928.38	935.44	940.94	952.50	952.06	932.19	921.06	924.19	932.94	926.31	928.56	925.31	920.06	912.12	904.19	900.56	890.31	880.62	877.62	874.88	884.19	921.88	944.81	903.75	884.06	878.88	879.06	882.12	895.50	885.81	882.19	894.19	878.38	852.38	836.25	834.19	839.88	829.19	818.75	808.38	801.50	793.69	788.75	781.00	772.62	761.12	751.12	747.88	735.81	733.19	726.19	718.62	716.12	714.31	707.31	700.44	687.75	676.75	673.62	670.25	665.44	663.06	660.19	656.69	653.81	650.56	643.38	639.00	640.94	639.12	654.75	656.19	668.00	670.31	653.25	633.06	618.44	622.50	627.56	613.50	609.88	610.12	619.06	619.06	597.31	594.44	601.25	628.00	622.06	635.75	646.81	682.19	671.62	657.25	641.06	636.25	616.31	609.06	610.75	614.00	617.56	616.75	619.56	635.19	649.44	658.62	659.19	663.88	658.00	661.44	658.88	659.75	652.56	624.00	614.25	623.88	684.81	690.25	711.88	710.50	700.38	687.50	682.69
990.50	1028.44	1045.06	1002.38	1005.88	999.75	1000.12	1025.38	1072.44	1079.12	1101.94	1106.38	1117.12	1072.75	1119.38	1295.38	1309.88	1308.12	1337.94	1351.44	1361.50	1391.38	1409.06	1402.19	1403.94	1393.62	1373.31	1358.38	1357.00	1350.50	1344.25	1329.75	1314.62	1304.94	1280.44	1252.38	1214.56	1199.75	1187.62	1176.12	1164.75	1152.81	1138.25	1115.25	1094.38	1084.00	1078.12	1059.38	1043.94	1036.50	1039.06	1072.00	1067.12	1034.38	1020.19	1010.94	1012.50	1024.38	1027.56	1028.94	1006.94	997.81	997.62	985.69	969.31	963.06	960.06	956.88	954.25	955.25	955.31	957.62	961.31	956.25	960.88	964.88	955.69	958.00	967.12	973.19	969.06	980.88	990.56	993.19	1004.25	1023.62	1057.38	1072.31	1119.19	1050.12	1016.25	964.62	940.19	952.81	942.31	923.31	915.38	910.81	908.81	904.00	897.81	892.50	887.75	884.06	880.75	874.25	873.31	884.19	884.44	878.38	870.81	864.94	862.81	863.31	863.38	860.75	860.38	871.69	881.44	887.69	901.00	921.56	885.94	879.12	878.00	880.56	878.94	873.31	879.00	883.62	891.12	897.94	903.88	912.00	920.81	927.38	945.94	952.50	933.00	919.38	910.75	912.12	909.38	910.31	906.38	902.56	895.12	889.69	886.94	882.81	880.75	867.69	865.00	870.50	878.12	882.00	869.56	865.88	866.38	869.50	872.94	868.31	866.50	872.94	898.19	882.81	850.69	833.62	825.31	823.50	821.94	815.38	807.56	798.62	789.81	787.94	780.19	768.44	760.69	760.00	753.38	738.94	727.25	724.88	727.81	722.12	713.69	705.81	697.75	691.12	684.31	672.31	669.25	666.75	660.88	657.38	654.81	649.50	646.31	640.50	641.06	654.31	656.25	648.38	655.38	663.50	666.19	659.56	645.25	637.12	633.38	622.06	608.75	610.75	618.44	625.94	625.62	606.56	596.94	590.25	614.00	632.88	638.31	623.19	682.44	666.62	663.44	654.38	639.25	632.69	616.75	621.25	623.12	624.50	618.12	616.69	632.44	652.12	647.31	665.12	664.88	666.44	662.19	661.19	649.50	656.00	632.12	613.06	622.94	668.38	707.94	711.62	723.31	715.00	697.06	687.00
972.25	1009.25	982.69	989.56	985.69	972.31	979.75	1004.75	1054.00	1056.12	1075.50	1069.31	1048.12	1025.00	1055.38	1277.75	1341.06	1336.56	1338.81	1367.44	1374.44	1381.31	1401.00	1400.06	1394.12	1386.12	1365.88	1353.38	1327.00	1298.75	1281.12	1264.25	1277.19	1275.12	1264.69	1235.50	1208.00	1190.62	1178.50	1171.00	1163.12	1148.38	1123.00	1108.00	1092.62	1078.25	1071.94	1071.12	1048.38	1038.69	1031.94	1060.12	1050.00	1029.44	1018.31	1010.31	1004.06	1004.88	1019.69	1019.19	1016.88	1010.19	996.06	984.06	972.50	964.75	957.69	955.06	952.00	948.81	947.00	947.75	955.56	952.12	955.75	953.06	950.94	957.19	965.44	960.81	959.94	964.19	973.31	982.00	993.44	1011.38	1045.75	1077.62	1075.75	1055.06	991.00	959.31	947.94	988.56	949.56	923.12	910.75	905.56	900.44	896.25	891.44	886.50	880.81	877.56	875.94	871.94	867.25	874.31	881.50	875.31	866.38	861.12	857.00	856.19	858.75	858.88	860.12	870.75	877.69	878.31	880.50	875.50	870.44	870.75	872.62	872.44	869.56	867.56	874.12	884.25	890.31	889.94	893.50	901.38	911.38	923.62	956.50	952.62	929.81	931.38	919.00	895.62	892.31	894.69	893.69	887.62	881.25	877.12	874.31	873.38	871.19	859.31	853.44	857.56	859.56	858.12	855.12	855.12	859.00	868.88	863.62	855.19	860.25	873.31	901.44	881.19	851.62	831.62	816.88	811.38	814.19	808.31	804.00	793.31	790.69	786.50	779.69	765.88	755.06	759.94	746.06	735.88	728.44	721.69	714.00	712.50	710.38	704.31	698.25	691.81	689.12	678.25	667.94	663.56	658.56	654.31	654.94	650.31	644.75	639.69	648.50	660.62	667.38	649.62	653.12	651.81	668.81	658.88	652.38	642.81	630.38	620.88	612.44	610.75	616.56	630.62	635.06	617.38	608.50	590.50	599.62	621.81	651.19	635.62	655.56	674.62	677.12	663.62	648.00	648.31	627.44	622.19	628.38	629.69	625.56	617.50	630.62	632.62	650.06	663.75	664.44	669.50	654.62	666.44	661.69	663.88	641.19	613.19	621.38	635.25	687.31	718.75	730.06	726.81	704.38	696.44
941.38	964.69	940.25	943.06	942.38	942.81	944.44	946.69	962.00	1001.00	992.94	981.19	987.81	999.06	1006.50	1095.44	1322.75	1353.38	1359.00	1371.94	1370.56	1369.38	1374.25	1369.31	1380.06	1382.94	1367.06	1360.00	1321.19	1278.81	1263.31	1233.81	1244.62	1242.06	1235.00	1230.62	1198.81	1180.88	1170.75	1166.06	1153.06	1140.56	1126.62	1103.50	1090.75	1078.00	1074.81	1088.44	1065.00	1047.50	1027.12	1045.94	1025.00	1017.69	1008.50	1001.38	996.50	994.75	994.75	1002.75	1043.44	1039.81	1010.31	989.38	974.50	963.00	955.69	952.81	949.94	947.50	944.00	943.38	946.81	947.81	949.69	949.38	953.25	961.81	971.19	960.06	956.31	957.56	966.00	974.31	993.50	1016.62	1056.31	1120.75	1068.06	1039.88	995.19	956.88	943.25	950.25	932.81	926.00	918.38	902.38	896.00	890.94	885.62	880.69	875.62	871.06	869.19	867.31	863.88	867.94	874.19	875.00	870.88	862.69	853.81	852.38	854.50	854.38	856.88	869.44	878.50	872.81	867.06	864.06	860.88	868.50	866.44	868.94	863.50	861.56	869.25	879.06	879.88	882.25	886.00	894.38	909.00	925.00	929.25	934.06	935.69	911.31	898.31	888.00	882.50	879.19	876.88	875.62	870.38	865.88	863.38	863.62	859.81	856.31	845.25	847.38	847.00	845.81	845.69	842.75	855.06	867.44	857.81	846.50	857.50	867.00	869.31	855.31	840.69	829.88	819.44	807.06	798.44	792.25	793.75	786.88	783.44	784.19	775.94	763.50	755.06	751.75	746.38	736.19	724.44	719.44	719.75	710.56	703.75	702.81	695.31	690.62	685.69	679.56	672.31	661.81	656.38	654.56	657.50	662.50	658.75	653.38	657.88	657.31	654.31	648.88	653.19	651.38	667.69	662.44	654.81	644.00	628.94	618.81	615.94	619.44	626.44	635.56	637.38	622.56	602.69	589.62	591.44	615.56	640.94	652.81	612.62	657.00	676.31	674.44	662.31	655.56	639.00	624.56	628.12	633.62	632.06	621.62	623.00	636.38	643.88	659.12	664.62	669.69	667.12	665.38	659.44	668.44	637.62	613.31	620.00	631.06	674.00	726.81	728.94	736.12	717.31	708.81
914.44	919.75	919.81	945.75	920.25	925.38	920.81	935.12	965.00	964.19	969.50	983.88	990.31	995.81	1005.19	1036.69	1201.12	1345.81	1378.38	1386.94	1315.25	1364.56	1365.88	1343.31	1372.00	1371.25	1364.19	1361.25	1352.38	1321.44	1259.06	1235.81	1226.38	1212.12	1206.25	1205.44	1190.62	1174.00	1162.75	1156.31	1145.31	1131.19	1119.69	1105.25	1093.19	1082.31	1082.38	1077.50	1061.88	1066.25	1053.81	1022.56	1013.44	1009.12	1004.12	996.69	993.00	990.44	990.56	992.88	1036.06	1045.62	1013.50	991.06	976.75	967.00	957.62	951.69	948.88	946.69	944.25	940.19	938.19	941.69	943.56	948.38	957.94	967.44	964.75	956.00	950.56	965.56	969.69	973.31	993.06	1009.94	1057.00	1166.88	1110.81	1040.44	983.12	958.25	953.62	955.44	944.69	932.56	923.81	906.81	895.38	887.06	883.19	879.69	873.69	868.88	865.19	862.19	859.38	861.94	871.44	880.75	878.56	875.00	850.81	848.69	851.56	849.25	852.25	871.75	873.69	864.06	859.12	855.81	853.19	865.62	861.75	864.19	857.00	856.56	862.69	867.94	870.69	874.06	881.19	891.81	903.25	911.38	917.25	928.12	929.12	911.69	899.56	894.56	881.62	871.81	866.25	863.88	860.19	855.69	855.88	854.81	849.75	840.94	837.06	837.56	837.88	833.69	833.19	837.00	847.38	849.25	846.62	840.69	852.88	856.56	847.81	837.69	829.88	820.94	820.25	814.19	794.00	782.44	778.00	774.75	773.62	776.00	770.88	757.75	750.50	747.94	749.75	737.56	725.94	718.69	716.56	709.31	701.38	698.81	690.75	688.50	684.31	675.81	672.00	663.19	653.38	658.56	665.50	665.44	666.31	666.12	660.56	655.88	641.12	649.69	649.75	647.31	658.50	658.25	651.88	641.00	623.75	628.75	614.62	616.81	622.06	646.56	636.94	612.69	600.81	591.25	588.75	606.81	634.69	637.00	641.94	630.56	644.81	677.12	669.81	661.00	649.06	630.31	629.88	635.50	634.81	629.44	626.81	639.94	632.88	653.12	665.44	660.75	670.50	672.31	656.56	666.31	652.56	615.31	618.75	628.56	656.31	738.56	731.12	737.56	730.06	722.31
900.75	900.25	894.44	910.00	905.25	906.69	918.94	942.00	965.50	970.25	991.31	1005.94	996.88	998.94	1018.25	1035.81	1103.88	1222.56	1373.75	1373.12	1300.25	1330.06	1348.31	1317.88	1348.69	1332.50	1326.00	1348.06	1358.06	1314.19	1248.56	1235.88	1227.31	1210.81	1199.69	1193.12	1181.56	1163.56	1154.50	1144.88	1137.62	1127.62	1118.69	1115.50	1104.19	1093.12	1087.31	1070.81	1061.31	1078.56	1059.00	1032.06	1011.44	1006.31	1001.50	998.06	995.12	990.44	988.69	985.38	995.06	1008.56	1014.00	991.81	979.75	970.06	964.94	954.50	953.94	946.75	942.44	939.44	937.94	938.06	942.12	952.94	956.00	961.44	958.44	949.31	951.12	1017.69	1030.62	966.94	978.06	986.31	1026.62	1133.75	1125.94	1040.62	981.75	966.06	966.12	983.94	954.44	940.25	937.31	905.81	895.12	883.69	879.94	875.38	871.69	867.38	862.00	858.12	853.94	857.88	864.81	870.50	877.88	864.75	852.56	844.44	850.12	846.56	849.50	870.81	867.00	863.19	853.75	849.94	847.75	858.00	856.75	855.75	851.06	852.19	857.50	861.56	863.81	873.56	880.88	889.25	900.00	905.62	918.75	931.94	935.88	914.56	895.62	890.12	880.12	870.69	861.25	855.12	851.19	848.94	855.06	892.56	845.81	837.69	834.06	827.94	829.50	825.69	825.62	827.75	829.38	833.81	831.12	835.06	847.62	845.38	837.12	826.38	819.88	811.44	807.31	804.94	799.25	786.31	773.12	765.94	764.00	765.88	761.12	750.81	744.69	740.12	743.62	741.56	730.50	719.81	713.50	706.94	697.62	696.19	684.69	682.50	681.94	673.88	669.88	663.31	656.25	659.62	663.00	668.56	667.50	665.19	663.62	655.88	645.50	648.81	645.62	642.25	647.06	660.75	650.50	636.19	634.25	646.25	626.62	613.50	613.25	647.94	637.69	610.38	597.62	590.31	588.31	613.88	639.62	641.06	646.12	646.75	633.81	668.44	675.19	665.38	650.88	637.94	633.12	634.12	636.31	635.94	629.50	634.75	641.00	635.12	657.25	666.12	663.50	666.50	668.56	659.81	656.62	616.69	618.38	626.75	640.50	705.38	738.00	739.12	736.06	732.62
883.56	879.88	878.06	883.75	899.69	904.19	918.44	939.19	960.31	975.62	998.56	1015.50	1020.75	1017.62	1027.75	1051.12	1064.06	1206.75	1360.69	1314.25	1291.31	1268.12	1283.06	1291.81	1332.44	1319.44	1307.31	1313.12	1325.31	1279.56	1250.81	1239.88	1230.56	1220.88	1205.62	1191.75	1175.56	1161.56	1155.62	1141.50	1127.88	1121.94	1114.88	1113.12	1102.81	1090.75	1084.75	1075.25	1071.38	1066.81	1058.56	1030.50	1013.06	1009.19	1006.12	1000.75	1003.50	990.31	985.31	982.06	981.88	987.94	997.81	991.25	983.69	969.12	959.88	955.12	949.56	950.88	943.19	938.38	936.00	936.06	944.69	941.50	948.88	948.06	946.00	943.38	951.06	1025.25	1048.94	962.19	970.44	971.44	986.69	1092.69	1139.38	1064.62	1000.31	951.44	962.62	1020.50	979.25	955.38	928.31	903.56	893.19	879.81	876.25	871.81	868.06	863.00	856.38	853.44	851.81	853.75	859.19	858.25	862.50	860.12	852.00	842.00	844.69	842.56	847.88	857.56	857.25	862.62	855.69	846.19	843.19	848.69	852.31	848.38	845.25	847.25	851.38	857.00	866.31	874.94	882.62	892.88	902.38	909.81	922.56	934.94	940.12	911.31	891.00	876.38	867.81	864.69	856.75	851.00	845.06	842.50	860.44	838.69	840.75	841.56	829.44	825.44	820.44	818.69	819.00	818.31	821.25	821.31	823.00	830.19	841.50	838.19	827.19	816.44	808.50	801.75	796.62	795.00	786.25	786.56	774.69	760.62	756.06	758.00	758.00	745.06	737.56	733.25	732.12	732.94	730.56	719.19	708.38	703.44	697.38	689.75	685.44	679.00	678.56	672.38	669.06	666.44	666.00	656.38	663.19	665.19	668.12	669.00	661.19	655.94	650.75	646.56	641.06	641.38	645.31	647.44	645.94	644.75	644.94	659.06	638.00	622.69	610.00	636.06	645.94	620.25	599.88	591.00	589.19	597.88	636.94	648.38	648.06	643.25	642.50	652.00	682.00	674.31	655.00	650.38	638.19	639.38	637.44	638.06	631.94	634.06	645.75	637.12	643.62	665.00	678.69	682.94	667.31	666.81	658.31	626.56	619.69	627.00	635.38	652.44	704.31	739.62	744.00	745.69
865.50	864.50	870.62	876.12	888.12	903.38	922.69	941.88	962.94	983.38	1015.12	1032.38	1042.25	1040.56	1046.00	1061.38	1086.19	1144.81	1341.69	1263.38	1240.50	1258.94	1260.75	1288.81	1314.69	1316.25	1315.00	1309.44	1296.75	1285.25	1262.50	1249.19	1233.50	1220.88	1206.38	1196.69	1170.69	1151.19	1143.88	1138.75	1128.50	1120.44	1117.06	1111.62	1101.06	1089.00	1079.00	1072.38	1064.31	1055.25	1043.50	1026.31	1019.12	1019.38	1023.75	1016.69	1020.56	1014.88	993.25	980.38	975.94	975.88	974.75	982.94	979.81	967.62	957.75	951.81	945.50	942.50	944.12	936.75	934.38	932.62	938.44	934.69	936.50	934.00	932.62	938.44	948.75	958.31	965.25	946.94	958.50	957.31	996.62	1059.00	1003.12	991.75	955.44	945.75	953.50	978.81	984.62	974.88	944.81	900.19	887.12	878.56	871.62	868.50	864.69	859.56	856.25	851.81	850.00	848.56	846.31	847.62	853.75	854.75	852.31	841.81	839.06	840.38	847.38	848.62	854.81	860.38	854.62	844.44	840.25	839.44	839.81	840.81	841.31	840.94	847.38	856.62	863.19	869.31	872.69	887.50	899.25	914.38	935.38	924.25	907.88	894.25	880.56	868.06	859.75	854.12	847.38	843.25	841.12	839.56	858.44	832.38	830.00	832.75	819.25	827.19	815.88	809.75	811.56	811.12	814.62	814.00	819.56	829.38	842.06	840.62	828.31	815.19	802.56	791.38	786.25	780.75	776.62	774.81	772.94	763.19	752.19	746.62	746.69	742.19	729.44	725.06	725.62	722.56	717.25	708.12	699.06	695.06	690.06	687.38	683.12	677.81	675.94	671.12	666.88	664.62	661.81	655.44	659.38	664.69	665.94	669.19	663.81	655.44	653.19	646.12	644.38	641.44	641.44	645.19	651.69	659.06	658.50	666.88	649.69	635.81	614.31	607.69	639.00	629.06	606.25	594.62	592.31	609.69	625.88	640.25	640.44	657.00	643.31	643.94	683.19	682.94	667.00	660.31	645.31	643.50	640.31	640.38	638.81	635.75	641.94	644.75	640.88	659.19	672.50	671.12	675.31	667.44	662.50	629.50	619.75	627.25	634.00	644.69	690.88	739.94	757.88	753.31
850.44	853.38	859.62	861.38	870.00	876.31	917.44	979.75	967.69	989.88	1020.88	1039.25	1058.50	1065.00	1061.00	1083.06	1107.38	1156.56	1234.94	1213.06	1235.62	1262.31	1268.00	1298.25	1318.00	1348.00	1344.69	1334.62	1314.81	1295.88	1280.00	1249.38	1240.62	1229.62	1210.62	1196.62	1180.75	1168.31	1154.81	1145.19	1141.25	1131.19	1129.69	1116.75	1107.75	1098.75	1084.19	1073.62	1064.19	1054.31	1034.19	1024.88	1023.25	1025.81	1066.44	1020.12	1005.88	1014.50	1043.56	984.75	973.94	971.81	968.31	974.12	971.56	969.19	964.38	955.38	945.19	939.44	934.38	932.38	932.44	930.44	928.50	927.69	924.06	924.19	928.94	936.50	938.06	938.06	934.94	935.44	944.50	946.00	997.00	979.50	988.38	947.50	937.50	944.06	938.88	943.50	944.81	940.50	913.44	890.62	878.31	873.69	867.31	864.50	860.62	857.12	853.44	851.56	846.50	845.12	841.75	840.25	842.69	852.00	851.56	842.06	835.06	836.12	837.75	844.00	852.69	855.31	849.12	841.38	837.62	835.31	836.38	836.62	838.69	837.19	850.62	856.94	853.00	858.69	867.50	879.31	894.69	918.25	932.75	916.88	891.75	879.88	871.31	861.12	851.94	845.62	843.88	836.38	833.31	831.50	843.62	828.75	822.56	823.12	818.75	820.94	805.56	803.50	804.94	806.44	809.62	812.12	830.12	835.06	846.25	845.62	833.81	817.88	803.06	790.12	778.75	774.50	768.69	765.44	766.62	764.75	755.12	741.50	738.81	741.50	727.19	716.50	716.81	717.31	712.38	703.44	695.88	687.94	681.00	678.00	674.50	677.06	673.81	665.75	662.62	662.12	661.75	663.81	657.38	658.19	665.75	667.00	666.81	655.19	645.44	646.19	641.94	640.62	643.44	647.88	650.88	658.69	678.12	677.00	662.56	643.56	626.25	612.25	628.44	624.31	613.44	600.31	598.88	604.12	628.38	644.44	645.56	646.56	672.25	665.56	677.12	691.06	673.94	657.12	654.19	649.00	647.44	643.81	638.62	637.62	639.69	649.31	639.69	648.06	669.19	671.62	674.88	666.00	668.00	645.56	619.81	626.62	633.06	642.50	656.50	731.38	765.50	767.12
837.56	839.75	841.19	847.50	846.75	866.12	897.94	969.31	976.75	988.25	1010.69	1034.06	1058.00	1064.69	1069.38	1085.50	1115.62	1146.88	1180.44	1204.81	1250.00	1298.06	1305.50	1337.94	1346.81	1381.06	1393.94	1364.44	1333.06	1315.94	1297.69	1270.38	1257.06	1244.94	1222.31	1204.31	1187.94	1182.75	1172.25	1160.56	1152.19	1144.50	1134.00	1124.12	1111.69	1103.81	1098.06	1077.62	1072.69	1064.00	1040.75	1033.06	1026.50	1025.62	1068.31	1058.12	1005.50	995.88	990.06	980.81	971.44	968.81	966.00	965.31	960.69	963.06	972.00	957.94	951.81	945.88	935.56	927.62	929.25	929.75	926.75	923.12	922.19	920.31	922.06	926.25	932.56	933.00	928.44	928.00	932.44	941.81	933.81	933.44	940.19	925.12	921.06	936.19	941.56	915.31	924.94	913.25	900.00	886.06	874.50	869.19	863.31	859.00	856.88	854.06	849.31	847.62	842.50	841.56	839.44	837.31	838.56	844.94	840.69	832.81	833.31	832.50	833.38	838.50	845.12	847.81	845.25	840.81	834.12	834.50	829.62	832.62	835.00	833.12	841.75	845.31	845.75	855.62	868.00	885.94	906.12	924.44	907.44	892.38	878.38	866.94	860.38	854.00	844.50	837.31	835.38	831.44	826.50	830.38	826.56	846.94	820.00	836.31	884.19	842.88	799.44	798.69	801.12	798.75	804.12	820.81	825.38	837.19	843.94	842.56	829.56	816.56	804.12	792.00	779.69	771.62	760.31	756.56	755.31	747.94	746.88	738.25	730.56	733.69	727.69	717.12	707.06	709.12	709.44	700.06	691.44	685.50	676.31	672.19	667.44	668.62	666.81	662.94	658.69	659.44	653.12	659.81	657.88	657.69	658.38	666.44	660.94	649.19	647.00	644.31	642.94	641.88	645.94	653.25	657.56	658.12	680.19	689.75	673.62	650.69	635.69	617.88	602.88	611.31	616.44	610.62	608.56	605.75	618.62	647.69	652.19	643.81	656.81	655.31	667.81	692.94	682.56	666.88	662.94	655.06	648.94	649.25	645.56	646.44	640.56	648.94	649.44	635.94	665.88	673.69	679.06	679.94	671.06	665.19	624.50	625.75	632.44	641.38	652.44	692.56	762.25	779.12
