1025.94	835.56	816.81	825.75	948.75	1040.44	1152.62	1375.81	1580.69	1516.06	1483.44	1370.94	1184.56	1098.94	1113.88	1108.56	1095.19	879.69	721.00	821.56	927.44	817.88	811.50	789.56	779.44	848.50	992.19	999.94	795.00	943.00	1007.75	1042.50	1190.56	1042.88	950.06	849.06	755.56	851.69	982.62	1003.06	1075.62	1221.25	1226.38	1134.50	1009.31	1159.56	1086.50	1069.31	1089.81	1054.94	1029.25	1017.75	964.19	984.38	1029.44	1055.44	1134.25	1230.75	1032.12	1000.44	1007.94	955.81	887.81	919.38	960.81	954.06	1094.25	1098.50	1100.88	985.94	977.06	1000.06	1029.69	988.88	836.38	827.50	796.31	916.19	811.50	846.81	962.94	1150.19	1353.44	1371.19	1202.56	1057.62	1023.75	1014.50	962.38	725.94	767.75	939.38	1035.31	1081.56	1060.69	965.12	1113.44	1209.81	1426.81	1673.62	1901.62	1888.62	1928.75	1629.69	1196.81	950.31	1141.06	1419.38	1680.69	2026.62	2222.62	2051.44	1760.38	1488.75	1346.69	1329.69	1228.00	1127.62	1105.69	1094.31	930.06	592.69	491.12	558.88	714.00	748.75	709.44	722.94	663.75	653.69	568.56	598.62	597.25	599.06	605.44	617.19	763.38	841.75	882.69	890.31	812.88	875.94	973.12	1029.56	1130.50	1339.25	1167.69	1245.50	1437.94	1413.31	1486.44	1469.12	1369.94	1266.25	1137.56	1253.81	1362.75	1259.25	1438.81	1299.00	1253.62	1347.81	1266.25	1140.00	1133.25	1134.12	1082.12	1069.69	948.19	934.12	958.62	950.88	942.62	948.56	988.94	1016.12	1039.50	1097.00	1131.38	1091.31	1011.56	917.94	963.69	912.12	840.69	806.31	854.38	843.69	813.75	815.50	832.12	879.06	897.06	906.06	910.81	936.38	993.12	1056.12	1147.75	1259.00	1290.88	1265.88	1297.81	1375.25	1355.12	1271.56	1162.00	1120.56	1088.06	1119.69	1261.62	1316.06	1371.31	1359.12	1390.06	1472.19	1564.94	1559.44	1504.56	1498.62	1484.81	1421.88	1379.06	1432.12	1437.38	1487.31	1436.69	1484.12	1509.19	1683.62	1495.75	1663.38	1650.62	1521.81	1433.31	1468.56	1383.81	1370.19	1292.38	1252.81	1340.00	1339.38	1303.50	1209.38	1147.06	1137.50	1143.94	1217.94	1255.62	1345.88	1405.94	1388.31	1478.19	1594.06	1663.12	1816.75
911.81	820.44	816.38	831.81	1008.69	1119.62	1156.88	1296.75	1522.38	1611.81	1559.69	1350.19	1289.25	1160.81	998.69	1159.25	1227.81	938.06	721.44	810.81	898.56	837.00	774.88	743.75	756.00	815.38	875.56	894.38	776.19	1007.69	947.75	1029.25	1151.69	993.88	881.50	752.88	765.44	933.12	996.31	1022.69	1081.81	1221.31	1403.25	1223.94	1079.94	1109.62	1135.69	1109.94	1085.50	1024.31	1081.62	992.38	937.06	959.06	994.38	1000.94	1087.62	1137.19	1040.06	988.25	967.12	926.25	918.00	939.19	885.81	902.75	988.69	1018.00	1055.62	1043.69	933.12	977.56	884.62	842.81	786.25	777.44	862.19	986.69	896.00	821.81	949.38	1064.75	1181.69	1127.31	1137.94	1154.69	1113.75	1030.00	901.50	729.88	779.31	961.50	968.69	1059.44	1149.31	1053.38	1143.62	1227.00	1469.81	1810.75	1988.25	2008.75	1937.69	1606.00	1182.94	976.88	1091.56	1360.00	1631.81	1938.81	2080.75	1830.31	1634.56	1473.19	1298.25	1166.12	1190.81	1202.81	1098.50	1027.12	871.62	606.06	491.75	647.25	884.44	854.19	843.94	839.12	748.25	856.69	639.56	738.75	638.12	705.88	720.31	714.00	725.06	693.50	698.69	713.56	811.94	963.12	1009.88	936.25	1076.44	1238.00	1169.88	1134.75	1193.94	1318.56	1379.69	1295.31	1361.31	1312.50	1152.94	1235.06	1335.19	1274.31	1410.44	1274.38	1320.25	1395.31	1311.25	1123.81	1097.38	1044.50	992.75	1003.19	966.06	936.75	897.94	905.31	917.38	905.75	946.00	957.88	971.56	1006.50	1001.75	962.69	923.88	898.00	919.00	877.25	851.31	808.62	837.81	847.31	917.69	897.81	867.06	842.56	869.06	874.00	872.69	899.38	937.06	957.12	1006.88	1097.38	1207.75	1303.81	1358.75	1392.62	1316.94	1206.56	1154.44	1080.38	1080.88	1157.50	1205.12	1230.31	1399.75	1364.38	1268.75	1352.00	1453.56	1518.31	1532.25	1511.31	1527.12	1448.88	1360.44	1362.38	1368.12	1487.31	1423.50	1481.31	1540.69	1698.31	1552.31	1690.38	1730.06	1581.19	1483.00	1483.06	1384.31	1321.94	1290.62	1325.25	1366.25	1347.50	1275.44	1294.06	1183.69	1161.25	1146.75	1215.50	1278.44	1398.81	1420.56	1499.12	1632.88	1768.88	1865.44	1992.50
840.25	812.50	809.56	851.44	953.19	1076.19	1193.06	1293.38	1169.56	1427.00	1410.31	1251.31	1222.94	1193.06	946.75	989.62	1085.62	950.62	740.44	733.56	790.88	849.38	784.00	728.56	727.25	739.19	757.31	753.06	755.06	843.38	826.88	962.31	1038.38	1049.62	768.75	748.75	815.81	898.00	872.38	890.88	982.69	1151.56	1303.38	1196.38	1226.12	1150.00	1230.38	1125.75	1003.62	1029.81	1039.25	947.69	913.06	938.19	944.81	946.88	987.56	1030.75	1033.44	985.06	962.38	1007.12	1017.81	987.25	981.06	936.88	877.31	898.94	905.06	885.12	847.50	824.00	831.81	916.50	876.06	937.31	960.06	1021.62	942.44	819.00	897.94	925.56	930.25	979.69	1082.62	1097.19	1003.06	896.31	877.25	790.38	798.94	896.12	910.62	916.50	950.38	1049.44	1132.81	1193.62	1346.44	1615.62	1663.69	1826.75	1919.56	1514.44	1215.00	1142.62	1121.88	1259.56	1476.75	1625.25	1725.69	1637.88	1476.00	1304.00	1343.00	1237.75	1025.25	930.25	1118.56	895.56	781.62	647.25	499.75	621.81	882.19	975.44	943.56	986.94	848.00	914.62	669.31	902.38	712.25	781.12	916.62	978.06	1003.06	918.69	918.81	841.56	827.88	830.12	849.50	873.94	934.44	972.56	1093.62	1000.44	1097.25	1186.12	1175.38	1216.25	1275.50	1351.06	1387.19	1230.62	1225.81	1365.38	1356.56	1294.00	1380.75	1408.12	1388.06	1328.38	1268.44	1109.88	1125.81	1085.88	1072.50	1050.00	973.94	886.44	853.31	861.69	889.88	891.38	911.44	924.31	915.62	869.75	866.19	866.62	867.56	831.12	808.69	806.50	844.25	1024.69	1100.00	1069.19	1139.88	1020.94	882.56	859.69	854.06	865.81	869.50	874.06	901.62	977.50	1064.75	1114.50	1157.94	1234.81	1344.94	1293.12	1222.88	1055.31	1153.88	1287.06	1221.25	1169.12	1201.38	1223.75	1262.19	1281.88	1331.88	1474.25	1491.50	1472.12	1474.38	1504.06	1419.25	1323.81	1410.62	1599.56	1583.31	1524.81	1529.00	1594.81	1568.62	1620.75	1763.56	1690.38	1594.94	1634.44	1531.38	1405.25	1368.56	1374.31	1408.50	1353.94	1333.44	1387.50	1259.50	1205.81	1148.81	1217.62	1320.00	1421.56	1521.81	1696.69	1906.44	1946.62	2054.56	2056.31
852.81	825.94	808.69	895.12	974.00	1134.56	1279.31	1189.81	1030.94	1226.94	1162.81	1141.69	1163.12	1260.38	1060.75	858.00	856.62	835.75	742.19	710.81	710.06	766.25	761.69	716.44	702.50	707.44	702.06	705.00	708.94	729.81	759.56	856.56	1053.19	977.38	773.25	776.06	950.69	1143.50	1012.25	935.62	937.50	1018.69	1229.25	1241.38	1268.69	1245.50	1271.12	1140.12	972.62	1019.50	1006.31	915.06	927.56	912.94	938.81	955.62	965.81	1041.75	1042.69	1004.81	1034.56	1080.81	1081.75	1057.94	1014.19	998.00	893.88	841.50	854.19	874.94	879.06	855.38	962.62	995.06	903.94	1008.94	1026.00	1118.75	981.25	832.25	964.50	1009.12	962.62	997.00	1144.44	1159.81	1017.56	995.00	970.25	833.38	828.94	980.75	1031.19	987.94	926.31	955.75	1000.31	1058.94	1204.50	1360.00	1451.62	1608.00	1675.50	1410.81	1298.69	1308.12	1318.00	1306.75	1429.50	1603.06	1855.12	1866.12	1500.75	1182.81	1149.06	1143.75	1041.88	832.75	1129.50	984.69	819.94	665.44	510.62	584.81	773.19	904.81	1059.31	1069.69	960.12	793.31	666.31	879.69	699.56	773.94	978.12	1095.94	1174.69	1095.56	1013.06	1006.12	1009.56	802.81	811.75	910.06	928.56	965.19	1044.31	981.88	1036.81	1106.94	1075.44	1153.12	1221.94	1362.31	1387.12	1367.38	1390.75	1445.94	1501.56	1500.50	1413.56	1326.50	1351.44	1326.06	1317.50	1145.25	1144.31	1098.94	1165.19	1113.75	1020.38	961.50	903.62	865.19	824.31	827.38	882.06	902.31	910.75	868.25	837.06	842.44	856.44	805.06	787.88	802.44	872.00	1033.62	1132.69	1165.50	1190.06	1144.81	1037.44	888.69	857.00	892.94	893.69	876.25	878.38	920.25	976.81	1008.06	1054.31	1122.88	1234.62	1233.81	1109.50	1043.75	1143.94	1237.25	1217.00	1214.25	1156.38	1252.69	1357.62	1365.75	1348.00	1374.00	1393.25	1402.19	1411.19	1455.31	1441.44	1303.56	1353.50	1569.38	1650.00	1642.75	1630.00	1628.88	1609.12	1586.81	1575.00	1643.94	1672.31	1706.62	1720.81	1520.12	1386.62	1402.62	1391.62	1367.75	1309.69	1359.56	1279.38	1184.81	1157.38	1229.38	1372.00	1453.94	1575.31	1779.81	1937.12	1957.44	1991.75	1959.25
880.62	828.25	817.38	896.62	938.69	1123.62	1270.75	1240.38	998.75	996.19	1030.25	1149.06	931.62	1110.31	1035.38	821.19	754.50	765.19	727.25	703.75	695.50	705.75	710.88	688.50	683.81	682.81	672.62	676.31	684.56	693.38	709.06	764.38	936.88	872.56	760.62	846.62	1003.75	1247.56	1222.19	1066.44	1026.38	991.00	1083.88	1146.38	1262.75	1221.94	1136.25	1075.12	966.50	953.88	1001.50	916.88	902.75	965.81	1031.06	1038.19	1037.88	1049.81	1038.75	1046.75	1053.19	1071.62	1040.19	1019.31	994.44	932.31	887.38	922.56	934.62	992.88	979.38	922.00	1078.81	957.62	922.38	1010.81	1090.38	1067.94	947.19	840.69	874.44	967.75	1085.38	1043.19	1081.06	1169.50	1211.00	1120.19	1063.31	873.44	838.44	945.62	1059.25	1095.12	1045.81	965.19	973.44	1028.50	1095.31	1174.62	1261.38	1420.12	1426.75	1389.88	1379.94	1444.94	1527.88	1424.25	1495.50	1673.00	2110.62	2065.19	1665.25	1188.31	967.00	906.38	852.75	765.75	926.69	1063.00	927.75	737.88	558.75	511.06	633.75	779.94	953.94	1193.75	1038.62	816.19	697.00	841.88	767.56	807.62	928.25	1074.75	1260.19	1249.25	1181.00	1186.88	1087.25	847.50	846.56	894.69	889.88	938.00	1024.81	919.94	928.94	1045.19	977.44	1087.50	1082.50	1099.69	1219.06	1327.25	1417.38	1376.12	1410.50	1383.00	1361.88	1305.12	1255.81	1250.31	1276.81	1260.06	1231.62	1170.44	1138.06	1140.62	1102.50	1062.50	991.19	926.19	849.38	807.38	853.81	898.00	931.75	934.25	860.69	837.88	822.31	773.44	782.44	861.31	992.69	1000.75	1098.50	1166.00	1097.88	1133.88	1174.06	945.25	866.62	939.56	1008.31	955.56	913.38	901.62	932.31	976.12	1025.00	1071.50	1092.38	1032.56	1027.69	1085.75	1091.00	1153.25	1232.50	1185.12	1167.69	1183.19	1217.50	1281.25	1315.25	1420.69	1450.75	1346.56	1392.44	1480.75	1470.25	1349.75	1283.12	1487.12	1681.31	1717.81	1746.38	1674.31	1749.00	1625.25	1470.50	1491.94	1531.19	1646.00	1749.50	1621.19	1487.38	1528.88	1467.12	1399.31	1308.75	1260.25	1244.06	1155.62	1173.00	1273.50	1339.69	1500.38	1628.88	1758.75	1847.12	1961.94	2024.44	1865.94
900.50	817.25	835.25	885.50	876.75	992.88	1071.31	1232.50	1077.62	942.38	957.75	1106.94	911.38	805.69	725.56	707.88	708.19	727.31	744.19	739.06	713.50	708.75	700.31	700.31	690.81	686.69	681.62	682.69	677.56	686.38	698.75	712.19	765.50	781.94	761.25	960.62	1316.56	1385.25	1279.50	1270.25	1109.81	1197.31	1115.94	1158.25	1275.44	1143.38	1081.06	1004.56	971.75	877.38	997.12	899.25	938.88	935.50	997.12	1019.88	1033.12	997.19	1074.12	1003.12	986.94	947.00	952.81	926.44	902.88	926.31	941.31	1017.75	964.81	1010.12	921.56	896.94	1000.00	965.81	1006.50	994.44	1100.75	985.62	854.69	913.44	998.12	927.75	1025.81	1147.88	1218.56	1280.44	1229.88	1059.44	1017.38	899.19	861.31	1003.00	1019.44	1082.75	1162.81	1076.12	992.44	1113.38	1164.62	1168.50	1180.94	1213.06	1331.12	1405.25	1474.25	1541.62	1596.38	1599.06	1676.31	1753.69	2053.50	2006.25	1641.06	1247.69	989.69	965.88	897.56	770.38	646.69	773.81	795.38	728.81	601.00	513.19	568.12	747.38	993.12	1268.00	1142.00	910.69	748.50	831.06	993.94	958.19	1041.44	1292.12	1434.62	1368.12	1395.38	1323.88	1068.31	864.38	852.62	909.00	1031.06	1068.00	1125.19	960.75	912.88	952.12	939.25	946.94	845.44	900.12	1024.00	1154.12	1237.44	1220.44	1139.69	1194.62	1192.94	1188.81	1168.12	1241.12	1219.88	1192.44	1270.25	1152.62	1052.69	1058.44	1144.50	1099.44	969.69	917.62	894.94	853.94	858.88	882.00	914.75	949.44	918.06	843.06	798.81	749.00	790.44	914.56	1108.38	1157.31	1175.81	1165.75	1137.25	1213.12	1159.44	965.44	879.81	1026.25	1169.00	1112.50	998.75	933.00	924.38	979.88	1031.25	1039.12	1003.75	1026.00	1136.12	1098.81	1089.19	1204.81	1333.06	1304.00	1216.31	1252.75	1189.81	1234.25	1331.75	1416.50	1447.19	1376.12	1333.44	1449.94	1439.19	1319.56	1255.69	1372.94	1496.88	1630.31	1632.75	1655.12	1557.19	1586.25	1454.00	1447.69	1431.75	1475.31	1584.56	1759.50	1688.81	1634.25	1546.12	1414.31	1283.69	1241.88	1179.94	1150.25	1188.31	1315.88	1367.50	1550.31	1702.56	1917.38	2020.19	2046.94	2077.00	1959.50
905.62	846.44	820.06	857.00	839.81	914.12	1127.88	1101.69	1072.62	898.31	870.75	961.88	858.62	758.50	699.38	719.38	789.19	768.00	732.69	724.00	781.81	886.56	829.75	743.44	789.81	745.75	708.69	693.31	671.31	696.25	713.12	714.44	721.31	754.06	818.75	1003.38	1213.75	1394.25	1386.81	1344.38	1177.81	1354.12	1268.06	1283.44	1276.12	1260.81	1130.06	1047.31	988.38	878.69	960.94	860.44	895.88	955.25	953.69	973.31	1003.75	951.75	1034.06	949.56	973.44	971.06	944.44	967.31	944.31	996.75	945.06	1020.25	985.88	998.31	915.75	939.75	992.69	985.19	1040.88	1055.50	1018.06	928.25	852.12	900.12	1051.62	998.94	1010.06	1160.94	1226.56	1248.38	1117.50	1078.69	922.19	844.75	874.75	936.62	1010.25	1111.62	1197.94	1135.62	1027.38	1067.50	1122.75	1265.81	1139.25	1204.81	1327.25	1372.62	1497.81	1591.19	1631.69	1752.81	1864.19	1877.44	1845.31	1676.44	1386.69	1155.50	1058.12	1016.12	914.25	874.25	715.00	606.69	647.31	657.19	589.75	517.06	593.62	768.12	881.25	1178.56	1166.06	882.00	745.56	816.94	1037.50	1063.19	1006.50	1229.31	1419.00	1445.94	1353.50	1201.00	1014.75	838.81	828.06	916.00	1063.00	1079.69	1120.81	1051.31	931.88	874.25	883.75	858.81	942.00	997.31	1089.62	1139.75	1103.69	1075.12	1023.44	1089.06	1143.88	1122.44	1196.56	1143.19	1207.31	1153.00	1198.50	1256.19	1121.56	1033.12	1084.19	1125.62	1048.81	945.62	902.94	843.94	884.69	851.94	877.56	926.31	927.94	825.25	765.38	755.25	830.12	918.75	1053.25	1097.62	1150.31	1164.06	1110.38	1074.56	1030.38	936.75	903.00	1044.12	1136.81	1197.88	1097.44	994.88	916.31	947.62	991.94	992.00	998.94	1057.94	1069.62	1123.62	1159.50	1132.50	1195.56	1263.12	1296.88	1292.31	1216.38	1269.88	1359.75	1420.69	1393.69	1398.50	1286.88	1375.19	1364.06	1254.75	1249.06	1311.88	1407.19	1578.75	1578.44	1553.44	1505.81	1468.12	1458.94	1480.31	1426.62	1462.31	1536.88	1652.88	1693.75	1644.69	1574.56	1420.81	1342.75	1283.62	1199.25	1154.94	1191.00	1325.69	1378.88	1608.12	1767.69	1947.06	2056.44	2094.38	2112.25	2001.19
887.62	834.19	812.25	808.00	814.88	890.88	1115.81	904.19	872.81	788.81	753.69	747.56	726.44	723.25	733.44	916.62	1173.31	1029.50	795.38	862.69	1110.69	1131.44	1033.88	784.75	977.00	864.12	768.44	728.88	691.50	674.00	687.31	698.62	695.75	722.50	898.56	1136.69	1167.06	1340.12	1433.38	1460.31	1454.50	1579.69	1601.88	1581.62	1524.88	1340.50	1145.12	1096.88	1051.44	917.69	844.00	837.25	955.00	968.56	1005.38	993.50	967.44	925.50	932.44	918.44	993.62	1066.00	1045.25	1043.00	1013.12	1033.62	963.56	1025.81	1029.88	971.12	944.81	1015.06	1007.69	1035.94	1018.81	987.56	906.50	911.38	966.06	881.00	1026.38	1139.81	1010.31	1011.62	1161.31	1083.25	1030.31	1010.88	974.75	849.50	1014.81	1085.88	945.31	1064.69	1161.38	1184.81	1157.12	1193.12	1239.25	1203.56	1035.94	1068.06	1249.12	1394.19	1571.88	1775.94	1773.00	1980.56	2122.00	1907.69	1656.06	1439.00	1247.56	1255.25	1170.12	1111.88	1126.88	1056.31	817.88	682.38	564.31	545.00	534.25	499.50	576.25	818.44	984.12	1188.56	1169.50	906.25	810.69	975.38	1204.38	1070.56	1046.75	968.31	1133.69	1302.31	1259.50	1055.25	915.38	905.56	926.56	1030.19	1123.62	996.62	946.12	1069.81	1073.81	883.25	818.56	902.75	939.75	977.44	1075.44	1068.81	1046.00	989.81	983.38	1008.00	1036.69	1114.06	1128.38	1135.56	1144.06	1197.31	1127.75	1205.00	1057.56	1024.69	983.81	1007.62	1037.88	995.81	924.69	881.06	822.81	815.44	793.81	835.19	850.94	805.75	804.50	851.38	875.19	900.25	945.06	975.81	1027.44	1074.19	1056.44	990.62	950.69	923.06	923.56	1088.38	1143.12	1189.69	1262.25	1165.94	994.00	959.19	979.56	952.19	971.31	1012.56	1093.12	1167.12	1233.94	1195.69	1280.88	1392.75	1399.19	1292.94	1305.88	1344.25	1404.06	1373.19	1329.44	1286.38	1244.62	1286.50	1266.94	1221.38	1246.44	1262.94	1331.19	1461.25	1435.00	1371.62	1456.94	1545.50	1512.12	1433.25	1384.06	1433.38	1445.62	1415.19	1449.38	1475.94	1540.00	1513.62	1463.12	1318.50	1241.44	1165.00	1178.94	1290.06	1388.75	1641.44	1823.12	1944.12	1992.56	2169.31	2231.19	2112.44
866.75	814.12	795.06	792.50	796.69	864.69	894.19	825.75	777.50	757.69	737.06	720.19	719.19	735.94	790.75	1041.25	1350.69	1213.38	842.44	992.56	1249.12	1264.81	996.50	794.06	1040.56	892.62	787.44	764.19	742.69	674.06	673.44	682.94	679.12	731.19	947.88	986.25	975.38	1161.88	1266.06	1463.94	1625.44	1694.12	1735.75	1732.94	1647.81	1377.19	1103.19	1045.25	1100.06	993.44	817.75	885.00	1034.31	1073.12	1096.50	1052.19	902.56	914.75	896.56	1010.62	1038.12	975.44	980.44	1038.19	1101.81	1078.75	993.25	1049.69	998.00	933.88	973.19	1049.50	1061.75	1021.38	967.38	908.44	941.56	965.06	1048.56	931.44	967.00	1084.19	1082.56	1022.38	1176.31	1141.12	1076.62	984.75	881.75	894.69	1044.06	1118.69	1071.44	1038.31	1083.44	1141.56	1206.19	1261.69	1188.69	1069.56	952.81	1084.12	1288.81	1460.38	1717.12	2021.38	1981.12	2074.38	2084.38	1790.69	1651.00	1518.12	1393.62	1427.94	1312.56	1238.12	1075.38	975.19	834.88	649.00	549.94	499.00	502.94	494.81	528.56	632.38	845.50	948.81	1015.88	988.50	884.12	1024.31	1210.88	1077.88	1128.94	1039.12	1068.38	1270.88	1272.00	1069.38	1004.56	1026.00	1001.94	1062.69	1130.50	1044.06	943.44	925.12	971.25	839.06	834.88	979.00	978.81	971.44	1045.00	1096.75	1063.06	1040.88	963.94	978.88	1052.69	1101.06	1038.25	1074.25	1118.75	1173.19	1103.31	1063.69	1073.31	1022.31	962.56	914.81	930.00	939.06	924.94	860.00	790.56	801.88	782.06	788.31	797.12	790.50	919.88	958.12	916.62	932.31	990.25	1010.44	998.81	990.56	979.88	954.50	974.00	936.88	933.19	1081.56	1157.19	1216.19	1253.69	1247.94	1150.81	1104.19	1034.81	985.00	954.19	975.00	1037.69	1075.56	1132.50	1183.62	1297.50	1486.88	1425.56	1359.88	1420.81	1408.06	1406.56	1333.50	1261.50	1229.06	1245.00	1298.81	1293.56	1210.12	1226.31	1240.94	1282.19	1322.75	1320.38	1357.00	1464.25	1561.12	1574.69	1446.56	1431.50	1458.12	1392.88	1337.94	1377.62	1392.62	1425.25	1528.38	1516.50	1365.88	1267.88	1180.00	1180.50	1293.44	1375.88	1610.25	1833.88	1934.88	2030.00	2190.62	2080.19	1908.00
864.19	808.06	788.56	779.56	784.81	832.50	840.62	844.50	787.50	756.44	727.94	725.31	730.31	751.50	849.75	1203.56	1400.31	1084.06	898.12	1100.50	1210.81	1095.62	837.88	856.56	1099.81	890.75	838.25	857.06	863.56	701.69	667.62	669.56	671.69	685.62	811.12	811.81	875.88	1143.25	1215.31	1325.94	1597.31	1640.94	1512.38	1619.44	1645.56	1457.62	1180.69	971.62	1015.81	979.56	809.56	894.31	1038.19	1113.06	1032.69	1003.31	860.25	889.38	926.75	1036.44	996.94	921.62	934.75	1010.88	1087.31	1030.38	1019.19	1038.31	976.62	970.38	978.00	1049.06	987.25	956.25	927.19	968.62	987.75	1029.69	1109.56	971.31	917.19	1061.12	1136.56	1078.12	1158.69	1125.88	1087.44	953.69	868.12	976.75	997.62	1041.12	1179.38	1135.44	1186.31	1149.88	1247.44	1225.44	1084.50	983.88	1002.12	1142.88	1297.88	1508.06	1838.81	2171.81	2139.12	2116.44	1956.62	1789.50	1809.94	1542.56	1587.06	1675.62	1477.31	1295.81	1048.38	941.88	778.62	526.62	499.19	499.56	504.44	583.25	648.88	571.06	643.56	694.38	800.44	995.19	988.25	1227.31	1225.25	1090.00	1136.56	1139.00	1178.56	1322.62	1349.12	1186.44	1129.31	1116.50	1064.56	958.31	985.25	1005.38	1034.75	891.00	830.69	784.94	816.88	866.06	914.25	938.12	1026.44	1139.31	1122.06	1110.62	961.38	934.06	1012.31	1044.56	1002.19	1052.38	970.06	1069.12	1056.31	979.00	1017.31	1008.69	1008.69	941.19	885.75	906.00	920.56	836.44	781.12	784.12	842.31	821.94	809.00	826.69	989.44	1064.38	1010.00	1014.69	1076.88	1046.25	1011.31	994.12	994.56	986.56	1039.06	949.38	920.88	1077.50	1102.25	1198.44	1123.06	1225.44	1263.81	1259.81	1163.94	1098.88	991.31	965.06	1003.31	1020.75	1066.19	1175.31	1306.88	1481.12	1444.12	1507.00	1448.56	1368.19	1321.81	1272.69	1247.62	1289.31	1258.75	1293.81	1303.38	1190.88	1200.56	1221.50	1256.44	1266.38	1371.00	1478.62	1527.44	1571.19	1592.12	1488.69	1527.81	1517.44	1425.12	1314.50	1327.44	1328.50	1338.75	1416.56	1422.06	1400.88	1287.50	1187.50	1182.62	1253.94	1361.62	1566.31	1766.50	1953.94	2049.94	2215.06	2063.00	1878.88
853.88	815.00	800.62	778.75	775.62	790.12	831.50	866.50	800.38	744.25	738.88	755.50	770.25	799.75	923.62	1226.38	1183.88	1154.75	1078.38	1188.38	1090.50	879.75	811.75	972.25	1153.00	962.38	940.62	1037.88	1003.00	796.62	670.62	663.50	666.75	660.88	675.12	707.62	787.75	958.88	969.62	1241.75	1470.50	1420.75	1230.50	1269.38	1562.00	1450.12	1235.62	974.88	897.00	892.50	794.12	836.88	994.50	1069.25	1026.38	1003.25	898.38	826.00	922.50	963.50	887.88	905.75	1009.38	1011.62	1064.62	962.25	1015.25	1013.88	991.12	980.00	1029.12	1041.12	990.38	963.12	1002.00	1054.88	1003.38	1078.75	1098.38	1029.00	921.75	976.38	1054.12	1137.75	1122.00	1049.25	1041.38	922.25	931.50	1020.75	1059.25	1119.50	1173.50	1220.00	1220.12	1269.25	1264.62	1239.62	1137.25	978.88	974.75	1191.12	1356.75	1474.75	1773.12	2044.88	2110.00	2085.25	2020.50	1996.88	1761.88	1692.25	1793.62	1647.12	1353.75	1161.00	1119.50	867.50	716.25	522.00	536.25	627.62	708.50	827.25	795.62	793.25	646.88	663.12	792.38	890.88	1067.88	1373.75	1361.38	1265.00	1167.25	1263.38	1406.00	1464.75	1256.75	1148.62	1026.38	1042.62	1132.25	1020.12	1025.75	907.25	838.38	793.12	755.62	882.12	999.50	898.88	918.00	904.75	940.38	1105.75	1109.50	1094.62	976.75	923.25	957.25	976.62	996.88	1019.88	1037.62	1121.50	1068.25	1074.62	992.00	939.75	929.62	894.25	908.38	896.38	892.75	872.88	826.62	757.50	741.62	861.12	960.62	862.25	933.75	925.50	1043.00	1068.88	1132.62	1072.50	1100.00	1044.62	1031.62	1050.00	994.12	924.00	909.12	949.62	1064.25	1127.25	1149.25	1258.50	1149.00	1196.38	1215.12	1100.50	1022.12	1028.88	974.62	1031.38	1078.62	1159.38	1368.00	1550.25	1614.00	1680.25	1477.12	1340.38	1319.62	1261.38	1347.38	1435.00	1370.38	1259.25	1215.75	1180.75	1202.38	1198.00	1248.50	1257.62	1347.12	1419.00	1512.00	1593.62	1697.62	1577.38	1611.62	1516.62	1347.38	1288.62	1293.25	1240.00	1278.50	1300.75	1358.62	1350.62	1278.75	1208.12	1187.62	1234.38	1344.25	1504.50	1692.75	1955.88	1973.38	2149.50	2149.00	1998.25
830.19	809.62	801.56	790.19	779.81	775.38	783.44	815.19	789.62	739.06	827.94	796.81	866.31	881.44	930.44	1182.62	1244.69	1402.31	1244.50	1308.56	1105.25	854.31	967.31	1149.94	1200.00	1114.00	1141.12	1097.81	940.50	733.75	744.94	722.44	687.50	665.56	660.12	663.62	694.88	779.81	992.69	1242.56	1203.75	1262.69	1058.12	1178.25	1483.38	1485.00	1278.38	1063.19	1074.88	1001.75	803.38	766.44	925.94	1090.81	938.94	982.88	815.75	821.69	850.19	870.31	862.31	929.94	959.88	984.38	1030.19	920.25	923.56	930.06	907.56	996.19	1058.50	1018.62	983.50	1014.00	1040.25	1086.31	1001.56	1084.56	1113.44	1010.50	947.50	1026.31	1071.38	1157.38	1096.12	1011.44	942.94	917.00	960.56	1022.25	1089.06	1192.44	1170.69	1239.88	1240.56	1296.00	1178.00	1229.88	1169.62	943.62	924.56	1060.06	1188.62	1338.81	1620.50	1889.56	2023.81	1982.50	1894.56	2075.56	1846.19	1895.38	1757.56	1452.00	1251.44	1070.00	994.81	981.69	944.94	687.56	528.69	630.38	812.38	936.69	945.19	834.12	782.44	740.50	714.94	938.69	1191.00	1461.69	1594.44	1503.31	1308.00	1396.25	1567.75	1453.69	1087.19	1047.50	936.25	898.88	971.19	1066.25	967.62	890.38	876.25	746.62	833.56	957.81	1025.56	959.12	912.12	902.06	964.06	1100.31	1127.06	1037.44	1011.56	1022.31	931.88	907.88	958.12	964.81	1061.88	1080.69	1020.62	1020.12	1043.44	1006.25	957.19	964.00	979.81	974.88	956.00	914.12	833.38	730.75	739.25	827.69	942.69	886.19	887.00	912.75	969.94	1030.94	1116.31	1105.69	1140.94	1103.50	1080.31	1036.62	963.75	897.19	907.56	916.00	995.56	1033.38	1121.00	1224.69	1119.06	1187.56	1235.69	1168.94	1072.81	1108.12	1046.12	998.06	1038.06	1146.31	1351.38	1465.25	1510.81	1660.75	1591.88	1452.75	1310.25	1291.56	1388.19	1411.88	1320.31	1325.19	1283.69	1163.00	1170.06	1191.56	1256.00	1293.81	1282.19	1329.00	1403.81	1457.00	1522.81	1636.50	1574.69	1445.94	1310.62	1307.31	1331.62	1269.62	1239.88	1267.12	1285.25	1271.75	1234.44	1210.62	1192.88	1223.12	1307.25	1475.88	1654.75	1745.38	1817.38	2005.62	2086.31	2072.25
812.44	807.44	797.44	787.12	790.94	790.12	757.50	787.56	745.25	811.06	913.56	812.62	932.31	1055.69	1057.75	1219.31	1435.88	1491.94	1443.75	1216.75	950.94	926.00	1098.50	1205.88	1358.25	1280.06	1160.25	1079.06	819.00	783.31	956.56	921.00	748.50	689.06	655.44	652.25	655.00	684.69	872.75	993.38	1093.62	1180.94	964.94	1189.56	1403.25	1446.12	1210.88	1182.38	1144.62	1037.62	831.25	760.00	980.31	1031.88	847.50	823.69	821.44	868.69	939.44	917.81	898.38	877.62	904.19	1029.81	1004.88	922.00	881.75	861.81	952.31	1006.12	981.12	991.31	1046.81	1133.56	1125.25	1184.31	1109.88	1131.44	1054.81	1007.81	971.62	1080.62	1123.19	1107.25	1067.69	1026.62	928.75	972.19	1026.00	975.56	1063.12	1152.69	1214.69	1164.25	1106.25	1193.00	1124.06	1081.31	1183.31	944.69	899.25	985.38	1124.50	1267.69	1462.88	1864.56	2068.81	1906.81	1651.62	1764.00	1900.44	1901.12	1664.75	1446.44	1225.75	1095.06	1004.12	844.12	801.88	801.38	589.81	503.62	549.94	774.31	992.69	1000.62	909.44	922.81	825.00	935.44	1199.06	1434.69	1640.50	1643.81	1575.44	1520.56	1478.44	1383.44	1177.00	1127.44	995.81	891.94	937.69	1123.38	1022.44	865.88	753.31	745.44	852.00	938.69	1010.06	983.94	968.50	986.12	1056.81	1191.94	1117.06	1132.12	1113.94	1088.12	1079.94	970.50	906.88	941.81	954.50	982.94	919.31	907.88	908.56	889.62	834.19	847.75	866.81	886.38	896.69	878.38	861.31	787.00	713.38	728.00	787.00	854.81	897.94	985.81	968.38	1003.75	1067.88	1142.56	1157.81	1167.12	1127.25	1017.88	917.69	920.69	978.12	913.88	934.12	969.75	1034.12	1106.56	1107.56	1228.88	1189.62	1131.62	1145.88	1115.06	1117.00	1028.38	1003.69	1096.88	1211.44	1264.44	1470.31	1576.56	1565.56	1363.31	1267.50	1382.69	1454.06	1359.00	1363.25	1384.56	1310.56	1157.88	1155.81	1196.75	1239.12	1245.56	1301.94	1300.00	1367.06	1401.88	1489.38	1659.81	1614.44	1510.50	1326.00	1362.88	1386.50	1363.75	1261.50	1319.12	1308.31	1286.06	1222.75	1201.94	1196.94	1227.56	1261.75	1374.00	1517.31	1643.25	1699.38	1839.31	1948.56	2115.75
803.19	807.00	800.44	797.06	798.12	795.00	766.62	759.25	764.06	948.62	915.12	884.06	867.25	961.19	1094.62	1344.62	1428.44	1358.56	1308.75	1065.69	935.12	1130.75	1104.62	1230.12	1403.06	1231.56	1051.00	907.69	751.31	907.62	1065.06	1070.50	906.44	776.56	664.06	659.81	677.25	652.25	715.94	838.25	981.19	884.75	991.38	985.44	1083.00	1371.44	1321.50	1147.00	1047.38	929.00	766.12	778.81	933.44	764.25	770.88	825.81	948.12	1012.81	1018.12	1020.75	987.00	893.56	944.12	1024.81	951.56	902.56	831.12	909.88	920.75	906.31	948.69	1047.69	1157.00	1131.50	1165.56	1119.12	1186.62	1215.00	1105.00	1066.31	999.75	1078.75	1150.44	1057.88	998.06	929.44	972.25	987.88	1072.25	981.94	1051.38	1119.44	1160.00	1056.69	993.25	993.38	967.81	932.38	974.81	867.38	926.00	1078.00	1064.81	1118.50	1385.62	1689.00	1964.06	1834.88	1474.69	1452.50	1631.94	1896.75	1787.00	1449.06	1375.56	1378.94	1293.00	1102.81	813.31	643.56	579.81	517.38	498.81	733.88	979.25	1150.69	1090.00	954.50	1007.94	898.81	930.81	1108.69	1232.75	1365.44	1584.81	1567.56	1535.19	1368.12	1287.25	1177.25	1077.56	929.12	811.25	919.19	959.06	897.62	736.88	796.81	908.56	894.81	951.56	1006.19	1048.31	1035.12	1152.12	1172.31	1085.75	1129.88	1152.50	1026.38	1058.56	986.56	921.75	906.62	863.88	875.50	856.25	820.12	794.69	800.31	828.94	791.19	781.25	778.19	768.19	745.88	770.62	799.38	789.88	729.00	760.38	960.19	872.94	947.31	1053.56	1023.25	1093.12	1113.12	1096.12	1120.62	1082.50	1026.56	908.31	986.56	1019.12	944.19	915.44	929.75	974.94	1028.12	1090.38	1106.19	1087.88	1187.38	1233.25	1172.94	1167.75	1101.31	1021.50	1018.12	1081.06	1227.50	1262.88	1352.19	1276.19	1315.19	1235.69	1365.44	1502.12	1433.56	1408.75	1297.50	1221.19	1135.44	1176.81	1316.62	1315.56	1237.94	1264.00	1342.06	1355.81	1446.81	1556.75	1604.19	1452.00	1383.88	1352.62	1496.38	1499.56	1410.31	1378.06	1420.50	1400.00	1361.75	1252.38	1209.69	1219.62	1216.75	1242.12	1294.75	1344.75	1481.94	1597.75	1831.94	1946.38	1952.12
797.88	804.19	803.38	806.69	793.19	792.94	752.81	769.94	880.06	1029.62	936.88	940.25	967.50	985.94	1190.69	1360.12	1291.31	1182.19	1147.88	943.50	1053.88	1259.56	1156.56	1370.12	1279.19	1085.50	947.75	807.69	826.06	1024.50	1088.94	1083.12	953.81	786.62	689.69	726.25	683.38	663.06	659.19	770.62	883.31	762.56	947.50	881.81	952.81	1113.06	1234.62	1178.62	1098.75	919.69	743.12	875.94	839.12	765.31	812.62	923.62	1006.06	1066.19	1013.06	1073.56	1042.00	972.38	980.44	1000.50	907.94	874.38	825.81	862.38	866.81	886.56	951.00	1066.12	1174.31	1024.06	1031.12	1025.88	1118.88	1182.44	1185.62	1059.38	1037.50	1051.94	1131.56	1054.00	1002.38	960.75	1072.38	1034.62	1100.31	1041.44	1147.38	1217.94	1149.44	1099.69	989.81	948.38	955.94	875.81	852.56	808.12	896.62	1083.88	971.50	1110.81	1259.81	1445.06	1754.31	1685.00	1382.12	1299.69	1588.19	1747.88	1708.94	1619.25	1684.25	1685.44	1564.75	1341.75	943.56	651.00	563.19	513.88	497.31	639.44	804.25	1011.25	1124.69	1088.00	1184.38	1057.88	1056.38	1104.81	1250.50	1380.81	1476.06	1306.00	1448.00	1307.69	1129.12	1016.31	906.88	871.19	824.56	791.56	788.94	821.69	716.19	860.69	994.50	999.75	1038.12	1050.06	1072.00	1104.69	1135.50	1074.00	1046.81	1043.19	1101.94	1048.62	987.94	942.00	867.50	853.19	837.44	839.81	834.00	830.50	862.06	911.75	908.00	852.88	898.31	901.38	863.25	815.06	739.62	726.12	751.94	717.88	750.38	998.12	971.00	947.31	948.31	986.81	1103.38	1125.31	1061.38	1074.00	1036.06	970.94	972.69	1033.75	1036.19	949.25	945.25	927.62	952.81	991.00	1032.69	1055.81	1094.31	1210.56	1179.50	1199.88	1230.56	1148.00	1085.31	1034.31	1025.69	1070.00	1120.69	1201.50	1179.44	1275.81	1236.62	1226.25	1389.00	1421.06	1304.62	1240.19	1152.44	1133.44	1208.19	1350.81	1371.06	1262.62	1249.56	1293.81	1354.19	1514.06	1522.94	1499.56	1416.44	1395.62	1368.38	1456.56	1537.44	1411.50	1392.94	1471.62	1461.75	1430.31	1294.12	1243.69	1230.50	1218.00	1230.38	1256.88	1297.19	1359.62	1531.94	1672.88	1806.62	1767.50
782.94	790.75	794.00	798.81	789.88	767.31	743.06	855.00	1066.31	1122.06	1028.19	941.69	1060.00	1065.06	1157.38	1162.00	1097.81	1068.69	968.19	1082.81	1217.75	1311.12	1340.31	1440.44	1282.06	1138.81	839.69	822.12	1031.31	1268.31	1228.50	1014.00	814.00	705.31	845.62	784.56	691.44	689.69	677.50	649.06	684.88	705.25	789.81	767.62	857.06	1064.88	1151.75	1110.88	1050.12	863.00	708.19	773.88	775.56	907.88	987.94	958.88	1083.69	1151.19	1034.06	1142.62	1123.69	1054.88	934.88	938.06	899.75	823.19	794.94	842.25	861.62	918.44	1006.12	1146.00	1132.50	1007.94	930.81	1016.06	1066.75	1044.38	1086.81	1000.81	965.06	991.31	1071.44	1112.38	1041.25	985.50	1099.00	1091.62	1145.50	1137.25	1183.94	1225.00	1148.25	1098.12	1127.38	1038.12	1066.88	1006.25	899.94	882.62	803.12	905.56	952.25	1077.81	1069.19	1248.38	1393.88	1368.00	1220.38	1122.56	1307.50	1407.50	1751.88	1798.00	1621.69	1667.00	1414.56	1153.62	816.19	611.69	516.94	500.75	627.44	756.75	828.75	981.56	1334.69	1389.56	1436.50	1415.38	1422.38	1313.25	1219.31	1325.06	1334.62	1097.56	1230.50	1364.94	1306.94	1180.06	1079.12	998.38	922.94	915.69	845.75	712.19	681.56	850.50	868.56	885.38	897.06	908.06	950.25	1033.88	1124.69	1125.25	1095.12	1050.62	974.56	965.31	919.88	926.69	980.00	957.69	966.81	997.44	1013.38	1014.38	1039.62	995.88	936.19	963.94	990.00	1001.62	986.00	916.19	825.38	760.75	695.38	728.69	842.06	901.50	991.44	1060.19	980.00	989.62	1022.12	977.50	995.88	963.12	955.88	933.38	1065.56	1189.88	1080.81	978.81	985.81	975.12	952.44	963.81	990.19	1014.69	1059.44	1079.94	1140.19	1219.88	1275.00	1228.25	1167.69	1134.06	1110.25	1061.38	1041.56	1066.88	1093.88	1144.88	1171.44	1162.00	1208.25	1241.69	1185.75	1149.19	1125.19	1171.12	1281.62	1381.81	1379.06	1331.00	1334.31	1327.88	1332.81	1456.94	1556.31	1529.38	1455.00	1459.62	1417.62	1428.88	1447.06	1416.69	1439.69	1467.44	1464.75	1436.62	1346.00	1260.81	1238.19	1225.69	1228.69	1245.12	1259.88	1286.50	1352.19	1439.88	1537.81	1570.19
761.88	769.38	782.25	785.56	767.00	752.94	741.81	838.31	1142.00	1148.56	1058.06	949.69	1020.25	1182.19	1209.06	1072.06	1030.38	991.50	1096.38	1093.00	1303.12	1291.25	1339.94	1321.50	1133.19	954.25	794.69	961.69	1074.81	1327.88	1246.44	1013.44	778.56	735.06	963.88	810.69	677.56	663.00	667.94	659.19	649.88	662.88	701.06	728.19	822.44	969.38	1164.94	1113.31	1013.69	838.62	700.31	719.12	890.94	1016.56	1106.06	987.19	1074.12	1164.00	1079.06	1143.38	1093.88	1025.62	910.75	914.00	865.12	792.94	824.00	840.38	856.69	918.81	939.62	1082.94	1073.69	1046.19	965.00	936.69	990.44	1046.50	1043.31	966.12	900.69	964.00	1026.19	1099.12	1035.94	1012.19	1117.81	1142.06	1128.56	1105.19	1036.19	1070.69	1055.94	1033.69	1110.31	1064.81	1105.81	981.12	973.44	1011.94	796.88	808.19	895.75	955.69	946.94	1106.44	1232.38	1173.88	1118.81	1032.62	1248.88	1298.50	1753.19	1772.31	1403.31	1398.81	1289.00	1003.25	713.50	575.56	496.88	545.62	732.62	951.19	993.31	1083.94	1362.19	1326.25	1366.25	1377.19	1284.25	1063.88	1034.88	1292.38	1218.06	980.56	1161.81	1424.88	1318.31	1198.19	1079.25	979.38	996.81	954.50	837.31	718.69	669.12	783.38	805.00	869.81	885.19	861.19	910.00	1019.62	1142.12	1110.50	1110.69	1041.12	952.88	914.69	931.12	975.88	1052.25	1026.75	1045.44	1027.88	1040.06	1022.31	978.44	977.56	977.44	982.12	924.88	888.44	903.44	885.62	834.50	776.69	690.94	774.69	924.31	967.44	965.25	1078.56	1056.69	1094.19	1076.25	996.38	940.88	931.19	923.25	935.25	1068.81	1164.69	1135.38	999.62	1004.12	1035.31	1001.19	988.44	988.44	994.00	1014.62	1091.38	1115.31	1130.94	1180.81	1185.50	1122.19	1164.94	1190.62	1154.50	1102.94	1068.94	1061.38	1072.31	1092.44	1119.69	1132.44	1144.94	1101.94	1109.12	1137.44	1252.06	1262.75	1375.25	1405.94	1392.31	1404.50	1375.81	1327.00	1359.81	1438.19	1436.25	1444.06	1508.38	1495.69	1494.94	1460.44	1355.44	1369.38	1423.94	1441.50	1447.50	1337.44	1311.12	1249.44	1238.50	1221.81	1236.62	1241.88	1248.81	1261.00	1336.75	1377.38	1424.44
775.62	754.31	755.94	757.81	750.62	754.25	762.19	853.56	1010.62	989.81	1010.31	1057.19	1083.56	1165.69	1133.94	1013.25	1019.56	1104.19	1154.25	1182.44	1318.50	1119.94	1127.69	1050.88	919.81	809.25	920.56	968.50	1088.69	1171.81	1146.06	859.19	742.38	912.44	1003.81	801.56	792.44	705.06	639.31	638.19	659.75	646.31	644.69	665.19	706.56	837.00	1129.38	1044.31	956.94	870.50	690.62	763.12	996.44	1136.94	1191.56	1134.31	1136.50	1196.38	1206.31	1110.12	1034.50	907.06	922.06	856.88	807.00	779.38	858.75	895.94	919.88	910.88	917.56	978.19	993.31	979.62	939.19	862.19	970.38	995.00	936.12	903.88	900.06	969.38	942.12	1028.62	1069.44	1037.50	1102.94	1081.12	999.69	982.06	891.50	878.56	901.00	1006.06	1002.44	1000.75	1113.56	1001.50	1087.44	1092.19	861.56	928.81	1055.62	973.75	852.06	928.06	1117.00	1078.81	947.38	973.81	1235.62	1254.19	1542.00	1627.75	1279.62	1115.94	1208.12	1027.00	709.44	547.56	494.75	541.00	729.50	897.75	1083.06	1138.62	1162.19	1022.31	1154.12	1255.31	1028.19	858.44	1080.00	1198.12	1034.69	949.94	1263.06	1306.94	1178.69	1089.94	1131.75	986.75	916.00	900.88	765.62	673.50	691.56	865.44	865.69	965.75	984.38	944.25	934.25	1008.25	1131.19	1079.12	1072.06	1035.75	971.00	961.94	971.94	1071.56	1132.62	1085.06	1048.81	956.62	916.62	898.69	876.88	854.81	851.06	872.31	869.88	797.75	771.50	763.94	766.19	746.12	680.06	772.88	866.81	979.75	969.94	1008.88	1132.56	1175.75	1154.06	1094.19	1033.62	1026.31	981.75	941.25	1007.69	1067.00	1074.88	993.94	1002.50	1092.19	1087.44	1049.00	1048.75	1014.00	997.44	1033.44	1055.81	1073.06	1101.25	1098.69	1149.12	1280.88	1270.12	1244.94	1210.94	1185.81	1110.81	1064.31	1077.94	1088.06	1080.06	1082.38	1101.56	1139.00	1194.44	1351.06	1319.19	1356.69	1425.19	1454.19	1467.69	1446.06	1388.62	1323.31	1370.75	1433.88	1524.81	1536.69	1573.19	1556.56	1560.50	1410.19	1358.12	1441.56	1372.81	1392.81	1307.44	1342.25	1316.50	1314.06	1242.88	1223.25	1222.44	1227.56	1235.38	1266.12	1306.31	1356.88
854.00	852.88	807.88	791.62	819.62	800.62	777.75	841.62	881.88	889.00	983.00	1070.75	1136.88	1086.00	1060.00	1147.62	1055.25	1148.25	1210.00	1220.00	1129.50	1097.88	983.25	948.00	826.62	916.25	1123.88	1068.88	1136.62	936.00	795.25	758.38	963.75	1141.62	935.25	789.25	983.00	798.38	787.50	694.88	675.50	636.38	638.12	641.25	640.50	713.62	903.50	1057.88	871.75	718.00	674.62	808.12	1032.88	1013.00	1050.75	1017.88	1157.12	1081.00	1197.50	1075.50	972.50	955.38	850.62	835.75	747.00	818.38	898.88	922.12	905.75	861.12	902.50	852.50	893.00	930.12	868.88	834.75	914.12	876.25	849.62	852.00	928.50	890.50	987.00	1011.88	1031.00	1098.62	1122.50	1030.88	947.62	962.00	904.38	811.00	845.25	1086.00	889.38	945.38	1017.88	1099.12	1179.75	1040.88	1040.75	1323.88	1553.25	1435.38	1138.12	849.38	1056.25	1128.62	912.12	839.25	1061.50	1143.50	1154.25	1179.88	1011.50	843.38	867.12	842.38	805.25	535.38	495.00	491.75	533.62	644.50	843.00	961.62	998.38	871.62	972.50	1183.88	1053.38	836.88	1102.00	1177.12	823.00	906.50	1044.62	1134.38	1078.88	985.25	1039.38	1036.12	918.38	790.12	667.88	638.50	782.75	856.12	1022.38	1050.12	1005.00	996.12	1034.00	1041.75	1080.75	1099.88	995.75	974.50	996.00	1002.38	1045.12	1132.25	1149.88	1116.75	1001.62	909.25	882.50	931.25	970.25	889.00	936.75	967.25	925.38	860.12	886.88	844.00	827.12	741.50	662.75	704.38	779.88	898.38	1005.00	1064.00	1154.00	1051.88	1176.00	1159.00	1096.00	1031.38	977.38	975.38	1031.25	1098.38	1029.00	994.50	1008.25	1060.75	1120.38	1177.75	1205.38	1132.12	1069.50	1013.62	1048.12	1075.12	1073.50	1083.50	1132.25	1215.12	1295.75	1398.75	1353.88	1292.50	1207.75	1199.38	1177.62	1146.50	1115.62	1127.38	1164.62	1168.00	1200.25	1292.12	1360.38	1342.50	1440.00	1545.75	1580.62	1526.25	1479.38	1357.75	1450.50	1488.88	1540.25	1605.88	1487.38	1436.50	1546.00	1416.62	1324.50	1329.00	1349.75	1403.00	1278.12	1306.12	1320.75	1296.62	1316.12	1230.25	1223.75	1244.38	1218.25	1229.62	1265.50	1295.75
959.75	929.88	871.19	872.81	882.31	860.06	812.25	833.50	842.00	848.19	932.75	1059.44	1144.31	1104.81	1156.06	1192.38	1120.69	1162.12	1213.19	1169.75	1056.75	1004.19	937.75	850.12	989.62	1024.62	1121.94	1147.88	980.88	861.56	747.06	865.56	1114.88	1264.19	928.38	879.75	865.38	860.44	1032.31	1007.06	826.56	659.19	646.25	647.81	637.19	653.06	777.38	826.88	735.19	671.81	712.25	907.31	906.25	868.38	997.56	887.12	955.88	950.25	1125.25	1050.88	906.88	923.50	916.25	766.88	751.00	903.25	971.56	924.31	911.44	882.69	843.94	896.06	828.94	916.88	923.19	818.00	912.62	855.56	808.88	842.62	849.56	866.00	923.06	949.38	1000.94	1122.38	1145.62	1032.25	972.44	887.19	898.81	851.06	786.25	888.94	812.81	847.31	928.19	1067.81	1242.81	1171.81	1267.94	1541.31	1733.31	1686.44	1251.12	867.94	1032.19	1307.12	1074.06	781.44	818.06	976.12	975.69	1006.06	855.62	692.44	659.81	656.69	640.06	508.56	495.44	494.31	498.75	541.69	706.56	828.62	882.69	760.75	963.69	983.12	845.50	759.50	1017.25	897.50	777.75	930.88	1122.12	1143.94	988.00	955.88	942.62	971.75	830.75	754.38	637.81	679.69	878.50	941.50	1038.56	914.62	860.19	914.06	996.31	1050.50	1062.81	1047.94	1026.56	1034.88	1014.44	1059.38	1088.94	1058.19	1013.31	969.31	921.88	949.62	993.50	999.88	915.44	955.00	1047.50	1010.81	951.94	956.38	926.06	846.12	821.12	775.19	688.62	678.44	777.12	852.00	974.38	954.25	1060.00	1006.19	1160.06	1136.88	1072.81	1021.44	1045.06	1013.12	1014.44	1066.75	1063.56	1032.81	1044.12	1082.81	1165.38	1229.75	1186.25	1158.44	1075.25	1040.69	1100.19	1159.19	1141.44	1130.38	1114.56	1140.81	1217.00	1303.19	1413.38	1379.69	1382.69	1300.00	1252.94	1189.19	1235.81	1179.88	1185.19	1161.25	1188.94	1298.00	1381.25	1406.25	1399.44	1543.50	1605.81	1562.44	1485.88	1460.50	1525.75	1534.12	1483.25	1516.06	1470.25	1402.31	1475.06	1421.44	1333.38	1279.19	1341.25	1361.25	1270.56	1304.19	1325.69	1261.75	1333.50	1295.81	1266.69	1330.56	1227.62	1210.69	1225.31	1248.06
994.25	906.94	968.31	945.06	886.56	842.75	822.06	811.25	822.25	831.38	919.00	1088.94	1202.62	1134.75	1238.31	1217.25	1164.25	1087.75	1132.81	1076.19	1067.75	946.31	871.56	888.44	1055.81	1198.62	1127.25	1082.94	949.56	764.56	836.31	1016.31	1220.38	1149.94	927.81	1004.12	955.56	989.00	1080.69	1020.06	866.81	686.00	642.00	638.88	636.44	637.62	728.62	735.25	659.56	652.38	741.00	912.62	853.81	884.19	798.56	818.31	858.12	952.25	1083.19	1048.88	958.88	838.94	792.12	723.31	833.06	930.62	946.69	948.25	869.88	907.25	827.12	893.75	853.44	826.94	888.94	788.00	844.00	795.75	805.81	817.69	868.31	916.38	934.50	1010.69	1091.44	1077.62	1030.44	1044.19	963.81	876.25	828.19	828.69	836.69	792.00	726.12	786.44	956.81	918.31	1229.81	1204.75	1403.50	1738.06	1860.19	1643.06	1296.19	943.31	853.56	1134.56	1060.00	803.69	684.81	881.50	891.62	761.19	677.44	584.50	557.12	533.81	507.44	499.44	496.44	492.44	495.44	495.94	537.44	630.81	744.88	687.38	893.69	869.06	902.75	682.94	806.31	738.81	986.88	1107.38	1091.25	965.88	861.06	870.75	872.25	918.31	746.19	662.56	620.19	764.44	954.44	1048.62	1070.62	841.75	903.00	925.69	1035.81	1034.50	1082.69	1115.19	1082.62	1097.00	1035.12	1085.31	1111.25	1003.69	950.62	935.44	948.19	1015.62	984.62	936.88	969.50	1028.12	1063.62	1003.06	955.62	920.38	898.81	880.44	879.31	856.56	749.12	665.31	733.12	785.75	841.25	879.94	933.06	996.50	1105.38	1134.31	1124.12	1062.75	1088.25	1046.44	1063.38	1056.81	1109.50	1107.88	1085.50	1125.25	1157.88	1171.44	1115.88	1063.31	1146.38	1131.00	1113.75	1239.38	1235.94	1194.19	1183.62	1143.75	1155.31	1192.50	1272.69	1305.75	1405.31	1376.06	1341.69	1261.06	1307.88	1283.06	1266.31	1223.94	1224.12	1257.06	1328.00	1426.00	1456.06	1471.00	1602.25	1617.12	1489.19	1553.00	1591.69	1625.25	1504.56	1393.94	1419.38	1373.38	1492.75	1436.88	1355.62	1294.06	1303.12	1336.50	1238.69	1293.06	1315.50	1253.25	1263.50	1377.69	1276.81	1285.56	1231.69	1187.56	1177.25	1214.50
1085.00	932.00	1019.12	934.38	913.50	889.12	830.50	804.75	810.38	822.62	867.12	985.75	1118.50	1204.12	1200.50	1152.25	1069.25	1124.75	1052.00	1032.50	928.75	874.25	876.62	988.88	1007.12	1122.62	950.00	900.62	818.75	829.88	950.88	1013.25	1128.38	1126.88	1183.88	1150.75	969.00	1002.00	1010.12	882.62	767.50	679.62	689.50	642.00	636.25	638.12	639.88	656.00	636.12	650.62	721.25	744.75	738.12	742.75	776.62	994.50	983.38	1053.88	980.50	906.50	955.62	885.25	748.75	733.62	920.25	957.25	853.62	949.75	863.25	811.50	837.25	791.00	804.12	773.00	783.25	756.25	780.75	819.75	893.12	893.12	843.62	913.50	978.62	1022.12	1113.38	1080.12	1032.38	969.75	1097.75	1009.25	969.12	997.62	941.00	901.88	848.25	785.75	751.00	904.38	1115.25	960.12	1180.88	1362.25	1412.25	1385.00	1266.38	1004.62	773.50	888.75	1076.25	845.00	673.38	642.00	644.75	606.25	550.88	505.12	498.38	496.00	495.38	494.25	498.50	492.88	494.62	492.00	491.62	498.00	522.50	544.25	600.25	594.88	656.25	600.75	616.62	809.50	985.12	844.25	882.38	900.25	892.38	759.50	753.12	809.50	705.12	619.75	617.50	714.00	796.88	977.00	919.38	790.25	894.50	931.88	933.25	887.25	912.88	1063.50	1101.75	1102.62	1049.62	1115.12	1161.25	1033.12	978.00	1055.25	1029.25	978.38	947.50	964.50	1009.38	926.50	895.62	864.38	836.50	938.38	950.75	847.25	813.12	832.25	772.38	677.50	793.12	836.88	871.62	903.62	937.12	1038.12	1032.62	1057.12	1128.38	1137.88	1148.88	1128.75	1106.12	1128.12	1161.00	1148.75	1172.50	1184.88	1129.75	1124.25	1084.38	1124.38	1208.50	1203.50	1114.12	1129.25	1197.12	1285.25	1285.75	1238.75	1201.75	1220.88	1220.25	1298.62	1307.00	1304.50	1337.25	1264.50	1315.12	1325.25	1320.25	1283.12	1293.62	1251.00	1295.00	1367.75	1412.25	1554.50	1647.62	1695.00	1625.25	1659.75	1657.62	1593.75	1490.62	1415.62	1331.75	1321.50	1466.50	1429.00	1323.25	1293.00	1262.25	1332.88	1243.75	1235.75	1257.38	1218.12	1288.62	1361.38	1283.50	1236.12	1189.25	1172.62	1205.38	1186.12
1085.50	1019.94	1057.94	1016.19	1040.06	959.56	906.75	857.12	837.19	837.12	869.81	912.19	986.19	1115.31	1094.25	1091.38	1026.69	1072.75	1006.56	940.50	892.81	932.38	953.94	990.56	1060.25	1076.06	1008.62	821.50	796.19	1015.12	983.44	1027.38	1078.56	1241.31	1264.31	1042.75	924.06	871.62	885.56	862.06	750.00	675.75	754.62	653.25	645.62	650.31	638.12	626.81	629.00	663.62	687.69	678.62	674.12	674.69	724.75	804.88	890.81	976.69	951.31	838.75	819.88	755.25	695.75	794.31	931.19	927.19	836.94	824.44	883.06	807.38	755.62	726.94	731.00	753.75	754.50	780.00	879.44	862.00	928.75	953.81	922.38	923.88	971.81	1014.62	1046.19	947.38	1017.88	926.88	928.62	1017.88	1003.00	1115.44	1032.44	1093.50	1055.94	873.50	726.69	700.12	797.00	784.94	985.69	1076.38	1021.31	1106.38	1066.06	917.12	706.38	686.62	910.88	779.56	646.62	600.00	587.00	562.38	514.44	498.12	519.31	542.06	512.94	526.31	536.44	530.69	530.44	516.19	501.44	500.62	496.19	499.50	501.62	498.75	501.38	539.81	586.62	722.25	721.19	745.38	846.81	749.81	895.94	832.81	714.25	699.56	656.69	602.69	645.81	828.25	931.81	974.75	827.62	749.38	895.69	892.94	807.06	812.88	843.56	852.25	904.94	1028.81	1011.81	1082.19	1088.88	1039.44	1077.06	1130.81	1042.06	994.56	1019.38	976.19	907.25	847.62	824.00	817.88	825.75	946.81	931.94	846.44	793.12	715.69	664.38	690.81	835.44	900.19	920.81	967.44	984.44	972.56	1058.00	1090.56	1157.44	1209.75	1167.06	1174.62	1152.56	1128.00	1160.31	1104.44	1197.44	1203.94	1173.88	1177.44	1104.12	1140.56	1184.69	1124.44	1180.88	1177.38	1155.75	1199.19	1265.62	1302.25	1258.06	1253.56	1256.44	1295.25	1214.50	1230.31	1183.81	1236.38	1281.75	1281.81	1380.56	1412.75	1402.88	1267.94	1270.25	1342.88	1337.69	1425.94	1606.19	1550.25	1620.56	1631.81	1671.00	1547.25	1522.94	1462.19	1358.62	1300.69	1308.62	1338.56	1284.56	1302.50	1235.69	1263.75	1219.31	1202.12	1203.19	1205.31	1289.69	1319.50	1243.31	1219.31	1244.94	1253.56	1265.56	1189.00
1104.75	1133.38	1138.81	1126.56	1095.50	1030.00	981.81	955.69	867.44	863.69	951.81	1014.25	1065.00	1102.00	1050.00	1018.06	1013.00	969.69	937.94	896.69	931.56	1068.94	1020.44	1049.44	1006.06	1011.19	892.75	785.44	852.38	1064.06	1102.88	1054.38	1093.12	1174.00	1153.12	1010.50	910.44	864.19	822.12	840.94	709.50	706.75	874.44	683.25	647.19	639.25	634.94	621.44	629.44	648.12	653.50	646.19	645.81	645.38	670.50	711.38	770.06	814.12	951.81	961.31	822.06	685.62	723.94	876.62	977.56	942.50	903.88	845.44	773.31	738.00	710.06	777.38	800.62	849.12	823.44	828.56	940.94	909.62	931.75	966.31	997.75	984.50	1050.31	1067.62	954.81	895.31	945.94	958.88	812.50	886.75	990.94	1092.81	1110.19	1220.31	1098.81	881.50	802.94	696.25	615.62	684.44	914.94	885.94	777.00	836.50	985.62	932.12	764.38	596.12	684.50	694.00	627.88	578.62	559.56	540.44	505.69	551.50	588.94	615.69	577.06	589.31	591.19	601.56	584.69	576.06	567.81	541.12	527.69	521.81	506.44	499.62	500.19	506.44	550.94	604.75	589.81	756.50	818.12	693.81	886.44	884.69	799.88	675.31	615.06	583.56	665.25	770.62	931.38	799.50	708.75	731.69	890.75	862.44	770.69	823.94	795.88	769.56	823.38	894.69	902.94	1021.19	1071.06	1118.94	1184.56	1122.00	1121.69	1129.81	1102.44	925.69	828.94	849.38	912.62	885.81	786.00	814.25	831.31	876.88	849.56	673.94	642.31	739.31	813.62	897.88	955.88	1047.12	915.06	997.00	1087.69	1161.56	1201.75	1186.56	1146.62	1164.88	1149.75	1081.56	1084.88	1092.56	1219.75	1279.25	1249.31	1199.00	1143.56	1149.62	1192.88	1125.50	1174.25	1245.56	1247.75	1215.25	1229.62	1210.81	1205.38	1245.50	1261.62	1214.25	1191.00	1229.00	1141.75	1216.69	1203.50	1310.12	1363.69	1426.81	1401.88	1266.94	1280.88	1421.44	1419.44	1484.44	1461.88	1451.00	1550.94	1561.00	1614.50	1540.25	1620.06	1555.50	1408.94	1357.31	1251.44	1258.12	1219.12	1246.44	1206.81	1197.31	1236.06	1204.75	1171.25	1189.62	1251.00	1277.19	1232.50	1225.81	1285.19	1303.38	1223.38	1212.81
1053.38	1090.69	1124.06	1082.81	1116.25	1135.50	1077.25	1025.38	912.81	894.38	987.19	1090.19	1155.00	1158.31	1044.00	967.38	946.69	932.75	912.69	939.69	956.75	1097.38	1046.94	1005.12	939.44	946.88	836.56	834.50	845.19	1001.12	1162.75	1102.06	1169.06	1122.75	1044.12	971.69	970.94	901.12	830.19	763.00	688.94	766.56	876.56	705.69	692.44	634.81	631.12	623.88	620.88	620.62	635.62	628.69	632.69	631.00	639.88	657.56	700.25	759.62	885.38	891.56	770.75	666.25	758.06	929.94	970.81	914.19	822.50	812.06	705.75	708.00	774.69	831.19	846.50	912.50	865.81	856.31	928.75	929.00	935.56	994.44	1047.44	1034.56	1064.62	1062.38	972.31	935.38	867.94	870.81	834.19	859.81	1020.06	989.81	1007.69	994.38	1051.25	910.50	846.75	803.44	611.44	615.56	801.06	706.06	655.69	633.56	716.12	770.56	669.81	559.69	540.12	550.62	548.94	538.75	527.25	513.81	527.12	665.44	683.38	702.94	659.50	679.06	654.69	752.00	677.38	716.62	730.88	669.19	573.50	550.88	535.38	512.50	508.31	504.56	510.44	517.50	528.38	629.19	689.25	645.12	809.44	780.69	709.00	656.38	615.56	575.31	728.50	870.38	909.62	799.50	670.75	792.38	867.50	808.50	744.38	779.12	752.06	828.94	816.44	831.50	846.25	903.56	972.62	1100.62	1158.44	1151.88	1200.56	1110.31	1070.38	892.19	890.62	971.56	922.94	854.50	837.94	854.69	752.62	833.44	780.62	651.56	679.25	808.00	869.06	931.50	1005.88	1079.88	907.94	990.25	1025.88	1097.69	1129.31	1189.50	1135.19	1092.44	1122.88	1120.31	1028.56	1111.81	1158.00	1295.56	1330.44	1247.62	1205.00	1191.25	1224.75	1178.06	1218.12	1185.62	1244.75	1284.88	1295.75	1208.50	1134.50	1159.19	1211.81	1156.81	1236.19	1175.81	1114.88	1120.94	1241.12	1260.00	1271.38	1370.25	1331.62	1259.81	1219.38	1347.38	1421.62	1453.25	1367.62	1356.25	1410.12	1557.00	1572.81	1487.06	1544.19	1585.00	1506.25	1384.94	1267.19	1394.00	1455.38	1258.75	1215.75	1260.19	1307.12	1262.19	1212.88	1172.56	1188.06	1219.31	1198.62	1208.19	1269.25	1262.56	1192.44	1271.44
1037.44	1070.75	1034.00	995.19	1024.25	1094.44	1146.88	1107.56	997.19	943.12	1018.00	1117.06	1090.19	1048.50	1008.06	1014.38	994.81	996.25	943.44	1004.38	988.50	1057.31	978.19	958.50	944.81	873.69	813.25	922.25	965.56	941.50	1073.62	1121.19	1208.62	1094.69	996.44	906.62	945.19	927.81	824.69	729.50	705.25	824.06	782.62	772.69	793.56	645.31	632.19	630.75	620.25	617.69	600.88	612.56	631.81	640.88	631.50	635.19	649.75	723.19	826.12	871.06	706.19	674.31	785.69	857.75	818.25	773.44	727.62	686.88	729.94	796.25	839.56	873.88	930.88	944.56	915.25	925.44	975.62	978.69	973.12	1053.25	1049.88	1022.12	1000.62	1073.81	1053.94	968.75	917.81	812.50	766.62	788.12	907.56	922.31	992.12	882.44	986.19	954.31	905.50	861.62	684.56	571.38	587.75	584.56	566.88	540.19	528.12	537.69	521.62	513.94	500.62	499.44	498.12	523.62	535.44	524.69	548.50	656.06	781.69	877.88	834.81	833.19	711.56	792.69	688.50	799.38	857.00	702.00	599.75	567.12	654.69	558.38	555.69	528.62	514.75	508.56	508.69	525.50	541.69	636.25	724.88	681.94	637.50	627.00	582.56	580.62	788.50	882.81	808.56	706.50	630.50	698.88	731.06	718.38	692.56	729.00	812.25	897.06	955.62	934.75	926.69	925.88	929.06	1050.62	1085.56	1099.12	1133.81	1019.00	920.94	871.38	1016.75	1015.38	959.25	921.81	922.75	857.00	780.44	754.88	684.56	634.69	708.75	846.81	886.56	966.81	1041.50	1049.94	923.25	1055.62	1046.31	986.56	1080.31	1209.62	1183.56	1083.38	1040.88	1063.56	1014.75	1128.12	1170.81	1223.31	1316.56	1296.19	1272.88	1261.75	1207.94	1190.56	1204.38	1158.62	1147.00	1251.00	1298.69	1238.94	1133.00	1126.38	1181.50	1132.31	1234.81	1225.12	1115.62	1128.69	1250.12	1204.19	1207.25	1249.56	1295.25	1216.56	1228.31	1302.50	1371.00	1316.00	1317.62	1385.62	1440.94	1446.94	1545.12	1511.75	1449.62	1498.19	1435.69	1328.12	1325.94	1451.06	1488.88	1287.88	1255.06	1333.88	1342.06	1279.56	1271.31	1209.19	1157.00	1152.75	1169.62	1211.38	1272.31	1264.12	1200.38	1238.06
980.06	949.12	1035.56	1149.44	1178.25	1100.50	1169.38	1255.75	1064.06	1045.88	1045.31	1112.56	1096.31	1107.19	1130.75	1146.38	1147.38	1068.50	1018.12	1069.31	1079.31	1051.12	990.81	906.06	878.12	826.19	874.56	896.25	1011.06	941.81	1071.81	1109.50	1091.62	1088.62	1048.50	953.62	891.38	802.50	723.06	710.56	785.50	861.38	766.25	844.38	791.69	661.50	724.56	650.56	624.25	625.19	668.44	633.31	618.25	611.38	614.31	617.38	668.19	710.25	685.00	688.62	644.69	640.75	660.69	668.19	666.12	681.56	688.56	687.12	802.81	867.94	901.06	958.06	986.19	960.94	988.31	955.69	986.69	1039.19	1026.69	1073.88	996.69	924.00	962.69	1077.56	1042.62	1030.44	961.62	867.88	840.56	739.88	749.81	786.94	841.94	754.75	800.38	789.81	885.12	829.38	772.69	611.94	530.88	515.31	508.94	495.75	498.19	512.19	529.81	538.38	499.88	528.00	596.94	745.06	820.88	876.38	875.00	858.12	902.62	1167.06	1100.69	1040.94	865.81	904.31	887.81	935.38	799.88	766.38	644.56	588.44	680.56	675.00	634.25	576.50	575.94	523.06	511.44	522.00	520.75	556.94	570.00	575.88	573.25	570.38	581.19	681.94	779.75	720.06	641.00	583.81	651.06	685.44	704.69	692.88	706.69	795.94	817.19	900.31	902.94	999.44	1036.62	1094.31	1144.44	1099.94	1078.00	1080.00	999.06	937.25	910.94	948.69	1047.31	1047.31	1032.31	969.88	1000.88	872.62	913.19	808.44	655.94	618.06	674.31	754.94	812.38	887.81	971.62	967.25	927.81	1107.75	1115.81	954.12	1011.06	1115.38	1186.38	1187.00	1125.38	1066.62	967.62	1098.94	1094.56	1198.75	1214.69	1181.31	1194.50	1285.00	1247.69	1210.25	1140.44	1198.12	1098.06	1122.62	1121.69	1251.50	1221.56	1094.44	1142.19	1087.81	1120.56	1156.00	1139.31	1065.81	1154.12	1108.88	1189.00	1209.56	1247.31	1166.19	1247.50	1306.75	1320.38	1259.38	1339.06	1384.31	1530.44	1501.75	1473.62	1445.56	1366.25	1398.00	1319.56	1308.25	1368.81	1478.38	1449.62	1316.75	1270.31	1359.94	1394.88	1403.19	1389.94	1297.25	1196.38	1135.56	1153.25	1249.06	1253.25	1275.06	1236.69	1186.81
940.81	956.88	1105.44	1250.75	1337.00	1211.56	1196.38	1307.38	1192.06	1159.00	1200.81	1196.31	1163.50	1160.00	1156.12	1178.94	1185.31	1101.62	1074.19	1056.19	1047.06	1086.69	1015.62	931.94	847.75	826.81	920.12	941.75	971.25	950.56	1073.25	1063.88	1055.38	1007.50	1009.19	946.88	864.44	758.56	752.69	772.38	834.12	846.25	810.06	798.56	745.56	677.62	780.00	702.88	697.19	713.94	756.38	722.06	691.69	606.69	604.50	598.12	636.12	645.06	625.06	624.06	626.19	633.62	660.00	664.25	704.88	786.12	795.94	718.25	718.00	788.31	868.88	985.38	957.62	898.56	946.25	896.19	935.56	1034.88	996.19	1018.19	1011.31	877.69	974.19	1061.06	954.88	1026.25	997.81	886.38	891.06	767.44	718.25	712.00	672.12	645.19	673.00	655.44	714.88	675.69	657.62	575.75	525.12	506.12	500.38	502.62	516.94	558.62	590.00	558.81	531.56	595.94	725.62	863.25	1084.00	1206.31	1092.25	972.06	985.19	1195.31	1297.06	1128.19	1011.50	989.50	1120.25	1133.19	915.25	780.25	656.50	604.69	669.88	706.62	618.44	649.69	672.56	613.94	542.81	522.62	518.81	528.44	533.25	533.88	533.31	537.62	626.88	688.56	661.81	597.50	585.94	656.19	797.25	787.81	837.62	789.56	714.56	725.50	800.12	832.75	818.50	872.62	900.25	999.56	1196.00	1176.19	1155.62	1142.38	1002.31	974.62	961.06	1016.88	1077.44	1064.31	1031.50	994.06	978.75	903.12	923.75	818.50	695.31	616.19	671.31	745.38	790.25	856.56	1002.62	974.31	876.19	1138.62	1139.75	942.50	971.94	1030.69	1094.06	1188.75	1133.44	1117.50	969.00	989.00	1052.75	1185.31	1140.88	1160.88	1138.06	1281.31	1178.62	1225.56	1135.75	1191.88	1101.62	1080.62	1068.62	1156.88	1227.75	1089.69	1172.94	1067.69	1062.19	1088.75	1059.88	1017.62	1079.19	1082.75	1141.50	1146.56	1156.00	1158.00	1228.19	1288.12	1304.44	1223.38	1287.62	1367.25	1485.00	1505.38	1467.75	1394.50	1374.56	1342.00	1304.19	1385.88	1446.38	1468.38	1522.56	1366.12	1281.31	1347.12	1416.44	1445.69	1430.12	1339.44	1235.75	1150.62	1131.88	1202.25	1198.62	1196.94	1241.56	1205.88
965.19	977.81	1069.75	1257.44	1330.69	1343.25	1234.94	1235.19	1398.00	1343.56	1303.19	1247.12	1189.56	1192.12	1182.75	1159.06	1110.31	1132.62	1057.94	1076.44	983.88	1039.06	962.50	887.12	842.81	884.75	886.50	954.69	990.25	991.81	1074.62	1115.81	1087.56	948.19	937.81	884.81	779.69	765.25	901.38	835.94	839.25	866.50	832.12	784.88	719.00	713.06	792.62	734.38	826.19	830.00	727.75	836.75	705.81	610.31	602.62	604.12	611.06	620.81	626.69	645.12	660.19	700.31	709.62	689.31	758.38	871.50	854.50	803.62	737.88	711.50	834.38	975.19	881.50	813.75	823.94	860.31	904.50	1008.50	998.94	901.75	916.19	846.62	1000.62	1036.00	909.50	938.81	1012.56	912.56	845.69	773.75	762.88	837.44	776.19	728.88	676.25	586.50	607.44	576.62	541.12	536.00	512.81	499.00	513.69	593.12	636.25	691.62	738.25	733.12	679.50	589.62	824.25	1071.38	1280.25	1282.00	1106.31	1047.69	1004.50	1132.88	1409.69	1213.12	1194.94	1183.62	1388.94	1290.06	1109.38	871.62	689.25	694.31	706.75	719.81	638.56	695.44	782.75	761.25	594.31	551.44	544.88	539.19	536.62	529.31	528.50	529.19	530.94	541.75	537.06	539.31	589.44	702.81	822.50	843.81	880.25	852.62	810.38	756.94	727.06	756.94	829.06	898.62	908.94	951.50	1047.00	1090.75	1140.38	1110.94	991.44	1071.12	998.56	1054.12	1065.06	1095.06	1046.25	1036.00	1001.38	988.31	977.31	857.38	745.50	621.94	643.94	726.25	812.81	870.56	997.44	952.06	835.69	1043.12	1048.56	928.69	1039.75	1030.12	1071.12	1121.25	1071.62	1151.25	970.88	927.62	1032.19	1150.19	1135.06	1077.81	1109.81	1208.50	1126.75	1148.06	1124.75	1168.75	1119.31	1048.31	1018.44	1074.00	1110.50	1066.06	1217.25	1100.75	1002.56	991.44	989.19	1006.12	1024.12	1018.56	1053.69	1078.50	1141.88	1190.88	1208.12	1219.38	1246.69	1200.56	1254.50	1322.25	1344.50	1466.69	1427.44	1375.12	1424.44	1350.81	1350.19	1444.62	1495.38	1505.25	1586.31	1437.94	1319.19	1299.25	1377.81	1407.06	1384.81	1363.94	1252.44	1214.69	1126.44	1140.50	1145.25	1201.56	1311.56	1258.31
930.25	970.69	1019.56	1102.31	1168.50	1307.12	1139.19	1156.31	1245.12	1293.06	1380.56	1340.88	1254.50	1165.88	1125.94	1056.94	1029.44	1076.44	988.88	959.31	927.56	912.38	884.69	866.38	924.94	980.38	911.56	972.06	1027.19	1074.75	1119.31	1055.25	995.31	929.69	910.31	784.69	781.69	915.88	1014.75	959.38	895.38	896.25	818.75	764.50	726.06	732.50	761.44	800.00	849.81	765.88	830.94	842.88	668.06	614.62	601.31	604.19	618.31	670.62	697.75	771.38	798.88	818.25	777.50	732.81	774.38	915.62	895.38	876.62	817.12	789.75	744.31	768.06	783.06	896.12	884.12	937.50	963.38	1009.69	966.94	899.38	882.19	827.94	837.56	888.56	941.50	847.75	927.25	887.56	939.50	802.56	932.06	974.06	927.81	860.44	715.94	650.69	755.50	714.06	543.00	505.12	494.06	494.31	644.75	775.75	885.25	876.06	897.06	1044.81	839.75	717.25	774.00	933.50	978.50	1139.19	1319.94	1243.00	1155.75	1277.62	1443.25	1370.62	1454.50	1507.56	1488.75	1326.56	1125.12	926.81	773.50	914.94	837.75	761.38	664.12	736.81	788.81	713.75	711.06	648.94	670.69	617.31	631.31	610.12	595.81	594.94	603.38	597.75	568.00	550.06	529.88	599.81	761.00	831.75	901.62	857.06	856.38	881.31	809.56	777.38	862.12	1052.88	1076.44	1087.12	1172.00	1143.81	1092.62	1029.12	1037.81	1134.00	1039.88	1066.56	960.31	999.62	926.56	926.94	896.69	985.81	980.44	910.31	707.81	613.62	625.19	684.69	737.81	798.94	876.56	934.50	776.56	958.69	896.19	953.94	1163.88	1182.44	1208.94	1122.94	1136.69	1097.25	947.00	928.69	1028.00	1083.19	1098.75	1045.44	1138.12	1098.06	1110.88	1059.56	1175.50	1219.56	1148.94	1128.38	1060.06	978.69	988.81	1056.75	986.06	989.38	1000.50	1019.25	1068.12	1114.75	1124.44	1098.56	1067.19	1077.69	1079.88	1145.69	1228.00	1186.38	1182.62	1159.38	1191.69	1215.19	1275.31	1397.19	1339.75	1385.25	1353.50	1364.00	1419.06	1504.81	1582.38	1575.75	1543.88	1440.25	1329.62	1283.94	1279.50	1311.88	1285.81	1257.62	1195.81	1155.06	1140.81	1128.06	1109.12	1145.94	1275.38	1290.69
900.56	936.56	997.19	1036.62	1147.00	1260.75	1068.81	1149.81	1242.50	1259.00	1423.75	1386.19	1315.00	1276.94	1113.94	1037.00	998.38	986.56	966.12	960.38	991.56	977.50	927.19	887.31	999.50	1028.31	998.69	980.75	1020.88	1142.44	1114.44	1038.56	1000.06	1058.38	915.19	791.12	878.50	883.56	1033.50	1078.62	995.62	892.38	817.50	778.69	764.44	788.19	783.50	863.94	838.31	792.12	839.50	841.38	689.88	619.56	598.69	605.31	623.62	729.94	787.06	798.12	881.00	885.50	845.19	781.19	743.69	854.38	948.56	862.19	821.00	806.75	815.81	740.69	835.31	948.25	970.50	1000.94	997.12	1025.50	987.12	977.88	966.94	908.69	808.81	817.94	870.75	861.75	1002.31	975.19	900.50	845.00	1006.94	1099.81	935.50	823.50	696.38	755.56	834.06	700.25	539.81	497.81	490.25	525.81	771.06	954.69	1066.56	1097.38	1140.81	1263.06	926.62	830.81	735.25	796.44	878.88	1059.94	1259.94	1344.00	1344.25	1366.19	1677.62	1578.06	1640.44	1650.19	1452.12	1456.81	1244.44	1025.94	893.50	1064.06	950.00	795.81	695.25	825.69	776.44	729.06	735.56	681.38	743.19	708.19	708.44	690.38	681.62	630.69	646.81	639.81	622.25	598.38	556.69	560.94	675.62	742.00	822.69	773.88	825.12	926.50	876.44	818.06	890.19	1058.62	979.12	1045.50	1185.06	1206.00	1128.06	1079.00	1114.75	1165.25	1030.25	1000.69	895.69	986.94	865.75	838.19	777.81	807.69	872.06	793.38	647.50	646.44	671.81	698.62	715.06	737.56	766.88	802.50	746.81	816.38	831.00	908.88	1074.25	1171.38	1211.56	1152.75	1128.56	1077.38	924.75	939.06	1020.06	1056.94	1033.50	1020.00	1096.75	1032.69	1035.62	1116.12	1184.56	1228.00	1225.69	1151.81	1071.06	992.00	965.44	954.75	944.12	996.88	1077.69	1124.50	1110.19	1190.75	1187.50	1216.00	1113.75	1155.06	1099.25	1105.56	1158.19	1143.00	1154.44	1156.44	1202.94	1194.81	1212.00	1289.00	1312.38	1429.00	1335.25	1436.69	1457.88	1483.94	1518.75	1497.06	1529.69	1402.31	1347.06	1297.94	1235.50	1240.38	1228.75	1206.12	1178.62	1183.31	1188.00	1177.75	1137.94	1102.25	1171.19	1201.25
911.25	952.94	963.44	1029.88	1130.94	1136.19	1043.31	1180.25	1277.00	1303.62	1266.94	1233.75	1283.56	1312.31	1146.62	1128.38	1080.81	1044.81	1029.88	1062.62	1099.69	1006.06	912.88	930.69	1017.75	1045.75	1039.94	1012.81	1123.62	1126.56	1107.44	1043.69	956.25	946.56	823.56	878.12	927.62	933.50	901.69	1031.81	1044.62	909.19	819.00	761.81	818.19	865.19	815.50	893.44	843.75	819.62	763.19	720.62	668.25	622.56	599.25	606.25	613.69	683.69	849.50	839.19	875.50	961.88	958.62	830.38	766.00	824.38	877.81	823.81	860.94	857.50	868.50	742.12	804.75	921.38	941.50	927.62	943.56	1048.38	1074.62	968.88	994.44	967.19	890.50	765.00	778.50	921.31	966.88	1048.12	964.25	920.12	1061.56	1093.50	962.06	857.06	756.25	850.75	839.88	691.94	523.25	493.31	491.19	669.62	965.50	1124.19	1247.38	1353.50	1425.25	1350.62	1087.25	873.06	858.94	933.88	1057.88	1201.44	1351.12	1530.81	1637.00	1573.69	1844.00	1776.25	1823.69	1794.75	1711.12	1626.81	1310.38	994.25	1086.19	1186.62	982.50	786.31	751.38	909.12	845.94	808.56	755.25	729.38	821.38	808.50	706.88	747.25	755.56	690.81	743.75	714.56	654.94	634.56	592.19	555.69	583.31	644.88	683.06	710.19	795.94	869.88	913.50	862.56	937.00	1014.62	915.25	1008.25	1086.12	1045.75	1032.50	1089.81	1107.38	1113.75	1074.06	955.19	822.75	971.44	826.56	744.25	760.94	689.44	653.75	626.88	617.44	726.00	715.50	698.12	699.19	687.50	680.62	670.62	724.38	787.94	876.19	878.81	973.81	957.44	1087.31	1173.00	1164.62	1035.25	925.06	946.50	1012.81	1073.44	1016.19	976.44	967.38	1029.19	1148.44	1168.31	1197.06	1169.44	1178.19	1170.12	1072.31	941.12	914.50	966.44	1014.00	1073.12	1068.44	1176.75	1181.56	1236.12	1288.94	1332.38	1172.00	1187.38	1181.56	1122.88	1117.88	1190.31	1280.50	1239.25	1311.75	1234.25	1195.94	1255.00	1335.62	1372.31	1370.25	1528.94	1490.00	1428.88	1418.06	1388.62	1490.50	1437.44	1366.00	1316.25	1252.12	1235.00	1202.25	1190.69	1226.94	1280.50	1244.56	1255.19	1187.19	1113.00	1109.81	1121.38
947.38	908.75	949.50	977.88	1022.50	985.88	1116.12	1181.00	1135.88	1131.50	1136.00	1069.88	1146.62	1279.50	1270.38	1180.38	1118.38	1100.50	1096.12	1116.25	1111.00	1019.62	918.25	966.25	1123.00	1157.38	1160.12	1198.25	1255.50	1104.88	1113.38	1153.25	1023.88	849.25	903.75	1092.88	888.12	1098.12	1004.38	942.88	1051.88	978.75	855.88	871.00	883.25	889.50	886.38	913.38	919.88	836.38	782.00	708.38	648.88	625.00	601.62	602.50	612.25	631.00	750.50	792.62	905.38	974.38	964.12	934.25	837.88	891.62	890.00	844.62	875.12	959.75	850.50	814.38	783.00	821.62	811.88	889.38	960.25	1026.62	1120.38	962.25	877.12	845.50	799.62	812.38	742.88	830.12	897.75	1075.00	1092.25	1034.50	1011.88	912.88	944.25	799.50	908.75	1007.12	878.12	691.62	526.88	496.38	562.12	742.12	873.62	1082.00	1213.50	1453.75	1586.00	1535.50	1462.12	1185.12	1079.25	1067.88	1287.88	1461.75	1551.25	1628.88	1567.00	1679.62	1826.62	1550.75	1630.25	1651.75	1695.12	1408.88	1224.50	1057.62	1290.12	1143.50	938.25	813.50	823.50	948.00	1029.00	1039.25	978.25	790.62	853.38	806.25	817.38	838.88	746.12	725.88	829.12	738.62	660.75	609.50	585.50	563.38	569.88	633.88	724.62	764.62	745.25	828.75	901.50	937.38	939.12	858.75	870.88	1038.38	998.38	975.25	927.62	910.00	952.50	953.88	1064.12	1024.62	821.00	844.62	806.25	654.88	610.25	593.88	590.88	605.62	605.00	600.00	605.38	667.50	646.50	617.75	628.38	661.62	739.38	784.75	816.75	788.62	820.38	865.00	952.75	1047.62	1140.62	1089.25	948.25	1039.75	1096.12	1072.00	1087.50	994.75	966.50	1065.62	1134.88	1241.25	1208.12	1094.62	1136.50	1048.75	986.00	927.50	1033.38	1036.88	1057.25	1165.62	1233.12	1132.88	1214.88	1339.12	1381.88	1347.12	1380.00	1417.25	1321.38	1175.62	1193.50	1149.25	1232.50	1345.00	1350.00	1348.88	1328.75	1233.00	1291.88	1355.38	1316.12	1528.25	1554.62	1486.88	1428.75	1324.50	1367.12	1436.50	1459.75	1409.88	1291.88	1236.12	1201.38	1257.62	1277.75	1348.38	1306.25	1256.25	1215.50	1177.25	1108.00	1099.62
1008.44	930.75	987.31	997.25	965.81	936.88	1014.81	991.25	1115.94	1068.12	1034.31	1141.56	1171.56	1158.25	1162.38	1218.00	1169.00	1158.06	1098.44	1078.94	1040.00	977.94	979.88	959.31	1036.25	1209.81	1278.81	1190.75	1120.44	1033.06	954.94	948.50	885.94	850.19	1004.12	1086.69	926.88	1090.62	1097.38	1035.62	1090.81	1028.75	953.00	932.94	896.69	817.06	879.56	845.88	902.75	847.81	806.25	791.38	687.50	617.75	601.44	603.75	614.44	618.88	707.88	816.19	841.81	939.06	1003.75	986.75	868.94	979.69	910.62	951.56	917.69	905.19	811.38	914.00	818.56	946.19	877.75	876.31	964.69	1054.50	1071.25	1044.75	964.88	889.25	940.62	930.00	759.56	756.25	868.12	901.31	946.50	1012.56	983.25	913.38	869.19	874.62	1032.75	1081.00	899.75	806.62	542.38	497.31	570.00	747.88	909.62	983.19	1042.31	1201.94	1372.44	1511.12	1559.75	1242.06	1286.19	1325.06	1464.81	1348.88	1307.88	1367.69	1329.62	1523.56	1579.75	1360.50	1484.19	1380.62	1440.31	1404.38	1276.12	1306.25	1256.19	1113.44	1012.88	1027.00	952.31	1148.19	1352.38	1308.94	1067.38	976.06	909.88	903.38	915.25	813.81	698.44	727.69	719.75	689.69	648.19	616.25	658.12	608.38	570.25	568.19	595.94	685.94	792.38	787.06	801.94	775.06	668.75	652.94	757.62	872.75	796.00	922.19	1002.12	920.44	902.50	811.69	850.31	898.50	763.50	689.81	644.69	658.69	739.62	726.19	716.44	786.00	651.25	604.81	600.62	605.12	611.06	614.44	613.88	620.94	662.56	708.06	764.62	738.12	791.44	884.50	972.75	1048.75	1064.81	1090.81	957.38	936.25	1017.25	1112.88	1057.62	978.50	955.06	1018.94	1096.38	1130.56	1122.38	1048.94	1137.06	1030.31	900.19	1011.94	1076.50	1062.50	1122.50	1122.00	1274.12	1297.06	1202.75	1340.69	1487.19	1436.88	1480.38	1621.56	1479.00	1281.56	1205.56	1158.94	1184.62	1231.62	1340.00	1357.00	1366.06	1303.69	1275.31	1343.12	1277.88	1382.44	1523.00	1585.19	1457.94	1347.31	1330.94	1317.44	1392.38	1421.94	1309.88	1229.56	1276.38	1329.19	1374.75	1372.94	1374.69	1303.62	1292.31	1226.75	1132.44	1099.19
1018.56	939.75	948.25	965.31	904.81	914.81	952.75	948.12	1037.50	975.12	1049.19	1203.38	1095.69	1018.88	1086.00	1144.50	1159.44	1109.19	1069.25	1038.75	1010.12	980.38	1038.62	1041.75	1032.50	1229.69	1249.31	1084.25	1043.12	992.19	1006.00	964.00	881.31	884.06	995.62	1133.00	1007.19	1053.44	1157.56	1068.88	1088.25	991.94	906.31	872.75	813.69	772.62	816.06	825.44	879.25	889.06	883.56	822.00	712.88	618.19	599.00	605.44	611.62	617.69	661.00	796.19	894.88	956.69	982.38	1018.88	905.94	1004.44	977.88	1032.06	982.12	889.81	808.19	907.38	823.12	976.94	966.69	899.38	930.88	1003.00	993.19	993.56	985.00	990.88	980.50	928.62	797.25	719.31	854.50	852.75	983.88	957.75	960.12	996.75	951.62	939.31	950.25	952.19	948.12	801.19	528.12	497.12	571.38	673.81	783.00	923.75	1006.31	1119.19	1300.38	1529.06	1688.00	1464.56	1530.81	1533.94	1524.19	1211.25	1099.38	1208.69	1193.94	1326.69	1315.50	1185.12	1267.81	1173.62	1228.50	1451.94	1396.00	1457.00	1282.25	1243.38	1149.88	1267.56	1130.62	1293.19	1549.75	1370.56	1204.94	1224.81	1075.25	979.19	891.31	762.12	733.94	747.88	759.88	713.88	637.62	650.12	750.56	699.38	613.25	589.38	570.19	587.81	671.69	657.62	635.88	589.25	554.06	552.56	570.19	621.81	667.75	847.25	943.62	982.44	1014.25	906.31	731.25	743.50	645.06	721.38	805.62	762.88	829.06	926.50	878.06	817.38	664.38	663.81	654.06	647.25	625.62	647.56	608.75	613.31	639.94	669.56	700.12	735.56	783.69	861.44	954.94	1022.62	1040.75	1012.06	915.12	904.25	1032.44	1127.81	1030.81	923.06	1013.69	1069.12	1081.62	1082.12	1021.88	1068.81	1085.62	924.44	911.00	1051.00	1053.12	1089.12	1154.00	1143.44	1209.31	1327.38	1307.38	1299.88	1380.19	1403.94	1420.38	1521.56	1536.56	1340.94	1252.88	1192.81	1198.06	1215.94	1239.31	1260.56	1348.19	1383.75	1359.56	1371.31	1300.31	1333.69	1435.31	1576.62	1534.94	1414.44	1344.31	1281.62	1264.38	1316.81	1244.12	1260.81	1339.25	1324.12	1416.44	1425.25	1409.25	1349.19	1289.25	1231.81	1147.44	1088.44
1038.69	1006.56	973.56	954.31	874.50	870.50	916.00	903.25	916.25	980.69	1088.12	1124.69	1031.31	1002.81	1108.31	1190.31	1173.75	1034.56	1073.88	1126.56	1117.06	1043.81	1061.12	1117.81	1034.75	1132.25	1289.56	1134.38	1163.94	1140.44	1137.75	985.25	942.69	986.19	919.31	1050.31	1080.62	1078.88	1131.50	1035.56	998.06	967.50	916.31	854.88	883.12	814.81	732.62	794.56	837.38	836.94	865.56	776.56	759.38	616.38	595.62	599.31	604.06	610.62	619.69	713.88	854.88	874.94	837.50	980.56	987.25	1048.75	1067.12	1039.56	945.38	908.62	842.69	923.50	846.06	913.75	1000.12	993.44	975.81	1005.38	920.31	944.81	988.75	1002.19	960.12	922.19	827.94	695.19	761.25	864.94	951.50	894.25	984.69	1053.88	911.31	811.06	749.69	731.19	795.50	721.44	508.19	499.94	578.31	710.06	873.06	1070.69	1271.94	1423.12	1529.56	1673.69	1727.12	1671.31	1519.31	1305.81	1385.31	1257.75	1005.88	978.44	1019.12	1125.38	1043.62	984.12	1028.62	1019.44	1306.56	1325.81	1332.62	1584.19	1496.38	1377.88	1303.88	1506.69	1276.94	1332.12	1667.75	1623.81	1485.94	1412.56	1312.44	1123.50	994.00	799.38	781.50	776.62	788.00	678.44	646.69	690.25	791.12	754.31	668.31	637.69	590.56	571.12	572.25	574.12	575.81	571.12	553.50	553.31	553.69	556.94	566.00	581.38	623.38	720.69	860.75	868.69	687.12	641.81	622.12	823.75	948.19	867.06	931.38	957.00	849.69	740.81	716.25	779.06	809.62	763.62	724.31	720.06	640.25	616.31	635.19	656.88	699.50	771.19	808.56	868.69	878.44	899.06	987.88	965.38	830.69	943.25	1147.31	1143.12	973.25	969.38	1043.38	1099.00	1124.06	1017.94	950.75	1042.38	995.12	920.12	1039.06	1039.12	1124.81	1052.94	1076.25	1107.44	1195.31	1291.50	1275.38	1319.75	1217.62	1214.25	1351.06	1316.00	1397.25	1294.94	1270.06	1249.94	1256.38	1289.19	1293.69	1279.81	1353.00	1402.31	1431.38	1440.94	1361.25	1355.44	1363.88	1381.31	1444.69	1513.12	1481.25	1348.25	1261.12	1212.12	1233.44	1319.12	1402.00	1315.31	1367.44	1504.19	1369.62	1312.88	1264.06	1205.06	1119.38	1094.94
1166.00	1093.62	1054.50	1022.50	955.12	854.06	875.06	871.38	902.56	1054.75	1065.06	969.81	972.69	1117.50	1132.56	1121.69	1191.56	1068.19	1000.00	1078.38	1202.69	1122.56	1111.25	1126.62	1124.62	1102.62	1305.88	1193.12	1212.56	1172.81	1052.25	948.38	1054.81	1099.69	979.88	969.38	1115.69	1137.75	1109.75	1019.50	910.81	914.94	946.75	909.88	870.19	823.81	767.44	715.44	824.75	774.88	802.75	705.56	710.69	601.00	596.06	597.06	601.19	605.00	612.06	681.44	795.50	734.44	770.31	914.50	988.38	1063.38	1075.31	1006.56	1016.50	944.69	883.31	999.38	891.88	863.94	956.19	1004.81	1028.88	954.19	905.38	877.50	913.81	986.94	965.00	883.12	827.81	713.94	714.50	829.44	818.50	925.69	1051.62	1044.12	865.94	784.25	738.88	647.19	621.19	571.31	498.50	503.38	566.25	689.12	825.19	1009.38	1221.50	1503.25	1653.12	1615.06	1482.56	1494.69	1452.31	1131.94	1220.31	1104.25	969.88	885.19	934.12	1015.12	1014.81	897.81	902.06	1056.62	1296.38	1180.94	1334.19	1482.19	1536.88	1651.19	1525.81	1680.62	1370.56	1385.75	1679.00	1611.75	1407.06	1290.25	1224.06	1065.00	895.19	873.81	857.50	811.81	724.06	676.69	672.88	745.00	846.19	774.31	712.56	672.56	614.44	589.25	589.75	592.25	583.12	594.69	594.94	596.56	571.06	561.25	564.00	568.69	568.62	586.44	613.69	626.31	613.19	597.62	655.56	872.50	986.44	887.94	959.19	971.19	837.81	691.44	776.69	858.38	879.81	856.44	802.00	786.00	723.19	627.19	631.38	648.31	703.94	762.88	805.50	861.56	809.56	836.62	880.75	876.38	850.69	917.19	1045.12	1078.44	921.75	1030.75	1142.69	1163.44	1127.12	1039.69	988.88	930.88	889.44	966.31	1118.94	1063.19	1118.94	1099.75	1117.06	1117.44	1169.44	1226.94	1214.38	1255.25	1262.44	1133.69	1251.81	1225.88	1331.81	1343.06	1314.00	1282.06	1330.69	1286.81	1356.44	1359.56	1365.06	1321.94	1410.88	1448.31	1424.31	1416.81	1346.62	1352.00	1330.25	1398.44	1552.25	1397.50	1279.00	1222.62	1268.62	1340.94	1422.38	1381.62	1397.62	1422.56	1381.31	1343.25	1305.62	1232.44	1119.06	1090.88
1265.88	1138.94	1142.00	1061.62	1006.81	892.00	837.81	821.62	873.94	959.38	929.44	929.25	1067.06	1028.50	986.81	1071.06	1001.31	1030.81	961.00	1057.44	1106.62	1183.44	1099.00	1124.19	1189.44	1154.12	1220.38	1209.94	1104.94	1056.25	1035.00	1042.88	1175.38	1201.25	1102.19	1033.62	1126.94	1132.56	1001.19	1024.56	962.75	863.88	868.56	832.56	817.19	745.06	744.44	686.75	669.81	657.44	644.06	626.00	609.62	593.75	595.06	595.31	599.44	602.38	608.25	631.00	670.12	690.31	803.12	811.81	825.00	891.50	1017.31	1074.19	990.75	924.56	937.06	1037.75	1042.94	937.62	930.12	940.62	954.12	914.62	849.44	817.25	871.75	951.12	919.06	906.75	891.38	809.19	672.75	749.00	917.81	956.81	903.62	893.12	969.31	982.81	880.62	846.06	718.44	544.81	497.88	500.69	594.00	705.62	823.25	999.88	1156.88	1329.56	1569.19	1446.12	1263.81	1358.81	1227.88	1101.44	933.19	979.12	848.69	845.75	859.94	908.88	893.88	826.94	893.88	997.62	1084.81	1027.56	1150.06	1298.69	1447.12	1670.38	1765.94	1758.44	1625.88	1636.06	1611.56	1362.25	1222.31	1140.31	1107.31	1133.25	1115.25	978.62	860.81	757.62	696.38	687.81	703.25	830.44	932.12	854.31	786.69	663.69	611.62	616.94	637.25	621.81	616.31	664.62	767.25	791.69	785.19	723.38	692.00	654.81	613.81	586.06	600.62	744.44	811.56	651.31	835.88	990.06	995.88	923.31	963.06	930.25	785.00	795.94	843.00	950.62	997.94	918.44	931.38	847.38	791.94	630.62	626.31	649.19	701.88	729.69	735.19	762.81	734.00	750.25	772.56	875.75	907.69	900.88	912.75	848.06	915.56	1054.69	1092.06	1121.94	1029.88	995.25	931.06	871.06	834.12	929.75	1010.19	1082.94	1114.25	1084.38	1176.31	1214.62	1211.62	1165.69	1147.00	1155.75	1209.00	1131.69	1249.94	1120.31	1153.88	1241.75	1267.94	1296.44	1310.75	1340.69	1383.56	1388.31	1314.75	1298.81	1361.81	1437.12	1425.06	1428.75	1376.31	1388.31	1315.31	1279.00	1327.12	1311.31	1193.94	1297.12	1342.81	1334.31	1419.50	1450.81	1465.62	1350.69	1399.06	1389.06	1352.38	1250.75	1132.12	1075.25
1146.75	1109.00	1064.94	970.25	915.69	939.94	923.56	821.19	814.38	872.75	838.69	923.00	1042.44	937.56	1016.06	1085.38	1015.31	913.62	986.44	1028.88	1098.69	1183.19	1037.62	1035.44	1103.69	1188.62	1163.50	1190.50	1188.00	1162.56	1161.56	1057.50	1157.81	1287.31	1222.19	1092.06	1174.81	1086.19	982.62	960.75	950.31	909.12	814.19	778.56	734.88	719.56	712.00	751.19	694.56	681.75	694.75	686.44	660.06	592.06	592.94	594.25	597.88	601.56	605.44	682.12	777.94	724.56	698.69	767.62	824.19	838.38	902.62	1022.75	1037.25	936.81	948.81	1095.94	1063.25	1036.81	1056.25	973.81	867.94	865.50	807.25	836.62	921.19	950.81	914.88	833.38	841.88	828.00	686.88	653.69	803.69	852.50	752.00	844.00	966.06	976.38	984.62	1015.56	794.62	567.81	500.75	503.44	558.62	738.50	948.62	994.56	1149.75	1360.25	1582.44	1346.00	1084.25	1278.94	1002.12	965.12	845.06	926.94	805.56	810.44	809.94	822.38	779.12	789.88	861.94	896.25	976.19	968.81	1093.12	1215.06	1421.88	1556.56	1733.94	1861.38	1834.75	1792.75	1616.38	1564.44	1475.44	1394.62	1357.69	1237.19	1107.56	942.12	849.44	778.62	711.75	709.50	724.44	779.25	905.44	820.81	727.00	675.31	639.75	654.00	696.75	676.06	669.12	641.31	644.31	776.06	877.12	856.31	899.06	882.50	791.69	724.81	691.19	758.88	794.62	661.25	811.75	907.44	953.94	928.56	988.75	927.75	768.94	905.44	918.75	969.00	1005.88	985.19	1009.31	947.69	874.75	640.50	625.00	736.69	690.94	672.69	716.94	798.38	800.25	830.81	858.31	873.56	871.25	907.56	833.38	831.19	930.69	991.31	1094.88	1064.69	1034.06	986.44	892.81	822.25	851.25	936.31	1054.25	1149.50	1160.38	1134.25	1155.81	1233.31	1241.31	1177.38	1104.62	1065.31	1142.94	1069.06	1169.75	1074.31	1163.56	1085.19	1084.88	1121.06	1152.62	1164.38	1257.00	1363.75	1273.62	1354.06	1324.00	1366.31	1346.56	1366.44	1410.06	1424.00	1345.56	1283.19	1271.12	1206.06	1202.69	1406.19	1425.81	1380.00	1373.75	1414.50	1462.56	1415.31	1305.06	1318.88	1272.62	1222.81	1149.06	1101.06
1126.25	1088.69	993.19	977.19	1002.38	1039.88	1016.12	918.62	799.12	797.00	809.25	896.12	952.62	913.19	1048.44	1079.50	1027.12	896.06	1042.50	1130.31	1122.31	1069.25	989.31	976.50	1129.88	1243.75	1092.06	1037.50	1134.00	1218.56	1134.81	1121.50	1218.25	1291.62	1251.44	1082.94	1026.81	1004.44	987.12	914.56	965.25	867.94	813.44	763.06	792.38	798.75	774.88	779.12	747.19	758.69	734.44	770.75	730.19	594.56	591.44	591.75	600.50	599.44	602.19	673.06	814.50	816.25	764.62	745.00	758.81	808.12	878.94	1008.00	1028.31	967.06	969.00	1021.75	1038.81	1040.25	989.00	1007.31	933.75	836.44	776.31	841.31	903.12	922.62	957.44	896.81	805.44	734.75	674.00	642.31	636.50	678.31	761.50	866.06	917.50	795.25	877.31	914.06	906.06	629.06	504.94	508.38	525.88	719.12	916.12	1102.94	1215.00	1244.44	1279.69	1093.81	944.50	1067.25	931.81	960.69	834.81	883.12	805.50	775.81	768.81	740.69	752.31	800.69	866.38	923.06	1003.31	994.56	1075.38	1226.44	1507.38	1626.31	1681.81	1723.44	1776.44	1885.19	1811.56	1858.94	1729.75	1570.06	1440.88	1174.69	1052.00	952.00	877.38	803.56	745.00	750.88	755.50	797.00	930.44	796.75	700.06	719.25	670.00	699.38	741.94	702.00	690.44	701.25	655.88	673.50	819.06	815.06	951.19	951.12	847.44	914.88	792.75	833.62	771.00	664.31	778.25	873.19	927.69	892.75	873.00	789.94	848.69	973.62	965.00	1029.44	1021.12	954.44	938.88	905.69	795.75	630.50	657.19	785.00	744.31	676.94	680.75	716.81	781.94	829.69	830.19	824.31	902.19	875.62	793.31	850.38	916.75	980.44	1064.00	1055.44	913.94	864.31	837.62	942.06	924.38	919.12	953.19	1101.12	1169.62	1217.25	1191.81	1168.38	1176.69	1163.56	1169.19	1037.19	1065.81	1050.00	1112.94	1031.06	1041.94	1082.38	1091.81	1086.38	1061.31	1121.50	1206.19	1312.69	1225.88	1353.25	1308.19	1293.88	1312.19	1308.62	1430.44	1446.25	1376.50	1373.56	1344.62	1284.62	1184.69	1328.06	1441.62	1343.06	1329.12	1338.00	1445.56	1385.62	1325.38	1273.81	1278.25	1231.12	1147.25	1112.56
1221.31	1158.38	1103.69	1099.38	1182.12	1027.81	943.81	898.00	945.44	830.81	784.06	839.75	850.06	869.69	937.50	988.06	893.88	937.88	1058.56	1098.69	1025.56	968.38	912.69	1030.69	1175.81	1182.25	1164.88	962.00	1018.62	1133.69	1073.06	995.94	1054.69	1060.50	1040.06	1119.75	963.75	901.69	905.88	859.19	916.44	928.56	886.50	871.75	903.81	865.62	844.88	849.19	836.56	808.88	772.56	785.12	752.25	587.75	588.56	590.38	597.00	599.31	592.12	606.75	736.50	841.56	861.50	812.56	886.25	847.50	852.00	962.88	994.00	1020.62	1014.56	999.19	904.62	905.50	861.81	858.00	863.00	848.19	800.75	882.69	940.56	881.44	833.75	815.62	748.94	726.00	746.69	793.75	739.12	610.44	603.88	595.81	653.56	645.31	680.75	653.44	637.81	526.06	507.19	510.44	510.44	560.44	747.06	900.00	986.06	1002.62	903.12	841.81	1008.75	964.38	993.69	868.06	876.50	762.88	758.62	700.94	708.69	728.31	758.81	799.62	828.12	851.31	893.31	1001.06	1205.44	1319.56	1354.69	1392.12	1499.81	1660.12	1813.19	1900.75	2029.94	1933.94	1706.50	1434.31	1338.12	1177.00	1021.94	954.88	912.19	848.12	832.88	828.56	819.81	909.88	1002.38	765.69	781.69	771.44	706.75	754.75	807.38	743.75	709.44	734.31	728.62	656.44	736.56	794.75	873.25	942.62	847.19	971.50	831.00	943.19	858.81	737.56	784.06	850.38	922.31	931.75	856.75	802.31	865.38	951.44	964.38	1011.50	935.12	848.88	922.19	829.50	719.44	626.38	800.25	968.19	869.88	791.19	770.94	677.00	722.75	751.31	788.62	851.75	876.81	786.38	819.56	945.12	1007.38	1045.38	1014.94	908.62	835.00	875.75	941.69	1068.12	1014.56	1022.69	932.56	985.25	1094.88	1222.50	1179.44	1176.81	1127.75	1088.88	1127.31	1044.81	1000.19	978.75	981.31	1098.62	1169.06	1175.75	1206.06	1244.44	1144.12	1109.81	1128.12	1206.75	1220.56	1318.81	1318.62	1230.75	1266.38	1352.75	1420.31	1399.00	1353.94	1279.88	1348.88	1372.62	1257.06	1147.12	1312.44	1338.25	1269.50	1324.50	1319.88	1374.06	1396.50	1423.19	1379.31	1304.50	1177.94	1145.19
1109.00	1139.31	1073.31	1117.38	1168.75	1045.62	981.62	999.12	966.56	926.69	805.81	772.00	798.31	897.50	888.31	932.88	819.06	896.75	952.94	1001.19	961.25	881.38	906.06	1036.50	1085.25	1073.69	1074.44	945.88	1120.44	1069.38	1029.06	929.69	903.81	956.38	974.94	1016.12	955.88	880.62	792.62	783.25	914.62	955.81	893.38	926.62	906.38	839.19	779.06	781.56	843.38	868.56	863.94	841.38	761.00	596.69	587.88	591.50	595.12	594.69	590.88	601.06	661.19	825.50	909.50	819.69	939.44	885.00	919.81	918.75	869.12	887.44	1011.69	947.88	880.25	836.50	837.00	840.75	801.94	729.25	832.88	997.62	1056.50	996.75	879.44	771.00	778.06	843.75	950.19	915.25	788.19	652.06	689.50	653.62	602.44	583.50	563.06	550.06	527.75	507.62	506.88	512.19	511.19	519.69	633.19	743.31	824.81	820.50	751.56	889.94	1088.81	1053.94	894.94	882.69	753.06	696.06	679.00	684.75	710.62	731.50	768.12	820.44	881.06	906.50	928.50	992.31	1086.69	1200.44	1342.50	1469.94	1588.56	1779.69	1918.56	1907.81	2046.12	1927.12	1593.62	1437.44	1389.38	1322.50	1269.44	1219.44	1106.88	893.81	902.44	916.31	888.88	1016.50	956.75	789.12	828.19	799.69	757.06	806.50	905.94	777.69	742.69	745.38	755.12	673.12	781.88	874.56	898.12	978.56	898.75	967.75	834.56	941.94	904.00	745.00	856.06	874.56	933.81	968.12	867.75	858.31	924.94	972.50	863.31	862.56	828.50	780.50	850.06	788.38	714.44	673.69	855.56	999.56	879.31	873.75	852.31	775.88	702.81	792.75	811.75	831.19	801.38	768.12	872.69	905.00	976.06	966.69	908.00	794.75	892.62	961.56	1031.94	1051.38	1053.75	1099.25	994.38	965.25	1050.00	1111.75	1157.31	1111.88	1126.00	1086.44	1030.81	985.88	938.81	974.62	1067.88	1194.38	1285.25	1280.69	1233.44	1242.62	1187.75	1176.06	1157.12	1137.75	1184.56	1216.44	1250.69	1208.69	1294.56	1367.62	1391.38	1399.00	1293.75	1259.94	1299.62	1291.00	1323.38	1234.44	1131.81	1207.75	1362.44	1346.19	1270.12	1299.81	1368.31	1414.38	1381.19	1275.12	1200.88	1149.25
1088.00	1048.81	983.00	1046.50	1053.88	1042.81	1108.12	1007.56	959.00	946.50	844.81	763.06	781.62	855.31	850.62	869.06	825.56	881.25	918.88	988.88	968.25	856.88	889.81	954.75	975.56	1042.12	989.44	931.06	1134.94	1073.94	999.81	958.25	864.19	865.19	928.06	887.31	945.19	854.25	772.19	775.81	887.25	897.81	822.00	892.44	943.62	878.88	832.19	738.88	759.81	816.69	853.06	847.62	774.62	637.31	586.50	589.38	594.69	592.25	589.88	596.44	661.44	820.50	909.75	856.44	895.62	817.31	922.56	875.25	820.88	833.31	925.75	951.31	875.19	861.88	876.88	898.88	818.50	717.12	827.56	964.62	1143.69	1043.88	902.62	799.12	825.56	918.44	1033.88	924.94	754.75	692.19	753.56	729.19	695.69	696.62	675.12	639.88	567.81	509.56	508.19	514.31	511.19	529.94	599.50	667.38	702.62	711.94	812.06	996.00	939.50	988.69	788.81	792.69	728.50	660.81	666.81	690.56	718.81	742.94	818.62	864.38	933.94	981.00	1050.69	1058.75	1129.94	1191.94	1358.75	1586.38	1665.31	1823.25	1953.69	1918.75	2041.31	1893.62	1607.44	1589.94	1525.94	1509.31	1459.94	1273.25	1037.88	897.94	939.38	983.56	930.75	1030.19	891.19	822.81	869.12	820.69	808.94	867.00	894.62	789.12	822.69	771.12	766.06	686.00	800.06	828.06	918.88	988.19	962.06	993.00	854.06	955.19	884.88	744.62	888.94	871.62	918.94	966.25	868.12	905.12	979.12	989.44	855.88	828.75	801.31	766.75	775.00	739.50	685.00	691.50	857.62	946.19	875.38	909.69	869.19	883.31	755.56	739.38	747.62	785.62	737.31	778.06	841.50	860.88	872.81	835.62	800.50	812.75	961.75	992.38	1030.88	1085.12	1081.69	1110.12	1061.12	1033.69	1078.38	1040.88	1109.25	1034.50	1082.62	996.31	974.62	958.38	1038.12	1039.31	1088.62	1169.88	1283.75	1343.69	1321.94	1261.25	1228.50	1202.69	1199.25	1190.56	1164.06	1188.81	1178.69	1186.12	1267.50	1344.19	1391.12	1363.31	1294.25	1243.12	1291.94	1268.44	1290.94	1270.12	1104.62	1197.31	1383.00	1387.75	1296.50	1234.94	1279.88	1311.44	1327.88	1230.62	1190.50	1129.88
1034.00	1078.19	940.44	959.81	980.12	924.94	1001.75	867.56	875.56	820.81	784.19	759.81	756.50	770.12	787.38	804.50	935.94	980.38	1032.44	1010.31	907.00	827.38	863.81	899.25	976.44	1055.81	973.81	884.25	1026.69	973.75	972.31	1003.06	887.38	805.19	820.38	792.31	843.62	840.44	758.31	743.00	802.00	839.88	808.81	793.88	900.06	836.19	861.31	784.06	710.94	699.81	819.81	809.94	850.88	738.12	592.94	590.44	593.31	589.25	588.56	586.81	629.62	794.69	801.31	794.62	843.19	774.75	900.00	787.94	778.81	867.00	949.38	977.12	919.56	850.44	779.56	812.69	758.44	702.31	821.12	929.31	1041.69	1098.38	951.69	899.81	894.31	939.06	931.81	818.50	741.44	751.56	816.00	764.12	732.50	738.19	746.94	725.88	599.62	512.62	512.25	514.62	511.88	533.50	573.06	603.75	638.06	792.38	983.69	922.44	820.75	756.62	689.50	676.25	641.94	650.62	677.12	709.75	743.19	769.25	843.06	952.06	1005.19	1030.69	1120.94	1161.56	1275.44	1287.00	1310.88	1461.94	1525.44	1631.56	1678.69	1743.69	1933.12	1764.75	1575.56	1505.69	1425.25	1439.81	1303.81	1048.38	925.75	955.19	1035.44	1121.38	976.94	1075.75	902.06	916.12	908.69	820.19	879.94	947.94	898.06	871.31	890.44	804.00	781.50	708.44	766.31	812.62	907.62	980.75	1003.19	1026.25	958.25	987.25	883.19	771.81	859.75	900.12	948.06	950.44	881.06	939.00	1015.50	948.38	928.31	949.81	867.31	864.19	767.44	696.75	674.00	647.44	693.25	782.00	860.81	922.62	924.81	932.56	843.50	804.75	739.88	720.44	727.44	736.94	749.25	769.19	769.69	803.31	872.88	895.69	1018.00	1075.25	1085.06	1133.75	1171.00	1128.56	1120.38	1141.31	1078.06	957.00	1062.31	1005.12	954.50	903.25	970.38	1053.44	1144.25	1148.69	1061.56	1110.81	1170.69	1291.06	1359.56	1358.25	1325.25	1235.69	1244.62	1217.75	1229.81	1263.88	1202.00	1198.00	1189.50	1226.44	1342.88	1319.25	1312.38	1280.94	1216.81	1235.31	1271.94	1225.00	1115.12	1173.94	1292.94	1445.69	1377.31	1206.19	1268.38	1268.12	1261.94	1290.50	1251.31	1133.69
988.50	1048.00	986.50	863.75	842.75	812.50	811.50	795.38	804.25	800.88	851.62	837.50	823.50	755.38	750.12	789.38	912.50	995.50	1013.75	955.62	812.50	836.00	946.12	1048.38	1043.00	1016.62	897.88	839.12	895.50	908.00	1041.12	1031.00	980.25	859.50	766.25	751.12	724.50	713.25	697.25	685.00	710.50	726.25	746.88	740.75	897.75	770.88	795.00	848.38	751.00	682.00	694.75	752.62	791.38	790.38	651.50	594.00	589.62	585.00	586.00	582.50	583.50	599.50	651.88	784.25	797.62	726.00	726.12	751.25	822.62	844.62	942.12	908.00	878.50	888.62	812.25	739.50	698.88	683.75	788.75	899.25	904.25	1062.62	1019.50	1023.62	1021.00	962.50	844.88	805.25	876.25	791.00	843.88	715.75	813.12	730.00	795.00	764.50	591.12	513.50	514.50	511.75	510.75	526.12	569.50	612.25	740.25	885.50	866.12	737.88	689.00	688.12	619.62	612.62	632.38	657.25	698.38	811.38	815.62	807.88	870.12	943.25	976.88	1020.62	1182.62	1295.50	1343.25	1394.38	1417.88	1434.38	1308.75	1386.62	1467.62	1712.38	1899.38	1666.00	1511.88	1427.75	1292.12	1250.50	1024.38	1028.12	1087.12	1020.50	1143.75	1341.62	1210.50	1139.88	905.25	1094.62	933.38	850.12	948.00	1000.62	931.12	898.00	867.62	861.50	793.88	733.38	901.75	908.38	964.62	935.12	943.38	912.12	1010.62	1045.88	887.12	871.00	869.75	949.88	1038.62	1025.25	930.75	929.75	976.25	961.25	1067.75	1009.25	970.75	903.62	807.62	699.62	772.25	783.25	650.12	639.62	649.62	716.50	872.00	938.62	863.25	934.62	880.25	794.25	809.62	856.62	838.25	838.50	896.12	902.62	873.00	919.12	1037.25	1129.38	1085.00	1205.75	1242.75	1228.88	1193.88	1177.25	1139.75	1007.00	923.38	879.75	841.88	902.12	940.38	987.12	1057.25	1055.50	1140.75	1158.75	1152.12	1235.38	1260.88	1329.88	1408.38	1394.25	1282.12	1317.38	1279.00	1300.62	1218.00	1267.38	1214.50	1202.12	1259.25	1243.12	1362.88	1347.38	1211.25	1159.88	1190.38	1182.88	1116.62	1176.38	1278.00	1333.50	1383.75	1211.25	1367.00	1323.88	1366.12	1433.25	1300.25	1147.50
966.88	894.06	873.81	880.88	873.44	894.19	874.38	851.94	899.25	902.19	934.12	996.75	973.56	839.94	750.31	739.44	810.44	908.94	964.50	887.31	781.62	864.81	982.94	1147.31	1026.31	971.00	932.12	837.06	836.50	907.88	989.56	966.19	882.75	874.44	835.62	793.88	787.06	710.31	684.38	670.50	668.44	667.12	672.75	700.50	863.69	801.75	702.00	837.50	849.62	772.75	640.50	681.00	733.56	727.88	688.94	597.38	588.75	586.44	584.88	583.38	581.75	582.06	608.94	783.50	748.19	670.75	778.06	873.94	932.00	951.38	953.81	841.69	837.88	813.69	780.38	731.94	692.88	663.75	764.69	815.44	847.88	994.38	996.56	1055.56	1017.12	972.12	868.25	901.19	925.19	827.50	856.31	751.75	824.25	790.69	843.12	790.19	555.44	515.00	511.44	514.62	515.75	526.06	557.69	587.62	637.19	670.94	665.25	624.06	603.06	604.62	606.19	617.94	645.38	677.50	711.38	838.69	914.06	923.62	946.62	994.75	998.69	1020.38	1105.94	1324.25	1443.06	1553.00	1645.94	1507.12	1344.56	1358.25	1489.06	1806.88	1980.56	1805.00	1509.62	1327.06	1166.88	1111.69	1153.81	1255.50	1255.75	1063.31	1247.44	1471.81	1419.56	1204.94	1024.50	1161.75	915.56	914.75	1016.50	1036.56	1064.44	966.25	1076.88	912.69	781.00	761.25	893.19	901.12	867.31	826.56	834.69	858.44	927.75	997.44	991.38	887.88	966.62	1007.00	1178.44	1174.50	1126.94	1085.62	982.75	920.31	937.00	973.00	941.50	871.19	770.69	800.12	857.19	844.56	688.69	653.75	643.75	648.94	707.69	885.75	914.62	977.75	917.25	864.81	868.50	853.25	882.38	890.25	906.44	934.12	961.88	983.00	1028.75	1099.38	1107.88	1165.44	1158.00	1167.38	1142.19	1062.25	1036.50	1068.12	937.38	823.12	896.88	989.00	972.62	1014.25	1000.81	1001.69	1060.25	1132.62	1204.19	1248.44	1151.94	1219.81	1237.12	1363.12	1398.06	1377.81	1375.06	1344.62	1268.69	1290.38	1272.31	1276.06	1231.62	1262.88	1331.94	1372.12	1311.19	1228.81	1176.94	1139.50	1080.44	1172.75	1235.00	1307.00	1199.19	1225.94	1381.69	1367.88	1403.62	1395.19	1308.12	1195.56
918.19	920.31	932.81	983.62	982.44	1001.56	930.69	916.50	1047.62	983.75	958.12	1058.88	1047.81	889.00	786.50	736.00	727.69	776.25	945.50	805.62	796.81	900.56	1008.50	1097.56	983.50	876.12	885.50	795.38	957.75	1048.19	1078.50	1018.38	981.62	1009.94	873.31	892.38	814.81	788.50	721.25	675.56	646.69	639.38	646.75	661.44	743.00	734.56	679.25	707.25	833.44	827.25	644.19	650.12	661.88	649.56	634.00	593.62	586.44	585.12	586.69	581.50	582.31	577.94	589.75	641.81	628.88	698.19	849.31	924.00	988.38	875.38	871.12	827.12	796.38	824.81	811.94	816.12	750.75	652.62	715.00	797.31	866.19	950.25	856.81	1028.62	889.12	997.31	957.19	1005.50	909.88	921.88	906.00	850.19	815.50	797.38	785.06	729.94	559.25	519.38	511.19	514.81	518.56	526.12	543.25	561.50	602.25	586.88	576.19	581.81	593.19	603.56	622.00	636.81	652.50	713.06	785.69	779.94	794.31	880.81	950.44	1035.75	1091.25	1217.81	1210.12	1203.44	1408.81	1637.94	1846.38	1643.75	1631.44	1368.94	1490.50	1861.88	1968.12	1752.50	1593.06	1346.81	1100.94	1253.94	1480.38	1471.12	1292.75	1096.00	1287.12	1499.69	1556.94	1389.75	1246.38	1069.31	916.94	995.19	1164.69	1266.75	1133.06	1157.88	1336.50	1009.06	792.94	841.94	836.06	856.69	860.62	874.75	882.50	851.88	851.62	959.25	1085.06	894.56	1028.50	1105.75	1299.75	1268.75	1314.75	1226.56	1059.88	899.00	847.31	825.38	801.81	799.44	739.38	922.94	905.69	825.81	701.94	730.00	665.88	647.00	649.62	699.81	879.19	916.44	890.69	918.38	868.56	896.44	879.88	918.75	954.44	956.75	1024.62	1106.50	1068.38	1068.50	1157.94	1139.31	1079.56	1078.56	1064.88	1027.56	975.81	974.12	852.69	835.25	917.75	1040.31	1046.44	1099.50	1108.19	1065.12	1060.62	1071.44	1115.19	1171.94	1102.44	1168.00	1151.44	1269.25	1263.94	1380.69	1543.56	1438.94	1328.88	1322.88	1338.00	1335.12	1249.19	1226.38	1278.12	1262.88	1260.31	1321.44	1247.00	1184.62	1104.19	1109.88	1198.12	1255.12	1145.81	1298.25	1348.88	1362.00	1405.06	1317.88	1272.94	1200.25
1140.25	990.12	1019.12	1079.88	1048.50	1052.50	950.25	923.25	1054.00	1040.12	1072.38	1045.25	938.25	918.88	949.75	836.88	720.12	710.00	738.00	729.50	789.88	900.50	1012.75	969.25	988.62	852.62	771.50	767.62	970.88	1239.12	1097.50	1129.12	1152.38	990.25	998.00	916.00	851.75	835.62	834.38	755.75	636.75	622.88	621.62	627.12	624.25	622.12	618.38	619.12	637.88	625.62	605.50	597.62	593.12	589.38	573.12	578.50	581.00	582.38	582.88	583.38	579.38	576.75	584.00	598.88	643.75	771.75	780.88	847.00	976.12	896.50	765.00	729.75	781.12	758.38	847.25	881.00	837.12	705.62	644.75	765.50	777.38	876.00	764.62	923.50	790.12	841.75	895.88	1016.38	1013.62	1004.88	947.38	919.12	724.12	637.00	630.88	595.38	535.12	519.12	520.88	525.38	514.75	523.62	530.50	540.88	548.25	561.75	577.88	598.50	612.38	631.50	645.12	690.50	705.25	721.75	734.62	826.75	887.12	864.62	870.25	945.38	1100.12	1474.88	1522.12	1325.62	1327.25	1589.50	1926.62	1943.62	1767.25	1494.88	1479.50	1763.38	1990.38	1866.00	1632.62	1293.12	1141.00	1485.62	1740.00	1617.75	1308.62	1193.25	1311.88	1545.38	1595.75	1496.75	1412.50	1054.50	950.50	1074.25	1243.12	1408.75	1181.50	1363.25	1439.38	980.00	832.38	1012.38	984.75	1111.75	1038.12	994.50	948.62	913.50	903.12	936.75	1111.75	962.75	1039.38	1221.75	1401.50	1495.00	1491.12	1223.12	1056.75	1018.00	949.75	877.12	829.25	791.12	758.38	931.25	919.88	802.62	709.88	776.38	749.50	664.75	651.75	647.88	680.00	768.50	884.88	877.62	866.75	941.25	939.12	1008.25	990.38	963.12	985.88	1066.62	1149.50	1179.50	1171.50	1058.50	1162.88	1099.12	1003.38	972.50	997.62	903.00	818.00	888.62	951.50	1094.25	1160.38	1157.12	1176.88	1121.50	1146.12	1106.75	1152.88	1127.88	1060.88	1102.12	1085.75	1129.62	1182.00	1221.25	1329.00	1472.38	1396.38	1294.62	1277.25	1333.38	1208.00	1129.12	1189.75	1186.38	1145.88	1234.12	1348.12	1256.12	1171.00	1070.50	1175.75	1261.88	1156.88	1239.38	1354.25	1365.50	1392.38	1398.38	1322.75	1167.88
1121.69	994.69	1047.19	1177.06	1124.50	1099.31	935.44	967.25	1082.12	1095.50	1093.31	1000.88	935.81	1052.44	973.56	886.81	817.50	721.81	710.00	711.31	747.12	885.31	960.94	896.25	1015.94	933.88	780.44	782.19	936.50	1057.12	983.00	1125.88	1122.62	1129.06	1059.00	887.69	915.06	832.25	778.94	759.00	634.06	610.12	608.06	615.56	606.38	604.62	599.38	594.69	597.94	589.62	586.75	585.12	586.06	578.38	578.06	579.94	579.00	580.06	581.50	581.38	579.56	581.44	580.88	584.06	585.00	718.12	879.06	884.50	842.06	826.69	700.75	646.50	727.44	678.88	781.25	907.56	805.44	729.69	659.00	662.44	784.19	806.38	720.00	733.44	693.25	692.38	698.25	791.25	986.75	974.12	887.38	777.12	712.00	731.44	782.62	655.25	538.44	518.56	522.88	522.88	514.75	526.38	539.56	549.38	555.75	582.25	605.38	624.69	657.88	676.44	711.44	730.88	813.25	767.31	802.44	854.38	848.62	948.69	939.44	998.06	1153.50	1373.12	1598.12	1551.12	1328.12	1505.31	1853.56	2073.69	1900.44	1549.69	1544.00	1811.44	1962.12	1772.56	1496.12	1211.19	1249.31	1667.62	1857.44	1655.88	1383.44	1285.12	1443.31	1624.06	1632.81	1537.31	1324.44	1010.75	992.69	1158.25	1295.94	1399.56	1288.62	1376.06	1245.69	981.19	881.69	1227.81	1125.56	1254.94	1210.88	1115.56	1023.38	993.62	937.69	932.44	1061.19	1038.94	1086.19	1265.94	1495.12	1621.06	1594.56	1272.06	1215.00	1134.75	972.25	891.62	867.69	813.94	761.62	876.50	886.25	843.19	728.31	784.19	738.19	759.44	737.12	664.94	651.19	658.44	699.62	751.06	843.94	952.88	983.69	1033.69	959.06	923.06	933.12	977.06	1193.94	1004.69	1015.00	1084.75	1209.88	1136.38	1063.19	991.25	864.19	843.44	884.44	897.88	920.12	1021.19	1155.56	1280.31	1267.81	1189.88	1207.75	1118.50	1211.75	1104.31	1043.88	1013.75	1043.94	1143.56	1100.75	1142.19	1204.56	1225.75	1362.19	1262.12	1199.88	1306.94	1221.69	1122.38	1073.88	1197.56	1097.88	1174.62	1287.25	1333.38	1235.19	1129.44	1078.62	1205.75	1192.25	1149.94	1276.50	1276.94	1370.69	1404.81	1423.25	1205.38
