2039.75	2039.00	2038.50	2040.25	2042.00	2044.25	2045.00	2045.00	2045.00	2046.00	2047.50	2049.75	2051.25	2053.25	2055.75	2058.50	2061.00	2064.25	2067.50	2071.00	2074.75	2077.25	2080.00	2083.50	2086.25	2088.50	2090.75	2092.75	2094.75	2096.00	2097.75	2099.25	2100.00	2100.00	2100.25	2100.75	2099.75	2098.50	2097.25	2096.00	2094.50	2093.25	2091.50	2090.50	2089.75	2089.00	2088.25	2088.25	2089.00	2089.00	2089.75	2091.25	2093.50	2095.50	2097.50	2100.00	2102.50	2105.50	2108.25	2111.50	2114.25	2116.75	2119.50	2122.00	2124.75	2126.50	2128.25	2129.75	2131.50	2132.75	2133.50	2134.50	2135.50	2136.00	2136.75	2137.00	2137.00	2137.00	2137.00	2137.00	2137.00	2137.00	2137.00	2137.00	2137.00	2137.75	2138.00	2138.00	2138.50	2139.00	2139.25	2140.00	2140.00	2140.00	2140.00	2141.00	2141.00	2141.00	2141.50	2142.00	2142.00	2142.00	2142.00	2142.50	2143.00	2143.00	2143.50	2144.00	2144.50	2145.25	2146.25	2147.50	2148.75	2150.75	2152.25	2154.25	2155.75	2158.50	2161.00	2163.75	2166.50	2169.75	2173.25	2176.25	2180.00	2182.75	2186.25	2189.00	2191.75	2193.75	2195.75	2198.00	2199.00	2200.00	2201.00	2202.00	2202.00	2201.25	2201.00	2201.00	2200.25	2200.00	2200.00	2200.00	2200.50	2201.00	2201.25	2202.00	2202.00	2202.00	2202.00	2202.00	2203.00	2203.00	2200.75	2198.50	2196.75	2194.00	2192.00	2189.75	2188.00	2187.00	2186.00	2186.00	2185.50	2186.75	2188.50	2190.25	2192.50	2195.50	2199.25	2203.00	2206.75	2211.00	2215.00	2219.25	2222.75	2226.75	2230.50	2233.75	2236.75	2239.25	2242.75	2245.75	2247.25	2249.75	2252.50	2253.75	2255.00	2256.75	2258.00	2258.00	2258.00	2258.00	2257.50	2256.25	2254.75	2254.00	2252.25	2250.25	2249.25	2247.50	2247.00	2246.75	2246.00	2246.50	2247.75	2249.25	2250.50	2252.25	2253.75	2255.50	2257.75	2259.50	2260.75	2262.75	2263.75	2265.00	2266.00	2266.75	2267.00	2267.00	2267.00	2267.00	2266.50	2266.00	2265.25	2265.00	2264.50	2264.00	2263.50	2263.00	2262.50	2262.00	2261.25	2261.00	2261.00	2261.00	2261.00	2261.00	2261.00	2261.00	2261.00	2261.00	2261.00	2261.00	2261.00	2261.75	2262.00	2262.00	2262.00	2262.00	2262.00	2262.00	2262.00	2262.00
2042.94	2042.38	2042.62	2043.06	2043.88	2045.19	2046.12	2047.06	2047.81	2048.62	2049.38	2050.88	2052.19	2054.75	2057.44	2060.75	2063.44	2066.88	2070.50	2073.81	2077.00	2079.50	2082.25	2085.19	2087.75	2089.62	2091.88	2093.50	2095.12	2096.38	2097.75	2098.31	2098.50	2098.50	2098.56	2098.50	2097.50	2096.62	2095.38	2093.94	2092.81	2091.00	2089.62	2088.81	2087.88	2087.31	2086.75	2087.31	2087.50	2088.06	2089.19	2090.69	2092.75	2094.56	2096.75	2099.25	2101.75	2105.50	2108.06	2111.31	2114.25	2116.75	2119.50	2121.81	2124.00	2126.12	2128.06	2129.75	2131.50	2132.75	2133.88	2135.25	2135.88	2136.75	2136.94	2137.38	2137.75	2137.75	2137.75	2137.75	2137.75	2137.00	2137.00	2137.00	2137.75	2137.94	2138.75	2139.12	2139.62	2140.50	2140.75	2141.50	2141.50	2141.50	2141.50	2141.75	2141.75	2141.75	2141.88	2142.00	2142.00	2142.19	2142.75	2142.88	2143.75	2143.75	2144.44	2144.75	2145.62	2146.56	2147.75	2149.00	2150.81	2152.62	2154.50	2156.50	2158.75	2161.50	2164.00	2166.75	2169.50	2172.75	2176.06	2179.25	2182.25	2185.38	2188.50	2191.06	2193.62	2195.25	2197.25	2198.75	2199.00	2199.81	2200.25	2200.31	2199.75	2199.38	2198.75	2198.00	2197.25	2196.81	2196.62	2197.56	2198.25	2199.12	2199.56	2200.12	2200.50	2201.06	2201.25	2201.25	2202.25	2201.88	2200.38	2198.50	2196.94	2194.75	2192.38	2190.31	2188.19	2187.19	2186.19	2185.81	2185.50	2186.38	2187.75	2189.12	2191.56	2194.75	2197.75	2201.31	2205.06	2209.50	2213.50	2218.31	2221.62	2225.62	2229.75	2233.00	2236.00	2238.50	2241.25	2244.25	2246.31	2249.00	2251.75	2253.19	2254.81	2256.38	2257.25	2257.62	2258.00	2258.00	2257.12	2256.25	2254.75	2253.62	2252.25	2250.62	2249.44	2247.88	2247.56	2246.94	2246.75	2246.88	2247.94	2249.25	2250.12	2251.88	2253.38	2255.12	2257.00	2258.38	2260.00	2262.00	2263.00	2264.06	2265.44	2266.19	2266.25	2266.25	2265.69	2265.50	2265.38	2265.25	2264.31	2264.25	2263.56	2263.25	2262.56	2262.25	2261.94	2261.25	2261.06	2261.00	2261.00	2261.00	2261.00	2261.00	2261.00	2261.00	2261.00	2261.00	2261.00	2261.00	2261.19	2261.94	2262.00	2262.00	2262.00	2262.00	2262.00	2262.00	2262.00	2262.00
2044.00	2043.50	2044.00	2044.00	2044.50	2045.50	2046.50	2047.75	2048.75	2049.50	2050.00	2051.25	2052.50	2055.25	2058.00	2061.50	2064.25	2067.75	2071.50	2074.75	2077.75	2080.25	2083.00	2085.75	2088.25	2090.00	2092.25	2093.75	2095.25	2096.50	2097.75	2098.00	2098.00	2098.00	2098.00	2097.75	2096.75	2096.00	2094.75	2093.25	2092.25	2090.25	2089.00	2088.25	2087.25	2086.75	2086.25	2087.00	2087.00	2087.75	2089.00	2090.50	2092.50	2094.25	2096.50	2099.00	2101.50	2105.50	2108.00	2111.25	2114.25	2116.75	2119.50	2121.75	2123.75	2126.00	2128.00	2129.75	2131.50	2132.75	2134.00	2135.50	2136.00	2137.00	2137.00	2137.50	2138.00	2138.00	2138.00	2138.00	2138.00	2137.00	2137.00	2137.00	2138.00	2138.00	2139.00	2139.50	2140.00	2141.00	2141.25	2142.00	2142.00	2142.00	2142.00	2142.00	2142.00	2142.00	2142.00	2142.00	2142.00	2142.25	2143.00	2143.00	2144.00	2144.00	2144.75	2145.00	2146.00	2147.00	2148.25	2149.50	2151.50	2153.25	2155.25	2157.25	2159.75	2162.50	2165.00	2167.75	2170.50	2173.75	2177.00	2180.25	2183.00	2186.25	2189.25	2191.75	2194.25	2195.75	2197.75	2199.00	2199.00	2199.75	2200.00	2199.75	2199.00	2198.75	2198.00	2197.00	2196.25	2195.75	2195.50	2196.75	2197.50	2198.50	2199.00	2199.50	2200.00	2200.75	2201.00	2201.00	2202.00	2201.50	2200.25	2198.50	2197.00	2195.00	2192.50	2190.50	2188.25	2187.25	2186.25	2185.75	2185.50	2186.25	2187.50	2188.75	2191.25	2194.50	2197.25	2200.75	2204.50	2209.00	2213.00	2218.00	2221.25	2225.25	2229.50	2232.75	2235.75	2238.25	2240.75	2243.75	2246.00	2248.75	2251.50	2253.00	2254.75	2256.25	2257.00	2257.50	2258.00	2258.00	2257.00	2256.25	2254.75	2253.50	2252.25	2250.75	2249.50	2248.00	2247.75	2247.00	2247.00	2247.00	2248.00	2249.25	2250.00	2251.75	2253.25	2255.00	2256.75	2258.00	2259.75	2261.75	2262.75	2263.75	2265.25	2266.00	2266.00	2266.00	2265.25	2265.00	2265.00	2265.00	2264.00	2264.00	2263.25	2263.00	2262.25	2262.00	2261.75	2261.00	2261.00	2261.00	2261.00	2261.00	2261.00	2261.00	2261.00	2261.00	2261.00	2261.00	2261.00	2261.00	2261.25	2262.00	2262.00	2262.00	2262.00	2262.00	2262.00	2262.00	2262.00	2262.00
2044.00	2043.50	2044.00	2044.00	2044.50	2045.50	2046.50	2047.75	2048.75	2049.50	2050.00	2051.25	2052.50	2055.25	2058.00	2061.50	2064.25	2067.75	2071.50	2074.75	2077.75	2080.25	2083.00	2085.75	2088.25	2090.00	2092.25	2093.75	2095.25	2096.50	2097.75	2098.00	2098.00	2098.00	2098.00	2097.75	2096.75	2096.00	2094.75	2093.25	2092.25	2090.25	2089.00	2088.25	2087.25	2086.75	2086.25	2087.00	2087.00	2087.75	2089.00	2090.50	2092.50	2094.25	2096.50	2099.00	2101.50	2105.50	2108.00	2111.25	2114.25	2116.75	2119.50	2121.75	2123.75	2126.00	2128.00	2129.75	2131.50	2132.75	2134.00	2135.50	2136.00	2137.00	2137.00	2137.50	2138.00	2138.00	2138.00	2138.00	2138.00	2137.00	2137.00	2137.00	2138.00	2138.00	2139.00	2139.50	2140.00	2141.00	2141.25	2142.00	2142.00	2142.00	2142.00	2142.00	2142.00	2142.00	2142.00	2142.00	2142.00	2142.25	2143.00	2143.00	2144.00	2144.00	2144.75	2145.00	2146.00	2147.00	2148.25	2149.50	2151.50	2153.25	2155.25	2157.25	2159.75	2162.50	2165.00	2167.75	2170.50	2173.75	2177.00	2180.25	2183.00	2186.25	2189.25	2191.75	2194.25	2195.75	2197.75	2199.00	2199.00	2199.75	2200.00	2199.75	2199.00	2198.75	2198.00	2197.00	2196.25	2195.75	2195.50	2196.75	2197.50	2198.50	2199.00	2199.50	2200.00	2200.75	2201.00	2201.00	2202.00	2201.50	2200.25	2198.50	2197.00	2195.00	2192.50	2190.50	2188.25	2187.25	2186.25	2185.75	2185.50	2186.25	2187.50	2188.75	2191.25	2194.50	2197.25	2200.75	2204.50	2209.00	2213.00	2218.00	2221.25	2225.25	2229.50	2232.75	2235.75	2238.25	2240.75	2243.75	2246.00	2248.75	2251.50	2253.00	2254.75	2256.25	2257.00	2257.50	2258.00	2258.00	2257.00	2256.25	2254.75	2253.50	2252.25	2250.75	2249.50	2248.00	2247.75	2247.00	2247.00	2247.00	2248.00	2249.25	2250.00	2251.75	2253.25	2255.00	2256.75	2258.00	2259.75	2261.75	2262.75	2263.75	2265.25	2266.00	2266.00	2266.00	2265.25	2265.00	2265.00	2265.00	2264.00	2264.00	2263.25	2263.00	2262.25	2262.00	2261.75	2261.00	2261.00	2261.00	2261.00	2261.00	2261.00	2261.00	2261.00	2261.00	2261.00	2261.00	2261.00	2261.00	2261.25	2262.00	2262.00	2262.00	2262.00	2262.00	2262.00	2262.00	2262.00	2262.00
2046.00	2045.75	2045.50	2045.50	2045.75	2046.88	2048.00	2049.38	2050.50	2051.50	2052.25	2053.12	2054.50	2056.88	2059.38	2062.62	2065.75	2069.88	2074.00	2077.38	2080.25	2082.38	2085.00	2087.38	2089.50	2091.25	2093.25	2094.38	2095.62	2096.75	2097.88	2098.00	2097.75	2097.50	2097.38	2096.75	2095.75	2094.75	2093.50	2092.00	2090.88	2089.25	2088.25	2087.62	2086.62	2085.88	2085.62	2086.38	2086.50	2087.12	2088.38	2089.62	2091.50	2093.50	2095.75	2098.00	2100.50	2104.50	2107.00	2110.25	2113.25	2115.75	2118.25	2120.38	2122.75	2125.25	2127.00	2129.12	2130.88	2132.25	2133.50	2135.00	2135.50	2136.25	2136.50	2136.88	2137.50	2137.50	2137.88	2137.62	2137.50	2136.75	2136.50	2136.88	2137.50	2137.88	2138.62	2139.25	2140.00	2141.00	2141.25	2142.00	2142.00	2142.12	2142.50	2142.50	2142.50	2142.50	2142.50	2142.50	2142.50	2143.00	2143.50	2143.75	2144.50	2144.88	2145.62	2146.00	2147.12	2148.25	2149.75	2151.25	2153.38	2155.25	2157.38	2159.75	2162.25	2165.00	2167.50	2170.25	2173.00	2176.00	2179.38	2182.25	2184.62	2187.38	2190.25	2192.12	2194.25	2195.50	2197.12	2198.00	2197.50	2197.88	2198.00	2197.38	2196.75	2196.38	2195.50	2194.75	2194.12	2193.38	2193.62	2194.88	2195.88	2197.00	2197.50	2198.25	2198.88	2199.38	2199.50	2199.50	2200.00	2199.75	2199.50	2198.75	2197.75	2195.62	2193.50	2191.12	2189.00	2187.88	2186.75	2185.88	2186.00	2186.75	2188.00	2189.12	2191.62	2194.50	2197.25	2200.25	2204.00	2208.38	2212.12	2216.88	2220.00	2224.12	2228.25	2231.50	2234.88	2237.75	2240.75	2243.62	2245.50	2248.25	2251.00	2252.50	2254.38	2256.00	2256.75	2257.25	2257.88	2258.00	2257.00	2256.25	2255.00	2254.00	2252.62	2251.00	2249.88	2248.75	2248.25	2247.50	2247.50	2247.75	2248.50	2249.62	2250.38	2252.12	2253.38	2255.00	2256.50	2258.00	2259.62	2261.50	2262.38	2263.38	2264.62	2265.00	2265.00	2265.00	2264.62	2264.50	2264.50	2264.50	2263.50	2263.50	2262.88	2262.50	2262.12	2262.00	2261.38	2261.00	2261.00	2260.62	2260.50	2260.50	2260.50	2260.50	2260.50	2260.50	2260.50	2261.00	2261.00	2261.00	2261.38	2262.00	2262.00	2262.00	2262.00	2262.00	2262.00	2262.00	2261.62	2261.50
2048.00	2048.00	2047.00	2047.00	2047.00	2048.25	2049.50	2051.00	2052.25	2053.50	2054.50	2055.00	2056.50	2058.50	2060.75	2063.75	2067.25	2072.00	2076.50	2080.00	2082.75	2084.50	2087.00	2089.00	2090.75	2092.50	2094.25	2095.00	2096.00	2097.00	2098.00	2098.00	2097.50	2097.00	2096.75	2095.75	2094.75	2093.50	2092.25	2090.75	2089.50	2088.25	2087.50	2087.00	2086.00	2085.00	2085.00	2085.75	2086.00	2086.50	2087.75	2088.75	2090.50	2092.75	2095.00	2097.00	2099.50	2103.50	2106.00	2109.25	2112.25	2114.75	2117.00	2119.00	2121.75	2124.50	2126.00	2128.50	2130.25	2131.75	2133.00	2134.50	2135.00	2135.50	2136.00	2136.25	2137.00	2137.00	2137.75	2137.25	2137.00	2136.50	2136.00	2136.75	2137.00	2137.75	2138.25	2139.00	2140.00	2141.00	2141.25	2142.00	2142.00	2142.25	2143.00	2143.00	2143.00	2143.00	2143.00	2143.00	2143.00	2143.75	2144.00	2144.50	2145.00	2145.75	2146.50	2147.00	2148.25	2149.50	2151.25	2153.00	2155.25	2157.25	2159.50	2162.25	2164.75	2167.50	2170.00	2172.75	2175.50	2178.25	2181.75	2184.25	2186.25	2188.50	2191.25	2192.50	2194.25	2195.25	2196.50	2197.00	2196.00	2196.00	2196.00	2195.00	2194.50	2194.00	2193.00	2192.50	2192.00	2191.00	2191.75	2193.00	2194.25	2195.50	2196.00	2197.00	2197.75	2198.00	2198.00	2198.00	2198.00	2198.00	2198.75	2199.00	2198.50	2196.25	2194.50	2191.75	2189.75	2188.50	2187.25	2186.00	2186.50	2187.25	2188.50	2189.50	2192.00	2194.50	2197.25	2199.75	2203.50	2207.75	2211.25	2215.75	2218.75	2223.00	2227.00	2230.25	2234.00	2237.25	2240.75	2243.50	2245.00	2247.75	2250.50	2252.00	2254.00	2255.75	2256.50	2257.00	2257.75	2258.00	2257.00	2256.25	2255.25	2254.50	2253.00	2251.25	2250.25	2249.50	2248.75	2248.00	2248.00	2248.50	2249.00	2250.00	2250.75	2252.50	2253.50	2255.00	2256.25	2258.00	2259.50	2261.25	2262.00	2263.00	2264.00	2264.00	2264.00	2264.00	2264.00	2264.00	2264.00	2264.00	2263.00	2263.00	2262.50	2262.00	2262.00	2262.00	2261.00	2261.00	2261.00	2260.25	2260.00	2260.00	2260.00	2260.00	2260.00	2260.00	2260.00	2261.00	2261.00	2261.00	2261.50	2262.00	2262.00	2262.00	2262.00	2262.00	2262.00	2262.00	2261.25	2261.00
2048.00	2048.00	2047.00	2047.00	2047.00	2048.25	2049.50	2051.00	2052.25	2053.50	2054.50	2055.00	2056.50	2058.50	2060.75	2063.75	2067.25	2072.00	2076.50	2080.00	2082.75	2084.50	2087.00	2089.00	2090.75	2092.50	2094.25	2095.00	2096.00	2097.00	2098.00	2098.00	2097.50	2097.00	2096.75	2095.75	2094.75	2093.50	2092.25	2090.75	2089.50	2088.25	2087.50	2087.00	2086.00	2085.00	2085.00	2085.75	2086.00	2086.50	2087.75	2088.75	2090.50	2092.75	2095.00	2097.00	2099.50	2103.50	2106.00	2109.25	2112.25	2114.75	2117.00	2119.00	2121.75	2124.50	2126.00	2128.50	2130.25	2131.75	2133.00	2134.50	2135.00	2135.50	2136.00	2136.25	2137.00	2137.00	2137.75	2137.25	2137.00	2136.50	2136.00	2136.75	2137.00	2137.75	2138.25	2139.00	2140.00	2141.00	2141.25	2142.00	2142.00	2142.25	2143.00	2143.00	2143.00	2143.00	2143.00	2143.00	2143.00	2143.75	2144.00	2144.50	2145.00	2145.75	2146.50	2147.00	2148.25	2149.50	2151.25	2153.00	2155.25	2157.25	2159.50	2162.25	2164.75	2167.50	2170.00	2172.75	2175.50	2178.25	2181.75	2184.25	2186.25	2188.50	2191.25	2192.50	2194.25	2195.25	2196.50	2197.00	2196.00	2196.00	2196.00	2195.00	2194.50	2194.00	2193.00	2192.50	2192.00	2191.00	2191.75	2193.00	2194.25	2195.50	2196.00	2197.00	2197.75	2198.00	2198.00	2198.00	2198.00	2198.00	2198.75	2199.00	2198.50	2196.25	2194.50	2191.75	2189.75	2188.50	2187.25	2186.00	2186.50	2187.25	2188.50	2189.50	2192.00	2194.50	2197.25	2199.75	2203.50	2207.75	2211.25	2215.75	2218.75	2223.00	2227.00	2230.25	2234.00	2237.25	2240.75	2243.50	2245.00	2247.75	2250.50	2252.00	2254.00	2255.75	2256.50	2257.00	2257.75	2258.00	2257.00	2256.25	2255.25	2254.50	2253.00	2251.25	2250.25	2249.50	2248.75	2248.00	2248.00	2248.50	2249.00	2250.00	2250.75	2252.50	2253.50	2255.00	2256.25	2258.00	2259.50	2261.25	2262.00	2263.00	2264.00	2264.00	2264.00	2264.00	2264.00	2264.00	2264.00	2264.00	2263.00	2263.00	2262.50	2262.00	2262.00	2262.00	2261.00	2261.00	2261.00	2260.25	2260.00	2260.00	2260.00	2260.00	2260.00	2260.00	2260.00	2261.00	2261.00	2261.00	2261.50	2262.00	2262.00	2262.00	2262.00	2262.00	2262.00	2262.00	2261.25	2261.00
2048.00	2048.00	2047.00	2047.00	2047.00	2048.25	2049.50	2051.00	2052.25	2053.50	2054.50	2055.00	2056.50	2058.50	2060.75	2063.75	2067.25	2072.00	2076.50	2080.00	2082.75	2084.50	2087.00	2089.00	2090.75	2092.50	2094.25	2095.00	2096.00	2097.00	2098.00	2098.00	2097.50	2097.00	2096.75	2095.75	2094.75	2093.50	2092.25	2090.75	2089.50	2088.25	2087.50	2087.00	2086.00	2085.00	2085.00	2085.75	2086.00	2086.50	2087.75	2088.75	2090.50	2092.75	2095.00	2097.00	2099.50	2103.50	2106.00	2109.25	2112.25	2114.75	2117.00	2119.00	2121.75	2124.50	2126.00	2128.50	2130.25	2131.75	2133.00	2134.50	2135.00	2135.50	2136.00	2136.25	2137.00	2137.00	2137.75	2137.25	2137.00	2136.50	2136.00	2136.75	2137.00	2137.75	2138.25	2139.00	2140.00	2141.00	2141.25	2142.00	2142.00	2142.25	2143.00	2143.00	2143.00	2143.00	2143.00	2143.00	2143.00	2143.75	2144.00	2144.50	2145.00	2145.75	2146.50	2147.00	2148.25	2149.50	2151.25	2153.00	2155.25	2157.25	2159.50	2162.25	2164.75	2167.50	2170.00	2172.75	2175.50	2178.25	2181.75	2184.25	2186.25	2188.50	2191.25	2192.50	2194.25	2195.25	2196.50	2197.00	2196.00	2196.00	2196.00	2195.00	2194.50	2194.00	2193.00	2192.50	2192.00	2191.00	2191.75	2193.00	2194.25	2195.50	2196.00	2197.00	2197.75	2198.00	2198.00	2198.00	2198.00	2198.00	2198.75	2199.00	2198.50	2196.25	2194.50	2191.75	2189.75	2188.50	2187.25	2186.00	2186.50	2187.25	2188.50	2189.50	2192.00	2194.50	2197.25	2199.75	2203.50	2207.75	2211.25	2215.75	2218.75	2223.00	2227.00	2230.25	2234.00	2237.25	2240.75	2243.50	2245.00	2247.75	2250.50	2252.00	2254.00	2255.75	2256.50	2257.00	2257.75	2258.00	2257.00	2256.25	2255.25	2254.50	2253.00	2251.25	2250.25	2249.50	2248.75	2248.00	2248.00	2248.50	2249.00	2250.00	2250.75	2252.50	2253.50	2255.00	2256.25	2258.00	2259.50	2261.25	2262.00	2263.00	2264.00	2264.00	2264.00	2264.00	2264.00	2264.00	2264.00	2264.00	2263.00	2263.00	2262.50	2262.00	2262.00	2262.00	2261.00	2261.00	2261.00	2260.25	2260.00	2260.00	2260.00	2260.00	2260.00	2260.00	2260.00	2261.00	2261.00	2261.00	2261.50	2262.00	2262.00	2262.00	2262.00	2262.00	2262.00	2262.00	2261.25	2261.00
2048.00	2048.00	2047.00	2047.00	2047.00	2048.25	2049.50	2051.00	2052.25	2053.50	2054.50	2055.00	2056.50	2058.50	2060.75	2063.75	2067.25	2072.00	2076.50	2080.00	2082.75	2084.50	2087.00	2089.00	2090.75	2092.50	2094.25	2095.00	2096.00	2097.00	2098.00	2098.00	2097.50	2097.00	2096.75	2095.75	2094.75	2093.50	2092.25	2090.75	2089.50	2088.25	2087.50	2087.00	2086.00	2085.00	2085.00	2085.75	2086.00	2086.50	2087.75	2088.75	2090.50	2092.75	2095.00	2097.00	2099.50	2103.50	2106.00	2109.25	2112.25	2114.75	2117.00	2119.00	2121.75	2124.50	2126.00	2128.50	2130.25	2131.75	2133.00	2134.50	2135.00	2135.50	2136.00	2136.25	2137.00	2137.00	2137.75	2137.25	2137.00	2136.50	2136.00	2136.75	2137.00	2137.75	2138.25	2139.00	2140.00	2141.00	2141.25	2142.00	2142.00	2142.25	2143.00	2143.00	2143.00	2143.00	2143.00	2143.00	2143.00	2143.75	2144.00	2144.50	2145.00	2145.75	2146.50	2147.00	2148.25	2149.50	2151.25	2153.00	2155.25	2157.25	2159.50	2162.25	2164.75	2167.50	2170.00	2172.75	2175.50	2178.25	2181.75	2184.25	2186.25	2188.50	2191.25	2192.50	2194.25	2195.25	2196.50	2197.00	2196.00	2196.00	2196.00	2195.00	2194.50	2194.00	2193.00	2192.50	2192.00	2191.00	2191.75	2193.00	2194.25	2195.50	2196.00	2197.00	2197.75	2198.00	2198.00	2198.00	2198.00	2198.00	2198.75	2199.00	2198.50	2196.25	2194.50	2191.75	2189.75	2188.50	2187.25	2186.00	2186.50	2187.25	2188.50	2189.50	2192.00	2194.50	2197.25	2199.75	2203.50	2207.75	2211.25	2215.75	2218.75	2223.00	2227.00	2230.25	2234.00	2237.25	2240.75	2243.50	2245.00	2247.75	2250.50	2252.00	2254.00	2255.75	2256.50	2257.00	2257.75	2258.00	2257.00	2256.25	2255.25	2254.50	2253.00	2251.25	2250.25	2249.50	2248.75	2248.00	2248.00	2248.50	2249.00	2250.00	2250.75	2252.50	2253.50	2255.00	2256.25	2258.00	2259.50	2261.25	2262.00	2263.00	2264.00	2264.00	2264.00	2264.00	2264.00	2264.00	2264.00	2264.00	2263.00	2263.00	2262.50	2262.00	2262.00	2262.00	2261.00	2261.00	2261.00	2260.25	2260.00	2260.00	2260.00	2260.00	2260.00	2260.00	2260.00	2261.00	2261.00	2261.00	2261.50	2262.00	2262.00	2262.00	2262.00	2262.00	2262.00	2262.00	2261.25	2261.00
2048.00	2048.00	2047.00	2047.00	2047.00	2048.25	2049.50	2051.00	2052.25	2053.50	2054.50	2055.00	2056.50	2058.50	2060.75	2063.75	2067.25	2072.00	2076.50	2080.00	2082.75	2084.50	2087.00	2089.00	2090.75	2092.50	2094.25	2095.00	2096.00	2097.00	2098.00	2098.00	2097.50	2097.00	2096.75	2095.75	2094.75	2093.50	2092.25	2090.75	2089.50	2088.25	2087.50	2087.00	2086.00	2085.00	2085.00	2085.75	2086.00	2086.50	2087.75	2088.75	2090.50	2092.75	2095.00	2097.00	2099.50	2103.50	2106.00	2109.25	2112.25	2114.75	2117.00	2119.00	2121.75	2124.50	2126.00	2128.50	2130.25	2131.75	2133.00	2134.50	2135.00	2135.50	2136.00	2136.25	2137.00	2137.00	2137.75	2137.25	2137.00	2136.50	2136.00	2136.75	2137.00	2137.75	2138.25	2139.00	2140.00	2141.00	2141.25	2142.00	2142.00	2142.25	2143.00	2143.00	2143.00	2143.00	2143.00	2143.00	2143.00	2143.75	2144.00	2144.50	2145.00	2145.75	2146.50	2147.00	2148.25	2149.50	2151.25	2153.00	2155.25	2157.25	2159.50	2162.25	2164.75	2167.50	2170.00	2172.75	2175.50	2178.25	2181.75	2184.25	2186.25	2188.50	2191.25	2192.50	2194.25	2195.25	2196.50	2197.00	2196.00	2196.00	2196.00	2195.00	2194.50	2194.00	2193.00	2192.50	2192.00	2191.00	2191.75	2193.00	2194.25	2195.50	2196.00	2197.00	2197.75	2198.00	2198.00	2198.00	2198.00	2198.00	2198.75	2199.00	2198.50	2196.25	2194.50	2191.75	2189.75	2188.50	2187.25	2186.00	2186.50	2187.25	2188.50	2189.50	2192.00	2194.50	2197.25	2199.75	2203.50	2207.75	2211.25	2215.75	2218.75	2223.00	2227.00	2230.25	2234.00	2237.25	2240.75	2243.50	2245.00	2247.75	2250.50	2252.00	2254.00	2255.75	2256.50	2257.00	2257.75	2258.00	2257.00	2256.25	2255.25	2254.50	2253.00	2251.25	2250.25	2249.50	2248.75	2248.00	2248.00	2248.50	2249.00	2250.00	2250.75	2252.50	2253.50	2255.00	2256.25	2258.00	2259.50	2261.25	2262.00	2263.00	2264.00	2264.00	2264.00	2264.00	2264.00	2264.00	2264.00	2264.00	2263.00	2263.00	2262.50	2262.00	2262.00	2262.00	2261.00	2261.00	2261.00	2260.25	2260.00	2260.00	2260.00	2260.00	2260.00	2260.00	2260.00	2261.00	2261.00	2261.00	2261.50	2262.00	2262.00	2262.00	2262.00	2262.00	2262.00	2262.00	2261.25	2261.00
2048.00	2048.00	2047.00	2047.00	2047.00	2048.25	2049.50	2051.00	2052.25	2053.50	2054.50	2055.00	2056.50	2058.50	2060.75	2063.75	2067.25	2072.00	2076.50	2080.00	2082.75	2084.50	2087.00	2089.00	2090.75	2092.50	2094.25	2095.00	2096.00	2097.00	2098.00	2098.00	2097.50	2097.00	2096.75	2095.75	2094.75	2093.50	2092.25	2090.75	2089.50	2088.25	2087.50	2087.00	2086.00	2085.00	2085.00	2085.75	2086.00	2086.50	2087.75	2088.75	2090.50	2092.75	2095.00	2097.00	2099.50	2103.50	2106.00	2109.25	2112.25	2114.75	2117.00	2119.00	2121.75	2124.50	2126.00	2128.50	2130.25	2131.75	2133.00	2134.50	2135.00	2135.50	2136.00	2136.25	2137.00	2137.00	2137.75	2137.25	2137.00	2136.50	2136.00	2136.75	2137.00	2137.75	2138.25	2139.00	2140.00	2141.00	2141.25	2142.00	2142.00	2142.25	2143.00	2143.00	2143.00	2143.00	2143.00	2143.00	2143.00	2143.75	2144.00	2144.50	2145.00	2145.75	2146.50	2147.00	2148.25	2149.50	2151.25	2153.00	2155.25	2157.25	2159.50	2162.25	2164.75	2167.50	2170.00	2172.75	2175.50	2178.25	2181.75	2184.25	2186.25	2188.50	2191.25	2192.50	2194.25	2195.25	2196.50	2197.00	2196.00	2196.00	2196.00	2195.00	2194.50	2194.00	2193.00	2192.50	2192.00	2191.00	2191.75	2193.00	2194.25	2195.50	2196.00	2197.00	2197.75	2198.00	2198.00	2198.00	2198.00	2198.00	2198.75	2199.00	2198.50	2196.25	2194.50	2191.75	2189.75	2188.50	2187.25	2186.00	2186.50	2187.25	2188.50	2189.50	2192.00	2194.50	2197.25	2199.75	2203.50	2207.75	2211.25	2215.75	2218.75	2223.00	2227.00	2230.25	2234.00	2237.25	2240.75	2243.50	2245.00	2247.75	2250.50	2252.00	2254.00	2255.75	2256.50	2257.00	2257.75	2258.00	2257.00	2256.25	2255.25	2254.50	2253.00	2251.25	2250.25	2249.50	2248.75	2248.00	2248.00	2248.50	2249.00	2250.00	2250.75	2252.50	2253.50	2255.00	2256.25	2258.00	2259.50	2261.25	2262.00	2263.00	2264.00	2264.00	2264.00	2264.00	2264.00	2264.00	2264.00	2264.00	2263.00	2263.00	2262.50	2262.00	2262.00	2262.00	2261.00	2261.00	2261.00	2260.25	2260.00	2260.00	2260.00	2260.00	2260.00	2260.00	2260.00	2261.00	2261.00	2261.00	2261.50	2262.00	2262.00	2262.00	2262.00	2262.00	2262.00	2262.00	2261.25	2261.00
2046.75	2045.50	2044.00	2043.00	2044.50	2048.00	2050.75	2053.50	2056.00	2057.50	2060.00	2061.75	2063.00	2064.50	2065.50	2068.25	2073.00	2078.00	2083.00	2086.00	2088.25	2090.25	2092.00	2093.25	2094.50	2095.50	2097.00	2097.25	2098.00	2098.50	2098.75	2098.00	2098.00	2097.00	2095.75	2094.75	2093.25	2092.00	2090.75	2089.25	2088.25	2087.00	2086.00	2085.25	2084.75	2084.00	2084.00	2084.00	2084.00	2085.00	2086.25	2087.00	2088.50	2090.75	2093.25	2095.00	2097.50	2101.00	2104.00	2106.50	2109.25	2111.75	2114.50	2117.00	2119.50	2121.50	2124.00	2126.25	2127.75	2129.75	2131.00	2132.00	2133.00	2134.00	2134.25	2135.00	2135.00	2135.75	2136.00	2136.00	2136.00	2136.00	2136.00	2137.00	2137.00	2138.00	2138.75	2139.50	2140.50	2141.00	2141.75	2142.25	2143.00	2143.75	2144.00	2144.00	2144.50	2145.00	2145.00	2145.00	2145.25	2146.00	2146.00	2146.50	2147.50	2148.75	2149.50	2150.75	2152.25	2154.00	2156.00	2158.00	2160.25	2163.00	2165.50	2168.25	2170.75	2173.50	2176.00	2178.50	2180.50	2182.75	2184.75	2186.50	2188.25	2190.25	2191.75	2192.00	2193.00	2193.00	2193.00	2193.00	2192.75	2192.00	2191.50	2190.75	2189.75	2189.00	2189.00	2188.00	2188.00	2188.25	2189.75	2191.75	2193.50	2194.75	2195.75	2197.25	2198.00	2198.25	2199.00	2199.00	2199.00	2199.75	2200.00	2200.50	2200.00	2198.00	2196.50	2194.50	2192.75	2191.25	2189.25	2188.00	2188.50	2189.00	2189.50	2190.75	2192.75	2194.50	2196.50	2199.75	2202.75	2206.25	2209.75	2213.25	2216.00	2219.75	2223.50	2227.25	2231.75	2235.75	2238.75	2241.75	2244.00	2246.75	2249.50	2251.75	2253.75	2255.50	2256.25	2257.00	2257.75	2258.00	2257.00	2257.00	2256.25	2255.25	2254.25	2252.75	2251.50	2251.00	2250.00	2250.00	2250.00	2250.00	2250.75	2251.25	2252.50	2253.75	2255.25	2256.25	2257.25	2258.50	2259.50	2260.75	2261.50	2262.50	2263.00	2263.00	2263.00	2263.00	2263.00	2263.00	2263.00	2263.00	2262.00	2262.00	2262.00	2262.00	2261.25	2261.00	2261.00	2261.00	2261.00	2260.25	2260.00	2260.00	2260.00	2260.00	2260.00	2260.00	2260.25	2261.00	2261.00	2261.00	2262.00	2262.00	2262.00	2262.00	2262.00	2262.00	2262.00	2261.75	2261.00	2261.00
2046.75	2045.50	2044.00	2043.00	2044.50	2048.00	2050.75	2053.50	2056.00	2057.50	2060.00	2061.75	2063.00	2064.50	2065.50	2068.25	2073.00	2078.00	2083.00	2086.00	2088.25	2090.25	2092.00	2093.25	2094.50	2095.50	2097.00	2097.25	2098.00	2098.50	2098.75	2098.00	2098.00	2097.00	2095.75	2094.75	2093.25	2092.00	2090.75	2089.25	2088.25	2087.00	2086.00	2085.25	2084.75	2084.00	2084.00	2084.00	2084.00	2085.00	2086.25	2087.00	2088.50	2090.75	2093.25	2095.00	2097.50	2101.00	2104.00	2106.50	2109.25	2111.75	2114.50	2117.00	2119.50	2121.50	2124.00	2126.25	2127.75	2129.75	2131.00	2132.00	2133.00	2134.00	2134.25	2135.00	2135.00	2135.75	2136.00	2136.00	2136.00	2136.00	2136.00	2137.00	2137.00	2138.00	2138.75	2139.50	2140.50	2141.00	2141.75	2142.25	2143.00	2143.75	2144.00	2144.00	2144.50	2145.00	2145.00	2145.00	2145.25	2146.00	2146.00	2146.50	2147.50	2148.75	2149.50	2150.75	2152.25	2154.00	2156.00	2158.00	2160.25	2163.00	2165.50	2168.25	2170.75	2173.50	2176.00	2178.50	2180.50	2182.75	2184.75	2186.50	2188.25	2190.25	2191.75	2192.00	2193.00	2193.00	2193.00	2193.00	2192.75	2192.00	2191.50	2190.75	2189.75	2189.00	2189.00	2188.00	2188.00	2188.25	2189.75	2191.75	2193.50	2194.75	2195.75	2197.25	2198.00	2198.25	2199.00	2199.00	2199.00	2199.75	2200.00	2200.50	2200.00	2198.00	2196.50	2194.50	2192.75	2191.25	2189.25	2188.00	2188.50	2189.00	2189.50	2190.75	2192.75	2194.50	2196.50	2199.75	2202.75	2206.25	2209.75	2213.25	2216.00	2219.75	2223.50	2227.25	2231.75	2235.75	2238.75	2241.75	2244.00	2246.75	2249.50	2251.75	2253.75	2255.50	2256.25	2257.00	2257.75	2258.00	2257.00	2257.00	2256.25	2255.25	2254.25	2252.75	2251.50	2251.00	2250.00	2250.00	2250.00	2250.00	2250.75	2251.25	2252.50	2253.75	2255.25	2256.25	2257.25	2258.50	2259.50	2260.75	2261.50	2262.50	2263.00	2263.00	2263.00	2263.00	2263.00	2263.00	2263.00	2263.00	2262.00	2262.00	2262.00	2262.00	2261.25	2261.00	2261.00	2261.00	2261.00	2260.25	2260.00	2260.00	2260.00	2260.00	2260.00	2260.00	2260.25	2261.00	2261.00	2261.00	2262.00	2262.00	2262.00	2262.00	2262.00	2262.00	2262.00	2261.75	2261.00	2261.00
2046.75	2045.50	2044.00	2043.00	2044.50	2048.00	2050.75	2053.50	2056.00	2057.50	2060.00	2061.75	2063.00	2064.50	2065.50	2068.25	2073.00	2078.00	2083.00	2086.00	2088.25	2090.25	2092.00	2093.25	2094.50	2095.50	2097.00	2097.25	2098.00	2098.50	2098.75	2098.00	2098.00	2097.00	2095.75	2094.75	2093.25	2092.00	2090.75	2089.25	2088.25	2087.00	2086.00	2085.25	2084.75	2084.00	2084.00	2084.00	2084.00	2085.00	2086.25	2087.00	2088.50	2090.75	2093.25	2095.00	2097.50	2101.00	2104.00	2106.50	2109.25	2111.75	2114.50	2117.00	2119.50	2121.50	2124.00	2126.25	2127.75	2129.75	2131.00	2132.00	2133.00	2134.00	2134.25	2135.00	2135.00	2135.75	2136.00	2136.00	2136.00	2136.00	2136.00	2137.00	2137.00	2138.00	2138.75	2139.50	2140.50	2141.00	2141.75	2142.25	2143.00	2143.75	2144.00	2144.00	2144.50	2145.00	2145.00	2145.00	2145.25	2146.00	2146.00	2146.50	2147.50	2148.75	2149.50	2150.75	2152.25	2154.00	2156.00	2158.00	2160.25	2163.00	2165.50	2168.25	2170.75	2173.50	2176.00	2178.50	2180.50	2182.75	2184.75	2186.50	2188.25	2190.25	2191.75	2192.00	2193.00	2193.00	2193.00	2193.00	2192.75	2192.00	2191.50	2190.75	2189.75	2189.00	2189.00	2188.00	2188.00	2188.25	2189.75	2191.75	2193.50	2194.75	2195.75	2197.25	2198.00	2198.25	2199.00	2199.00	2199.00	2199.75	2200.00	2200.50	2200.00	2198.00	2196.50	2194.50	2192.75	2191.25	2189.25	2188.00	2188.50	2189.00	2189.50	2190.75	2192.75	2194.50	2196.50	2199.75	2202.75	2206.25	2209.75	2213.25	2216.00	2219.75	2223.50	2227.25	2231.75	2235.75	2238.75	2241.75	2244.00	2246.75	2249.50	2251.75	2253.75	2255.50	2256.25	2257.00	2257.75	2258.00	2257.00	2257.00	2256.25	2255.25	2254.25	2252.75	2251.50	2251.00	2250.00	2250.00	2250.00	2250.00	2250.75	2251.25	2252.50	2253.75	2255.25	2256.25	2257.25	2258.50	2259.50	2260.75	2261.50	2262.50	2263.00	2263.00	2263.00	2263.00	2263.00	2263.00	2263.00	2263.00	2262.00	2262.00	2262.00	2262.00	2261.25	2261.00	2261.00	2261.00	2261.00	2260.25	2260.00	2260.00	2260.00	2260.00	2260.00	2260.00	2260.25	2261.00	2261.00	2261.00	2262.00	2262.00	2262.00	2262.00	2262.00	2262.00	2262.00	2261.75	2261.00	2261.00
2045.62	2045.12	2044.00	2043.19	2045.06	2047.44	2050.00	2053.31	2056.56	2059.38	2062.62	2064.94	2067.12	2069.56	2071.69	2075.00	2078.81	2083.25	2087.12	2089.00	2091.44	2093.25	2094.81	2096.06	2097.50	2098.50	2099.25	2099.31	2099.69	2100.00	2099.69	2098.94	2098.75	2097.38	2096.50	2095.50	2094.00	2092.38	2091.12	2089.25	2088.25	2087.00	2086.00	2085.25	2084.75	2084.00	2084.00	2083.81	2084.00	2084.25	2085.31	2085.88	2087.56	2089.62	2091.56	2093.50	2096.00	2099.12	2101.75	2104.25	2107.00	2109.50	2112.25	2114.75	2117.44	2120.00	2122.31	2124.19	2125.88	2127.88	2129.31	2130.31	2131.69	2132.69	2133.31	2133.88	2134.25	2135.19	2135.25	2135.62	2136.00	2136.00	2136.56	2137.56	2137.75	2138.75	2139.50	2139.88	2140.88	2141.38	2142.12	2143.00	2143.94	2144.69	2144.94	2145.50	2146.00	2146.50	2146.88	2147.25	2147.69	2148.44	2149.19	2149.88	2151.25	2152.50	2153.44	2155.06	2156.94	2158.50	2160.50	2162.88	2164.75	2167.50	2170.00	2172.19	2174.50	2177.25	2179.56	2181.50	2183.12	2185.00	2186.62	2188.00	2189.00	2190.44	2191.19	2191.25	2191.50	2191.31	2190.75	2190.75	2190.12	2189.56	2188.88	2188.31	2187.31	2186.75	2186.75	2186.50	2186.50	2187.50	2189.38	2191.75	2193.69	2195.31	2196.50	2198.19	2198.94	2199.75	2200.50	2201.06	2201.81	2202.56	2203.00	2203.69	2202.25	2200.25	2198.75	2196.56	2194.62	2193.12	2191.12	2190.25	2190.00	2189.75	2190.06	2191.31	2192.75	2194.12	2195.75	2199.00	2201.81	2205.12	2208.25	2212.12	2214.50	2217.88	2222.38	2226.31	2231.00	2235.00	2238.00	2241.75	2244.00	2247.12	2249.50	2251.94	2254.31	2255.50	2256.25	2257.19	2257.94	2258.00	2257.38	2257.00	2256.62	2255.44	2254.62	2253.50	2252.62	2252.12	2251.31	2250.75	2251.31	2251.50	2252.25	2252.75	2253.62	2254.50	2255.44	2256.25	2257.62	2258.88	2259.69	2260.75	2261.12	2262.12	2262.25	2262.81	2263.00	2263.00	2263.00	2262.81	2262.25	2262.25	2262.00	2261.62	2261.25	2261.25	2261.06	2261.00	2261.00	2261.00	2260.44	2260.06	2260.00	2260.00	2260.00	2260.00	2260.00	2260.00	2260.62	2261.00	2261.00	2261.00	2261.25	2261.25	2261.25	2261.25	2261.25	2261.25	2261.25	2261.19	2260.81	2260.25
2045.25	2045.00	2044.00	2043.25	2045.25	2047.25	2049.75	2053.25	2056.75	2060.00	2063.50	2066.00	2068.50	2071.25	2073.75	2077.25	2080.75	2085.00	2088.50	2090.00	2092.50	2094.25	2095.75	2097.00	2098.50	2099.50	2100.00	2100.00	2100.25	2100.50	2100.00	2099.25	2099.00	2097.50	2096.75	2095.75	2094.25	2092.50	2091.25	2089.25	2088.25	2087.00	2086.00	2085.25	2084.75	2084.00	2084.00	2083.75	2084.00	2084.00	2085.00	2085.50	2087.25	2089.25	2091.00	2093.00	2095.50	2098.50	2101.00	2103.50	2106.25	2108.75	2111.50	2114.00	2116.75	2119.50	2121.75	2123.50	2125.25	2127.25	2128.75	2129.75	2131.25	2132.25	2133.00	2133.50	2134.00	2135.00	2135.00	2135.50	2136.00	2136.00	2136.75	2137.75	2138.00	2139.00	2139.75	2140.00	2141.00	2141.50	2142.25	2143.25	2144.25	2145.00	2145.25	2146.00	2146.50	2147.00	2147.50	2148.00	2148.50	2149.25	2150.25	2151.00	2152.50	2153.75	2154.75	2156.50	2158.50	2160.00	2162.00	2164.50	2166.25	2169.00	2171.50	2173.50	2175.75	2178.50	2180.75	2182.50	2184.00	2185.75	2187.25	2188.50	2189.25	2190.50	2191.00	2191.00	2191.00	2190.75	2190.00	2190.00	2189.25	2188.75	2188.00	2187.50	2186.50	2186.00	2186.00	2186.00	2186.00	2187.25	2189.25	2191.75	2193.75	2195.50	2196.75	2198.50	2199.25	2200.25	2201.00	2201.75	2202.75	2203.50	2204.00	2204.75	2203.00	2201.00	2199.50	2197.25	2195.25	2193.75	2191.75	2191.00	2190.50	2190.00	2190.25	2191.50	2192.75	2194.00	2195.50	2198.75	2201.50	2204.75	2207.75	2211.75	2214.00	2217.25	2222.00	2226.00	2230.75	2234.75	2237.75	2241.75	2244.00	2247.25	2249.50	2252.00	2254.50	2255.50	2256.25	2257.25	2258.00	2258.00	2257.50	2257.00	2256.75	2255.50	2254.75	2253.75	2253.00	2252.50	2251.75	2251.00	2251.75	2252.00	2252.75	2253.25	2254.00	2254.75	2255.50	2256.25	2257.75	2259.00	2259.75	2260.75	2261.00	2262.00	2262.00	2262.75	2263.00	2263.00	2263.00	2262.75	2262.00	2262.00	2262.00	2261.50	2261.00	2261.00	2261.00	2261.00	2261.00	2261.00	2260.25	2260.00	2260.00	2260.00	2260.00	2260.00	2260.00	2260.00	2260.75	2261.00	2261.00	2261.00	2261.00	2261.00	2261.00	2261.00	2261.00	2261.00	2261.00	2261.00	2260.75	2260.00
2045.25	2045.00	2044.00	2043.25	2045.25	2047.25	2049.75	2053.25	2056.75	2060.00	2063.50	2066.00	2068.50	2071.25	2073.75	2077.25	2080.75	2085.00	2088.50	2090.00	2092.50	2094.25	2095.75	2097.00	2098.50	2099.50	2100.00	2100.00	2100.25	2100.50	2100.00	2099.25	2099.00	2097.50	2096.75	2095.75	2094.25	2092.50	2091.25	2089.25	2088.25	2087.00	2086.00	2085.25	2084.75	2084.00	2084.00	2083.75	2084.00	2084.00	2085.00	2085.50	2087.25	2089.25	2091.00	2093.00	2095.50	2098.50	2101.00	2103.50	2106.25	2108.75	2111.50	2114.00	2116.75	2119.50	2121.75	2123.50	2125.25	2127.25	2128.75	2129.75	2131.25	2132.25	2133.00	2133.50	2134.00	2135.00	2135.00	2135.50	2136.00	2136.00	2136.75	2137.75	2138.00	2139.00	2139.75	2140.00	2141.00	2141.50	2142.25	2143.25	2144.25	2145.00	2145.25	2146.00	2146.50	2147.00	2147.50	2148.00	2148.50	2149.25	2150.25	2151.00	2152.50	2153.75	2154.75	2156.50	2158.50	2160.00	2162.00	2164.50	2166.25	2169.00	2171.50	2173.50	2175.75	2178.50	2180.75	2182.50	2184.00	2185.75	2187.25	2188.50	2189.25	2190.50	2191.00	2191.00	2191.00	2190.75	2190.00	2190.00	2189.25	2188.75	2188.00	2187.50	2186.50	2186.00	2186.00	2186.00	2186.00	2187.25	2189.25	2191.75	2193.75	2195.50	2196.75	2198.50	2199.25	2200.25	2201.00	2201.75	2202.75	2203.50	2204.00	2204.75	2203.00	2201.00	2199.50	2197.25	2195.25	2193.75	2191.75	2191.00	2190.50	2190.00	2190.25	2191.50	2192.75	2194.00	2195.50	2198.75	2201.50	2204.75	2207.75	2211.75	2214.00	2217.25	2222.00	2226.00	2230.75	2234.75	2237.75	2241.75	2244.00	2247.25	2249.50	2252.00	2254.50	2255.50	2256.25	2257.25	2258.00	2258.00	2257.50	2257.00	2256.75	2255.50	2254.75	2253.75	2253.00	2252.50	2251.75	2251.00	2251.75	2252.00	2252.75	2253.25	2254.00	2254.75	2255.50	2256.25	2257.75	2259.00	2259.75	2260.75	2261.00	2262.00	2262.00	2262.75	2263.00	2263.00	2263.00	2262.75	2262.00	2262.00	2262.00	2261.50	2261.00	2261.00	2261.00	2261.00	2261.00	2261.00	2260.25	2260.00	2260.00	2260.00	2260.00	2260.00	2260.00	2260.00	2260.75	2261.00	2261.00	2261.00	2261.00	2261.00	2261.00	2261.00	2261.00	2261.00	2261.00	2261.00	2260.75	2260.00
2044.94	2044.75	2044.25	2043.75	2045.44	2047.12	2049.31	2053.06	2056.75	2060.25	2064.00	2066.75	2069.44	2072.44	2075.06	2078.62	2082.06	2086.00	2089.25	2090.94	2093.31	2095.06	2096.50	2097.75	2099.25	2100.12	2100.50	2100.56	2100.94	2100.88	2100.50	2099.75	2099.50	2098.25	2097.31	2096.38	2094.94	2093.25	2091.94	2089.94	2088.81	2087.56	2086.44	2085.56	2085.06	2084.38	2084.25	2084.06	2084.25	2084.25	2085.00	2085.50	2087.12	2089.00	2090.69	2092.56	2095.00	2097.75	2100.25	2102.75	2105.50	2108.00	2110.75	2113.25	2116.00	2118.75	2120.88	2122.75	2124.50	2126.62	2128.06	2129.19	2130.75	2131.81	2132.56	2133.12	2133.75	2134.56	2134.81	2135.38	2135.88	2136.12	2137.00	2138.00	2138.38	2139.25	2140.00	2140.25	2141.12	2141.75	2142.62	2143.62	2144.56	2145.31	2145.75	2146.50	2147.12	2147.75	2148.31	2149.00	2149.69	2150.50	2151.50	2152.38	2153.81	2155.12	2156.19	2158.00	2160.00	2161.50	2163.50	2166.00	2167.75	2170.44	2172.75	2174.75	2177.00	2179.56	2181.62	2183.19	2184.50	2186.00	2187.19	2188.31	2188.94	2189.88	2190.25	2190.25	2190.25	2190.00	2189.25	2189.12	2188.44	2188.00	2187.25	2186.88	2186.12	2185.75	2185.75	2185.75	2186.00	2187.44	2189.50	2191.94	2194.00	2195.75	2197.25	2199.06	2200.00	2201.12	2202.00	2202.94	2204.00	2204.75	2205.44	2205.94	2204.19	2202.19	2200.50	2198.12	2195.94	2194.25	2192.19	2191.44	2190.81	2190.25	2190.31	2191.56	2192.88	2194.12	2195.69	2198.56	2201.06	2204.12	2207.00	2211.00	2213.44	2216.81	2221.50	2225.56	2230.25	2234.25	2237.38	2241.50	2243.94	2247.12	2249.50	2252.00	2254.31	2255.31	2256.06	2257.06	2257.75	2257.75	2257.38	2256.81	2256.56	2255.44	2254.75	2253.81	2253.06	2252.62	2251.81	2251.25	2251.81	2252.25	2252.81	2253.38	2254.12	2254.81	2255.62	2256.38	2257.75	2258.88	2259.69	2260.62	2261.00	2261.94	2262.00	2262.62	2263.00	2263.00	2263.00	2262.81	2262.12	2262.00	2262.00	2261.50	2261.00	2261.00	2260.94	2260.75	2260.75	2260.75	2260.19	2260.00	2260.00	2260.00	2260.00	2260.00	2260.00	2260.00	2260.81	2261.00	2261.00	2261.00	2261.00	2261.00	2261.00	2261.00	2261.00	2261.00	2261.00	2260.75	2260.56	2260.00
2044.00	2044.00	2045.00	2045.25	2046.00	2046.75	2048.00	2052.50	2056.75	2061.00	2065.50	2069.00	2072.25	2076.00	2079.00	2082.75	2086.00	2089.00	2091.50	2093.75	2095.75	2097.50	2098.75	2100.00	2101.50	2102.00	2102.00	2102.25	2103.00	2102.00	2102.00	2101.25	2101.00	2100.50	2099.00	2098.25	2097.00	2095.50	2094.00	2092.00	2090.50	2089.25	2087.75	2086.50	2086.00	2085.50	2085.00	2085.00	2085.00	2085.00	2085.00	2085.50	2086.75	2088.25	2089.75	2091.25	2093.50	2095.50	2098.00	2100.50	2103.25	2105.75	2108.50	2111.00	2113.75	2116.50	2118.25	2120.50	2122.25	2124.75	2126.00	2127.50	2129.25	2130.50	2131.25	2132.00	2133.00	2133.25	2134.25	2135.00	2135.50	2136.50	2137.75	2138.75	2139.50	2140.00	2140.75	2141.00	2141.50	2142.50	2143.75	2144.75	2145.50	2146.25	2147.25	2148.00	2149.00	2150.00	2150.75	2152.00	2153.25	2154.25	2155.25	2156.50	2157.75	2159.25	2160.50	2162.50	2164.50	2166.00	2168.00	2170.50	2172.25	2174.75	2176.50	2178.50	2180.75	2182.75	2184.25	2185.25	2186.00	2186.75	2187.00	2187.75	2188.00	2188.00	2188.00	2188.00	2188.00	2187.75	2187.00	2186.50	2186.00	2185.75	2185.00	2185.00	2185.00	2185.00	2185.00	2185.00	2186.00	2188.00	2190.25	2192.50	2194.75	2196.50	2198.75	2200.75	2202.25	2203.75	2205.00	2206.50	2207.75	2208.50	2209.75	2209.50	2207.75	2205.75	2203.50	2200.75	2198.00	2195.75	2193.50	2192.75	2191.75	2191.00	2190.50	2191.75	2193.25	2194.50	2196.25	2198.00	2199.75	2202.25	2204.75	2208.75	2211.75	2215.50	2220.00	2224.25	2228.75	2232.75	2236.25	2240.75	2243.75	2246.75	2249.50	2252.00	2253.75	2254.75	2255.50	2256.50	2257.00	2257.00	2257.00	2256.25	2256.00	2255.25	2254.75	2254.00	2253.25	2253.00	2252.00	2252.00	2252.00	2253.00	2253.00	2253.75	2254.50	2255.00	2256.00	2256.75	2257.75	2258.50	2259.50	2260.25	2261.00	2261.75	2262.00	2262.25	2263.00	2263.00	2263.00	2263.00	2262.50	2262.00	2262.00	2261.50	2261.00	2261.00	2260.75	2260.00	2260.00	2260.00	2260.00	2260.00	2260.00	2260.00	2260.00	2260.00	2260.00	2260.00	2261.00	2261.00	2261.00	2261.00	2261.00	2261.00	2261.00	2261.00	2261.00	2261.00	2261.00	2260.00	2260.00	2260.00
2044.00	2044.00	2045.00	2045.25	2046.00	2046.75	2048.00	2052.50	2056.75	2061.00	2065.50	2069.00	2072.25	2076.00	2079.00	2082.75	2086.00	2089.00	2091.50	2093.75	2095.75	2097.50	2098.75	2100.00	2101.50	2102.00	2102.00	2102.25	2103.00	2102.00	2102.00	2101.25	2101.00	2100.50	2099.00	2098.25	2097.00	2095.50	2094.00	2092.00	2090.50	2089.25	2087.75	2086.50	2086.00	2085.50	2085.00	2085.00	2085.00	2085.00	2085.00	2085.50	2086.75	2088.25	2089.75	2091.25	2093.50	2095.50	2098.00	2100.50	2103.25	2105.75	2108.50	2111.00	2113.75	2116.50	2118.25	2120.50	2122.25	2124.75	2126.00	2127.50	2129.25	2130.50	2131.25	2132.00	2133.00	2133.25	2134.25	2135.00	2135.50	2136.50	2137.75	2138.75	2139.50	2140.00	2140.75	2141.00	2141.50	2142.50	2143.75	2144.75	2145.50	2146.25	2147.25	2148.00	2149.00	2150.00	2150.75	2152.00	2153.25	2154.25	2155.25	2156.50	2157.75	2159.25	2160.50	2162.50	2164.50	2166.00	2168.00	2170.50	2172.25	2174.75	2176.50	2178.50	2180.75	2182.75	2184.25	2185.25	2186.00	2186.75	2187.00	2187.75	2188.00	2188.00	2188.00	2188.00	2188.00	2187.75	2187.00	2186.50	2186.00	2185.75	2185.00	2185.00	2185.00	2185.00	2185.00	2185.00	2186.00	2188.00	2190.25	2192.50	2194.75	2196.50	2198.75	2200.75	2202.25	2203.75	2205.00	2206.50	2207.75	2208.50	2209.75	2209.50	2207.75	2205.75	2203.50	2200.75	2198.00	2195.75	2193.50	2192.75	2191.75	2191.00	2190.50	2191.75	2193.25	2194.50	2196.25	2198.00	2199.75	2202.25	2204.75	2208.75	2211.75	2215.50	2220.00	2224.25	2228.75	2232.75	2236.25	2240.75	2243.75	2246.75	2249.50	2252.00	2253.75	2254.75	2255.50	2256.50	2257.00	2257.00	2257.00	2256.25	2256.00	2255.25	2254.75	2254.00	2253.25	2253.00	2252.00	2252.00	2252.00	2253.00	2253.00	2253.75	2254.50	2255.00	2256.00	2256.75	2257.75	2258.50	2259.50	2260.25	2261.00	2261.75	2262.00	2262.25	2263.00	2263.00	2263.00	2263.00	2262.50	2262.00	2262.00	2261.50	2261.00	2261.00	2260.75	2260.00	2260.00	2260.00	2260.00	2260.00	2260.00	2260.00	2260.00	2260.00	2260.00	2260.00	2261.00	2261.00	2261.00	2261.00	2261.00	2261.00	2261.00	2261.00	2261.00	2261.00	2261.00	2260.00	2260.00	2260.00
2044.00	2044.00	2045.00	2045.25	2046.00	2046.75	2048.00	2052.50	2056.75	2061.00	2065.50	2069.00	2072.25	2076.00	2079.00	2082.75	2086.00	2089.00	2091.50	2093.75	2095.75	2097.50	2098.75	2100.00	2101.50	2102.00	2102.00	2102.25	2103.00	2102.00	2102.00	2101.25	2101.00	2100.50	2099.00	2098.25	2097.00	2095.50	2094.00	2092.00	2090.50	2089.25	2087.75	2086.50	2086.00	2085.50	2085.00	2085.00	2085.00	2085.00	2085.00	2085.50	2086.75	2088.25	2089.75	2091.25	2093.50	2095.50	2098.00	2100.50	2103.25	2105.75	2108.50	2111.00	2113.75	2116.50	2118.25	2120.50	2122.25	2124.75	2126.00	2127.50	2129.25	2130.50	2131.25	2132.00	2133.00	2133.25	2134.25	2135.00	2135.50	2136.50	2137.75	2138.75	2139.50	2140.00	2140.75	2141.00	2141.50	2142.50	2143.75	2144.75	2145.50	2146.25	2147.25	2148.00	2149.00	2150.00	2150.75	2152.00	2153.25	2154.25	2155.25	2156.50	2157.75	2159.25	2160.50	2162.50	2164.50	2166.00	2168.00	2170.50	2172.25	2174.75	2176.50	2178.50	2180.75	2182.75	2184.25	2185.25	2186.00	2186.75	2187.00	2187.75	2188.00	2188.00	2188.00	2188.00	2188.00	2187.75	2187.00	2186.50	2186.00	2185.75	2185.00	2185.00	2185.00	2185.00	2185.00	2185.00	2186.00	2188.00	2190.25	2192.50	2194.75	2196.50	2198.75	2200.75	2202.25	2203.75	2205.00	2206.50	2207.75	2208.50	2209.75	2209.50	2207.75	2205.75	2203.50	2200.75	2198.00	2195.75	2193.50	2192.75	2191.75	2191.00	2190.50	2191.75	2193.25	2194.50	2196.25	2198.00	2199.75	2202.25	2204.75	2208.75	2211.75	2215.50	2220.00	2224.25	2228.75	2232.75	2236.25	2240.75	2243.75	2246.75	2249.50	2252.00	2253.75	2254.75	2255.50	2256.50	2257.00	2257.00	2257.00	2256.25	2256.00	2255.25	2254.75	2254.00	2253.25	2253.00	2252.00	2252.00	2252.00	2253.00	2253.00	2253.75	2254.50	2255.00	2256.00	2256.75	2257.75	2258.50	2259.50	2260.25	2261.00	2261.75	2262.00	2262.25	2263.00	2263.00	2263.00	2263.00	2262.50	2262.00	2262.00	2261.50	2261.00	2261.00	2260.75	2260.00	2260.00	2260.00	2260.00	2260.00	2260.00	2260.00	2260.00	2260.00	2260.00	2260.00	2261.00	2261.00	2261.00	2261.00	2261.00	2261.00	2261.00	2261.00	2261.00	2261.00	2261.00	2260.00	2260.00	2260.00
2042.75	2043.50	2044.50	2045.75	2046.50	2047.50	2050.00	2053.50	2056.25	2059.50	2064.00	2068.25	2072.25	2076.25	2080.00	2084.00	2087.75	2090.75	2092.50	2095.00	2097.25	2098.75	2100.25	2101.75	2102.75	2104.00	2104.50	2105.00	2105.00	2104.50	2104.00	2103.00	2103.00	2103.00	2102.00	2102.00	2100.75	2099.50	2098.00	2096.25	2095.25	2093.25	2091.75	2090.50	2089.25	2088.50	2087.75	2087.00	2087.00	2086.00	2086.00	2086.75	2087.75	2088.50	2089.75	2091.25	2093.00	2095.00	2096.75	2098.50	2100.75	2102.75	2105.50	2107.25	2109.75	2112.50	2114.75	2116.75	2119.25	2121.25	2123.00	2124.75	2126.25	2128.25	2129.25	2130.50	2132.00	2133.25	2134.75	2135.75	2136.50	2138.00	2138.75	2140.00	2141.00	2141.25	2142.00	2142.50	2143.50	2144.25	2145.00	2146.25	2147.25	2148.25	2149.25	2150.50	2151.75	2153.00	2153.75	2155.50	2157.25	2158.25	2159.75	2161.00	2162.50	2164.25	2165.50	2167.50	2169.25	2171.00	2173.00	2174.50	2176.75	2179.00	2180.25	2181.50	2182.50	2183.75	2184.25	2185.00	2186.00	2186.00	2186.00	2186.00	2186.00	2185.75	2185.00	2185.00	2185.00	2184.75	2184.00	2183.50	2183.00	2183.25	2184.00	2184.00	2184.25	2185.00	2186.00	2186.50	2188.00	2191.00	2193.25	2196.25	2197.75	2199.75	2201.75	2203.75	2205.75	2208.00	2210.00	2211.50	2212.25	2213.00	2213.75	2212.50	2211.00	2209.00	2207.50	2204.75	2203.00	2200.75	2197.75	2196.25	2194.25	2192.75	2193.00	2193.00	2193.75	2194.50	2195.75	2197.25	2199.00	2201.25	2204.00	2207.75	2210.25	2214.25	2219.00	2222.75	2227.25	2231.00	2234.25	2239.00	2242.00	2244.75	2247.50	2250.00	2251.75	2252.75	2253.50	2255.00	2255.00	2255.00	2255.00	2254.75	2254.00	2254.00	2253.00	2253.00	2253.00	2252.00	2252.00	2252.00	2252.25	2253.00	2253.00	2254.00	2254.75	2255.50	2256.25	2257.25	2258.00	2259.00	2259.50	2260.00	2260.75	2261.50	2262.00	2262.25	2263.00	2263.00	2263.00	2263.00	2263.00	2262.50	2262.00	2261.50	2261.00	2261.00	2260.50	2260.00	2260.00	2260.00	2259.25	2259.00	2259.00	2259.25	2260.00	2260.00	2260.00	2260.00	2260.00	2260.00	2260.50	2261.00	2261.00	2261.00	2261.00	2261.00	2261.00	2261.00	2260.50	2260.00	2260.00	2260.00
2042.75	2043.50	2044.50	2045.75	2046.50	2047.50	2050.00	2053.50	2056.25	2059.50	2064.00	2068.25	2072.25	2076.25	2080.00	2084.00	2087.75	2090.75	2092.50	2095.00	2097.25	2098.75	2100.25	2101.75	2102.75	2104.00	2104.50	2105.00	2105.00	2104.50	2104.00	2103.00	2103.00	2103.00	2102.00	2102.00	2100.75	2099.50	2098.00	2096.25	2095.25	2093.25	2091.75	2090.50	2089.25	2088.50	2087.75	2087.00	2087.00	2086.00	2086.00	2086.75	2087.75	2088.50	2089.75	2091.25	2093.00	2095.00	2096.75	2098.50	2100.75	2102.75	2105.50	2107.25	2109.75	2112.50	2114.75	2116.75	2119.25	2121.25	2123.00	2124.75	2126.25	2128.25	2129.25	2130.50	2132.00	2133.25	2134.75	2135.75	2136.50	2138.00	2138.75	2140.00	2141.00	2141.25	2142.00	2142.50	2143.50	2144.25	2145.00	2146.25	2147.25	2148.25	2149.25	2150.50	2151.75	2153.00	2153.75	2155.50	2157.25	2158.25	2159.75	2161.00	2162.50	2164.25	2165.50	2167.50	2169.25	2171.00	2173.00	2174.50	2176.75	2179.00	2180.25	2181.50	2182.50	2183.75	2184.25	2185.00	2186.00	2186.00	2186.00	2186.00	2186.00	2185.75	2185.00	2185.00	2185.00	2184.75	2184.00	2183.50	2183.00	2183.25	2184.00	2184.00	2184.25	2185.00	2186.00	2186.50	2188.00	2191.00	2193.25	2196.25	2197.75	2199.75	2201.75	2203.75	2205.75	2208.00	2210.00	2211.50	2212.25	2213.00	2213.75	2212.50	2211.00	2209.00	2207.50	2204.75	2203.00	2200.75	2197.75	2196.25	2194.25	2192.75	2193.00	2193.00	2193.75	2194.50	2195.75	2197.25	2199.00	2201.25	2204.00	2207.75	2210.25	2214.25	2219.00	2222.75	2227.25	2231.00	2234.25	2239.00	2242.00	2244.75	2247.50	2250.00	2251.75	2252.75	2253.50	2255.00	2255.00	2255.00	2255.00	2254.75	2254.00	2254.00	2253.00	2253.00	2253.00	2252.00	2252.00	2252.00	2252.25	2253.00	2253.00	2254.00	2254.75	2255.50	2256.25	2257.25	2258.00	2259.00	2259.50	2260.00	2260.75	2261.50	2262.00	2262.25	2263.00	2263.00	2263.00	2263.00	2263.00	2262.50	2262.00	2261.50	2261.00	2261.00	2260.50	2260.00	2260.00	2260.00	2259.25	2259.00	2259.00	2259.25	2260.00	2260.00	2260.00	2260.00	2260.00	2260.00	2260.50	2261.00	2261.00	2261.00	2261.00	2261.00	2261.00	2261.00	2260.50	2260.00	2260.00	2260.00
2042.75	2043.50	2044.50	2045.75	2046.50	2047.50	2050.00	2053.50	2056.25	2059.50	2064.00	2068.25	2072.25	2076.25	2080.00	2084.00	2087.75	2090.75	2092.50	2095.00	2097.25	2098.75	2100.25	2101.75	2102.75	2104.00	2104.50	2105.00	2105.00	2104.50	2104.00	2103.00	2103.00	2103.00	2102.00	2102.00	2100.75	2099.50	2098.00	2096.25	2095.25	2093.25	2091.75	2090.50	2089.25	2088.50	2087.75	2087.00	2087.00	2086.00	2086.00	2086.75	2087.75	2088.50	2089.75	2091.25	2093.00	2095.00	2096.75	2098.50	2100.75	2102.75	2105.50	2107.25	2109.75	2112.50	2114.75	2116.75	2119.25	2121.25	2123.00	2124.75	2126.25	2128.25	2129.25	2130.50	2132.00	2133.25	2134.75	2135.75	2136.50	2138.00	2138.75	2140.00	2141.00	2141.25	2142.00	2142.50	2143.50	2144.25	2145.00	2146.25	2147.25	2148.25	2149.25	2150.50	2151.75	2153.00	2153.75	2155.50	2157.25	2158.25	2159.75	2161.00	2162.50	2164.25	2165.50	2167.50	2169.25	2171.00	2173.00	2174.50	2176.75	2179.00	2180.25	2181.50	2182.50	2183.75	2184.25	2185.00	2186.00	2186.00	2186.00	2186.00	2186.00	2185.75	2185.00	2185.00	2185.00	2184.75	2184.00	2183.50	2183.00	2183.25	2184.00	2184.00	2184.25	2185.00	2186.00	2186.50	2188.00	2191.00	2193.25	2196.25	2197.75	2199.75	2201.75	2203.75	2205.75	2208.00	2210.00	2211.50	2212.25	2213.00	2213.75	2212.50	2211.00	2209.00	2207.50	2204.75	2203.00	2200.75	2197.75	2196.25	2194.25	2192.75	2193.00	2193.00	2193.75	2194.50	2195.75	2197.25	2199.00	2201.25	2204.00	2207.75	2210.25	2214.25	2219.00	2222.75	2227.25	2231.00	2234.25	2239.00	2242.00	2244.75	2247.50	2250.00	2251.75	2252.75	2253.50	2255.00	2255.00	2255.00	2255.00	2254.75	2254.00	2254.00	2253.00	2253.00	2253.00	2252.00	2252.00	2252.00	2252.25	2253.00	2253.00	2254.00	2254.75	2255.50	2256.25	2257.25	2258.00	2259.00	2259.50	2260.00	2260.75	2261.50	2262.00	2262.25	2263.00	2263.00	2263.00	2263.00	2263.00	2262.50	2262.00	2261.50	2261.00	2261.00	2260.50	2260.00	2260.00	2260.00	2259.25	2259.00	2259.00	2259.25	2260.00	2260.00	2260.00	2260.00	2260.00	2260.00	2260.50	2261.00	2261.00	2261.00	2261.00	2261.00	2261.00	2261.00	2260.50	2260.00	2260.00	2260.00
2041.25	2042.38	2043.75	2045.00	2046.12	2047.69	2049.81	2052.75	2055.31	2058.75	2063.25	2067.50	2071.50	2075.88	2079.44	2083.81	2087.19	2090.00	2092.50	2095.00	2097.25	2098.56	2100.25	2101.75	2102.75	2104.38	2105.25	2106.31	2106.50	2106.75	2107.00	2106.19	2105.44	2104.50	2103.50	2103.50	2102.44	2102.12	2101.19	2100.00	2099.00	2097.00	2095.50	2094.25	2093.00	2091.50	2090.38	2089.44	2088.88	2087.69	2087.50	2087.69	2088.50	2088.88	2089.75	2090.88	2091.88	2093.12	2094.88	2096.62	2098.31	2100.50	2102.69	2104.81	2107.50	2109.50	2111.94	2114.12	2116.25	2118.25	2120.38	2122.31	2124.38	2126.38	2128.31	2130.31	2132.00	2133.62	2135.31	2136.88	2138.00	2139.12	2140.25	2141.50	2142.12	2142.75	2143.50	2144.19	2145.00	2145.75	2146.50	2147.38	2148.75	2149.75	2151.12	2152.38	2153.81	2155.06	2156.00	2157.75	2159.12	2160.50	2162.00	2163.62	2164.94	2166.88	2168.31	2170.31	2171.88	2174.00	2175.44	2177.12	2179.00	2180.69	2181.56	2182.44	2183.25	2183.94	2184.25	2185.00	2185.25	2185.25	2184.50	2184.50	2184.31	2183.69	2183.50	2183.50	2183.50	2182.88	2182.50	2182.38	2182.25	2182.88	2183.25	2184.00	2185.00	2186.31	2187.69	2188.75	2191.00	2193.81	2195.50	2198.50	2200.75	2202.56	2204.94	2207.12	2208.94	2211.75	2213.38	2214.69	2215.62	2216.00	2216.38	2214.94	2213.25	2211.81	2210.12	2208.88	2207.31	2206.19	2203.19	2200.75	2198.19	2196.50	2196.00	2196.00	2195.44	2196.00	2196.69	2197.81	2199.00	2201.25	2204.56	2207.75	2210.25	2213.88	2217.88	2221.25	2225.19	2228.75	2232.56	2236.75	2239.75	2242.50	2245.25	2247.56	2248.94	2250.31	2251.25	2252.75	2252.75	2252.75	2252.75	2252.69	2252.50	2252.50	2252.25	2252.25	2252.25	2252.00	2252.00	2252.56	2252.81	2253.38	2253.75	2254.75	2255.50	2256.25	2256.81	2257.62	2258.19	2259.00	2259.69	2260.00	2260.75	2261.12	2261.62	2262.06	2262.81	2263.00	2262.44	2262.25	2262.25	2262.12	2261.44	2261.12	2261.00	2261.00	2260.31	2260.00	2260.00	2260.00	2259.06	2259.00	2259.00	2259.06	2259.25	2259.25	2259.62	2260.00	2260.00	2260.00	2260.12	2260.25	2260.25	2260.81	2261.00	2261.00	2261.00	2261.00	2260.12	2260.00	2260.00	2260.00
2040.75	2042.00	2043.50	2044.75	2046.00	2047.75	2049.75	2052.50	2055.00	2058.50	2063.00	2067.25	2071.25	2075.75	2079.25	2083.75	2087.00	2089.75	2092.50	2095.00	2097.25	2098.50	2100.25	2101.75	2102.75	2104.50	2105.50	2106.75	2107.00	2107.50	2108.00	2107.25	2106.25	2105.00	2104.00	2104.00	2103.00	2103.00	2102.25	2101.25	2100.25	2098.25	2096.75	2095.50	2094.25	2092.50	2091.25	2090.25	2089.50	2088.25	2088.00	2088.00	2088.75	2089.00	2089.75	2090.75	2091.50	2092.50	2094.25	2096.00	2097.50	2099.75	2101.75	2104.00	2106.75	2108.50	2111.00	2113.25	2115.25	2117.25	2119.50	2121.50	2123.75	2125.75	2128.00	2130.25	2132.00	2133.75	2135.50	2137.25	2138.50	2139.50	2140.75	2142.00	2142.50	2143.25	2144.00	2144.75	2145.50	2146.25	2147.00	2147.75	2149.25	2150.25	2151.75	2153.00	2154.50	2155.75	2156.75	2158.50	2159.75	2161.25	2162.75	2164.50	2165.75	2167.75	2169.25	2171.25	2172.75	2175.00	2176.25	2178.00	2179.75	2181.25	2182.00	2182.75	2183.50	2184.00	2184.25	2185.00	2185.00	2185.00	2184.00	2184.00	2183.75	2183.00	2183.00	2183.00	2183.00	2182.25	2182.00	2182.00	2182.00	2182.75	2183.00	2184.00	2185.25	2186.75	2188.25	2189.50	2192.00	2194.75	2196.25	2199.25	2201.75	2203.50	2206.00	2208.25	2210.00	2213.00	2214.50	2215.75	2216.75	2217.00	2217.25	2215.75	2214.00	2212.75	2211.00	2210.25	2208.75	2208.00	2205.00	2202.25	2199.50	2197.75	2197.00	2197.00	2196.00	2196.50	2197.00	2198.00	2199.00	2201.25	2204.75	2207.75	2210.25	2213.75	2217.50	2220.75	2224.50	2228.00	2232.00	2236.00	2239.00	2241.75	2244.50	2246.75	2248.00	2249.50	2250.50	2252.00	2252.00	2252.00	2252.00	2252.00	2252.00	2252.00	2252.00	2252.00	2252.00	2252.00	2252.00	2252.75	2253.00	2253.50	2254.00	2255.00	2255.75	2256.50	2257.00	2257.75	2258.25	2259.00	2259.75	2260.00	2260.75	2261.00	2261.50	2262.00	2262.75	2263.00	2262.25	2262.00	2262.00	2262.00	2261.25	2261.00	2261.00	2261.00	2260.25	2260.00	2260.00	2260.00	2259.00	2259.00	2259.00	2259.00	2259.00	2259.00	2259.50	2260.00	2260.00	2260.00	2260.00	2260.00	2260.00	2260.75	2261.00	2261.00	2261.00	2261.00	2260.00	2260.00	2260.00	2260.00
2040.75	2042.00	2043.50	2044.75	2046.00	2047.75	2049.75	2052.50	2055.00	2058.50	2063.00	2067.25	2071.25	2075.75	2079.25	2083.75	2087.00	2089.75	2092.50	2095.00	2097.25	2098.50	2100.25	2101.75	2102.75	2104.50	2105.50	2106.75	2107.00	2107.50	2108.00	2107.25	2106.25	2105.00	2104.00	2104.00	2103.00	2103.00	2102.25	2101.25	2100.25	2098.25	2096.75	2095.50	2094.25	2092.50	2091.25	2090.25	2089.50	2088.25	2088.00	2088.00	2088.75	2089.00	2089.75	2090.75	2091.50	2092.50	2094.25	2096.00	2097.50	2099.75	2101.75	2104.00	2106.75	2108.50	2111.00	2113.25	2115.25	2117.25	2119.50	2121.50	2123.75	2125.75	2128.00	2130.25	2132.00	2133.75	2135.50	2137.25	2138.50	2139.50	2140.75	2142.00	2142.50	2143.25	2144.00	2144.75	2145.50	2146.25	2147.00	2147.75	2149.25	2150.25	2151.75	2153.00	2154.50	2155.75	2156.75	2158.50	2159.75	2161.25	2162.75	2164.50	2165.75	2167.75	2169.25	2171.25	2172.75	2175.00	2176.25	2178.00	2179.75	2181.25	2182.00	2182.75	2183.50	2184.00	2184.25	2185.00	2185.00	2185.00	2184.00	2184.00	2183.75	2183.00	2183.00	2183.00	2183.00	2182.25	2182.00	2182.00	2182.00	2182.75	2183.00	2184.00	2185.25	2186.75	2188.25	2189.50	2192.00	2194.75	2196.25	2199.25	2201.75	2203.50	2206.00	2208.25	2210.00	2213.00	2214.50	2215.75	2216.75	2217.00	2217.25	2215.75	2214.00	2212.75	2211.00	2210.25	2208.75	2208.00	2205.00	2202.25	2199.50	2197.75	2197.00	2197.00	2196.00	2196.50	2197.00	2198.00	2199.00	2201.25	2204.75	2207.75	2210.25	2213.75	2217.50	2220.75	2224.50	2228.00	2232.00	2236.00	2239.00	2241.75	2244.50	2246.75	2248.00	2249.50	2250.50	2252.00	2252.00	2252.00	2252.00	2252.00	2252.00	2252.00	2252.00	2252.00	2252.00	2252.00	2252.00	2252.75	2253.00	2253.50	2254.00	2255.00	2255.75	2256.50	2257.00	2257.75	2258.25	2259.00	2259.75	2260.00	2260.75	2261.00	2261.50	2262.00	2262.75	2263.00	2262.25	2262.00	2262.00	2262.00	2261.25	2261.00	2261.00	2261.00	2260.25	2260.00	2260.00	2260.00	2259.00	2259.00	2259.00	2259.00	2259.00	2259.00	2259.50	2260.00	2260.00	2260.00	2260.00	2260.00	2260.00	2260.75	2261.00	2261.00	2261.00	2261.00	2260.00	2260.00	2260.00	2260.00
2040.25	2041.50	2043.00	2044.38	2045.69	2047.62	2049.62	2052.25	2054.81	2058.38	2062.88	2067.00	2071.06	2075.50	2079.06	2083.56	2086.75	2089.56	2092.50	2094.94	2097.00	2098.25	2099.88	2101.31	2102.44	2104.00	2105.00	2106.25	2106.81	2107.50	2108.19	2107.38	2106.31	2105.12	2104.25	2104.25	2103.50	2103.50	2102.88	2101.88	2100.94	2099.19	2097.69	2096.31	2094.94	2093.25	2092.00	2090.88	2090.12	2088.81	2088.44	2088.25	2088.69	2088.75	2089.50	2090.31	2090.88	2091.88	2093.50	2095.12	2096.56	2098.75	2100.75	2103.00	2105.50	2107.50	2110.00	2112.38	2114.50	2116.69	2119.00	2121.19	2123.50	2125.75	2128.00	2130.38	2132.12	2134.06	2136.06	2137.81	2139.00	2140.19	2141.38	2142.69	2143.12	2143.94	2144.69	2145.31	2146.12	2146.81	2147.50	2148.38	2149.75	2150.75	2152.12	2153.38	2154.81	2156.12	2157.19	2159.00	2160.25	2161.81	2163.38	2165.00	2166.44	2168.38	2169.88	2172.00	2173.50	2175.56	2176.88	2178.50	2180.19	2181.50	2182.25	2182.94	2183.62	2184.00	2184.19	2184.62	2184.50	2184.44	2183.50	2183.31	2183.06	2182.38	2182.25	2182.25	2182.25	2181.50	2181.25	2181.38	2181.69	2182.50	2182.94	2184.06	2185.50	2187.00	2188.56	2190.00	2192.50	2195.31	2197.00	2200.00	2202.50	2204.25	2206.69	2208.81	2210.50	2213.25	2214.75	2216.00	2217.12	2217.62	2217.56	2216.25	2214.69	2213.50	2211.88	2211.00	2209.50	2208.44	2205.44	2202.81	2200.25	2198.56	2197.94	2197.75	2197.00	2197.38	2197.75	2198.50	2199.38	2201.50	2204.75	2207.50	2210.00	2213.50	2217.00	2220.06	2223.75	2227.25	2231.06	2234.94	2237.75	2240.50	2243.25	2245.38	2246.75	2248.25	2249.25	2250.62	2250.81	2251.00	2251.25	2251.25	2251.44	2251.50	2251.50	2251.75	2251.75	2252.00	2252.06	2252.81	2253.06	2253.62	2254.19	2255.19	2255.81	2256.62	2257.06	2257.81	2258.19	2259.00	2259.69	2260.00	2260.69	2261.00	2261.38	2261.88	2262.56	2262.75	2262.19	2262.00	2262.00	2262.00	2261.19	2261.00	2261.00	2260.75	2260.12	2259.75	2259.75	2259.75	2259.00	2259.00	2259.00	2259.00	2259.00	2259.00	2259.44	2260.00	2260.00	2260.00	2260.00	2260.00	2260.00	2260.56	2260.75	2260.88	2261.00	2260.75	2260.00	2260.00	2260.00	2260.00
2038.75	2040.00	2041.50	2043.25	2044.75	2047.25	2049.25	2051.50	2054.25	2058.00	2062.50	2066.25	2070.50	2074.75	2078.50	2083.00	2086.00	2089.00	2092.50	2094.75	2096.25	2097.50	2098.75	2100.00	2101.50	2102.50	2103.50	2104.75	2106.25	2107.50	2108.75	2107.75	2106.50	2105.50	2105.00	2105.00	2105.00	2105.00	2104.75	2103.75	2103.00	2102.00	2100.50	2098.75	2097.00	2095.50	2094.25	2092.75	2092.00	2090.50	2089.75	2089.00	2088.50	2088.00	2088.75	2089.00	2089.00	2090.00	2091.25	2092.50	2093.75	2095.75	2097.75	2100.00	2101.75	2104.50	2107.00	2109.75	2112.25	2115.00	2117.50	2120.25	2122.75	2125.75	2128.00	2130.75	2132.50	2135.00	2137.75	2139.50	2140.50	2142.25	2143.25	2144.75	2145.00	2146.00	2146.75	2147.00	2148.00	2148.50	2149.00	2150.25	2151.25	2152.25	2153.25	2154.50	2155.75	2157.25	2158.50	2160.50	2161.75	2163.50	2165.25	2166.50	2168.50	2170.25	2171.75	2174.25	2175.75	2177.25	2178.75	2180.00	2181.50	2182.25	2183.00	2183.50	2184.00	2184.00	2184.00	2183.50	2183.00	2182.75	2182.00	2181.25	2181.00	2180.50	2180.00	2180.00	2180.00	2179.25	2179.00	2179.50	2180.75	2181.75	2182.75	2184.25	2186.25	2187.75	2189.50	2191.50	2194.00	2197.00	2199.25	2202.25	2204.75	2206.50	2208.75	2210.50	2212.00	2214.00	2215.50	2216.75	2218.25	2219.50	2218.50	2217.75	2216.75	2215.75	2214.50	2213.25	2211.75	2209.75	2206.75	2204.50	2202.50	2201.00	2200.75	2200.00	2200.00	2200.00	2200.00	2200.00	2200.50	2202.25	2204.75	2206.75	2209.25	2212.75	2215.50	2218.00	2221.50	2225.00	2228.25	2231.75	2234.00	2236.75	2239.50	2241.25	2243.00	2244.50	2245.50	2246.50	2247.25	2248.00	2249.00	2249.00	2249.75	2250.00	2250.00	2251.00	2251.00	2252.00	2252.25	2253.00	2253.25	2254.00	2254.75	2255.75	2256.00	2257.00	2257.25	2258.00	2258.00	2259.00	2259.50	2260.00	2260.50	2261.00	2261.00	2261.50	2262.00	2262.00	2262.00	2262.00	2262.00	2262.00	2261.00	2261.00	2261.00	2260.00	2259.75	2259.00	2259.00	2259.00	2259.00	2259.00	2259.00	2259.00	2259.00	2259.00	2259.25	2260.00	2260.00	2260.00	2260.00	2260.00	2260.00	2260.00	2260.00	2260.50	2261.00	2260.00	2260.00	2260.00	2260.00	2260.00
2038.75	2040.00	2041.50	2043.25	2044.75	2047.25	2049.25	2051.50	2054.25	2058.00	2062.50	2066.25	2070.50	2074.75	2078.50	2083.00	2086.00	2089.00	2092.50	2094.75	2096.25	2097.50	2098.75	2100.00	2101.50	2102.50	2103.50	2104.75	2106.25	2107.50	2108.75	2107.75	2106.50	2105.50	2105.00	2105.00	2105.00	2105.00	2104.75	2103.75	2103.00	2102.00	2100.50	2098.75	2097.00	2095.50	2094.25	2092.75	2092.00	2090.50	2089.75	2089.00	2088.50	2088.00	2088.75	2089.00	2089.00	2090.00	2091.25	2092.50	2093.75	2095.75	2097.75	2100.00	2101.75	2104.50	2107.00	2109.75	2112.25	2115.00	2117.50	2120.25	2122.75	2125.75	2128.00	2130.75	2132.50	2135.00	2137.75	2139.50	2140.50	2142.25	2143.25	2144.75	2145.00	2146.00	2146.75	2147.00	2148.00	2148.50	2149.00	2150.25	2151.25	2152.25	2153.25	2154.50	2155.75	2157.25	2158.50	2160.50	2161.75	2163.50	2165.25	2166.50	2168.50	2170.25	2171.75	2174.25	2175.75	2177.25	2178.75	2180.00	2181.50	2182.25	2183.00	2183.50	2184.00	2184.00	2184.00	2183.50	2183.00	2182.75	2182.00	2181.25	2181.00	2180.50	2180.00	2180.00	2180.00	2179.25	2179.00	2179.50	2180.75	2181.75	2182.75	2184.25	2186.25	2187.75	2189.50	2191.50	2194.00	2197.00	2199.25	2202.25	2204.75	2206.50	2208.75	2210.50	2212.00	2214.00	2215.50	2216.75	2218.25	2219.50	2218.50	2217.75	2216.75	2215.75	2214.50	2213.25	2211.75	2209.75	2206.75	2204.50	2202.50	2201.00	2200.75	2200.00	2200.00	2200.00	2200.00	2200.00	2200.50	2202.25	2204.75	2206.75	2209.25	2212.75	2215.50	2218.00	2221.50	2225.00	2228.25	2231.75	2234.00	2236.75	2239.50	2241.25	2243.00	2244.50	2245.50	2246.50	2247.25	2248.00	2249.00	2249.00	2249.75	2250.00	2250.00	2251.00	2251.00	2252.00	2252.25	2253.00	2253.25	2254.00	2254.75	2255.75	2256.00	2257.00	2257.25	2258.00	2258.00	2259.00	2259.50	2260.00	2260.50	2261.00	2261.00	2261.50	2262.00	2262.00	2262.00	2262.00	2262.00	2262.00	2261.00	2261.00	2261.00	2260.00	2259.75	2259.00	2259.00	2259.00	2259.00	2259.00	2259.00	2259.00	2259.00	2259.00	2259.25	2260.00	2260.00	2260.00	2260.00	2260.00	2260.00	2260.00	2260.00	2260.50	2261.00	2260.00	2260.00	2260.00	2260.00	2260.00
2038.75	2040.00	2041.50	2043.25	2044.75	2047.25	2049.25	2051.50	2054.25	2058.00	2062.50	2066.25	2070.50	2074.75	2078.50	2083.00	2086.00	2089.00	2092.50	2094.75	2096.25	2097.50	2098.75	2100.00	2101.50	2102.50	2103.50	2104.75	2106.25	2107.50	2108.75	2107.75	2106.50	2105.50	2105.00	2105.00	2105.00	2105.00	2104.75	2103.75	2103.00	2102.00	2100.50	2098.75	2097.00	2095.50	2094.25	2092.75	2092.00	2090.50	2089.75	2089.00	2088.50	2088.00	2088.75	2089.00	2089.00	2090.00	2091.25	2092.50	2093.75	2095.75	2097.75	2100.00	2101.75	2104.50	2107.00	2109.75	2112.25	2115.00	2117.50	2120.25	2122.75	2125.75	2128.00	2130.75	2132.50	2135.00	2137.75	2139.50	2140.50	2142.25	2143.25	2144.75	2145.00	2146.00	2146.75	2147.00	2148.00	2148.50	2149.00	2150.25	2151.25	2152.25	2153.25	2154.50	2155.75	2157.25	2158.50	2160.50	2161.75	2163.50	2165.25	2166.50	2168.50	2170.25	2171.75	2174.25	2175.75	2177.25	2178.75	2180.00	2181.50	2182.25	2183.00	2183.50	2184.00	2184.00	2184.00	2183.50	2183.00	2182.75	2182.00	2181.25	2181.00	2180.50	2180.00	2180.00	2180.00	2179.25	2179.00	2179.50	2180.75	2181.75	2182.75	2184.25	2186.25	2187.75	2189.50	2191.50	2194.00	2197.00	2199.25	2202.25	2204.75	2206.50	2208.75	2210.50	2212.00	2214.00	2215.50	2216.75	2218.25	2219.50	2218.50	2217.75	2216.75	2215.75	2214.50	2213.25	2211.75	2209.75	2206.75	2204.50	2202.50	2201.00	2200.75	2200.00	2200.00	2200.00	2200.00	2200.00	2200.50	2202.25	2204.75	2206.75	2209.25	2212.75	2215.50	2218.00	2221.50	2225.00	2228.25	2231.75	2234.00	2236.75	2239.50	2241.25	2243.00	2244.50	2245.50	2246.50	2247.25	2248.00	2249.00	2249.00	2249.75	2250.00	2250.00	2251.00	2251.00	2252.00	2252.25	2253.00	2253.25	2254.00	2254.75	2255.75	2256.00	2257.00	2257.25	2258.00	2258.00	2259.00	2259.50	2260.00	2260.50	2261.00	2261.00	2261.50	2262.00	2262.00	2262.00	2262.00	2262.00	2262.00	2261.00	2261.00	2261.00	2260.00	2259.75	2259.00	2259.00	2259.00	2259.00	2259.00	2259.00	2259.00	2259.00	2259.00	2259.25	2260.00	2260.00	2260.00	2260.00	2260.00	2260.00	2260.00	2260.00	2260.50	2261.00	2260.00	2260.00	2260.00	2260.00	2260.00
2036.75	2038.00	2039.00	2040.25	2042.25	2044.25	2046.50	2048.75	2052.00	2055.50	2059.50	2063.25	2067.50	2072.00	2076.00	2080.25	2083.75	2087.25	2091.00	2093.00	2094.75	2096.50	2098.00	2099.75	2101.25	2103.00	2104.25	2105.00	2105.75	2106.00	2106.75	2106.00	2106.00	2105.00	2105.00	2105.00	2105.00	2105.00	2104.75	2104.00	2103.50	2102.50	2100.75	2099.50	2097.75	2095.75	2094.25	2092.25	2090.50	2089.25	2088.25	2087.50	2087.00	2086.00	2086.00	2086.00	2086.00	2087.00	2087.25	2088.25	2089.50	2091.50	2093.25	2095.00	2097.75	2100.50	2103.25	2106.75	2110.00	2113.75	2117.00	2120.25	2123.75	2127.00	2130.00	2132.75	2135.50	2139.00	2141.50	2142.75	2144.25	2146.25	2147.00	2148.00	2148.50	2149.00	2150.00	2150.00	2150.00	2151.00	2151.25	2152.75	2153.50	2154.25	2155.75	2157.00	2158.50	2159.75	2160.75	2162.75	2164.25	2165.50	2167.25	2169.00	2170.75	2172.75	2173.75	2175.75	2177.25	2178.25	2179.75	2181.00	2182.00	2182.75	2183.00	2183.75	2183.50	2182.50	2182.00	2181.00	2179.50	2178.75	2177.50	2176.25	2175.25	2174.50	2173.50	2173.00	2173.25	2174.00	2174.00	2175.50	2177.00	2179.00	2181.25	2182.75	2185.75	2187.25	2189.75	2192.50	2196.00	2199.25	2201.50	2204.25	2206.75	2209.25	2210.75	2212.50	2213.75	2215.75	2216.00	2217.00	2217.75	2218.00	2218.00	2217.00	2216.75	2216.00	2215.00	2214.25	2213.25	2211.75	2209.25	2207.25	2205.25	2204.25	2204.00	2204.00	2203.00	2203.00	2202.00	2202.00	2202.50	2203.75	2205.50	2207.25	2209.00	2211.75	2214.50	2217.00	2219.75	2222.25	2225.00	2227.75	2230.00	2231.75	2234.50	2236.25	2238.00	2239.75	2241.50	2242.50	2243.75	2244.50	2245.50	2246.75	2247.75	2248.75	2249.75	2250.75	2251.00	2252.00	2252.50	2253.00	2253.75	2254.00	2255.00	2255.75	2256.00	2257.00	2257.00	2257.75	2258.00	2258.00	2258.75	2259.00	2259.50	2260.00	2260.00	2260.50	2261.00	2261.00	2261.00	2261.00	2261.00	2261.00	2260.00	2260.00	2260.00	2259.75	2259.00	2259.00	2259.00	2259.00	2258.00	2258.25	2259.00	2259.00	2259.00	2259.00	2259.50	2260.00	2260.00	2260.00	2260.00	2260.00	2260.00	2260.00	2260.00	2260.00	2260.00	2260.00	2260.00	2260.00	2260.00	2260.00
2036.75	2038.00	2039.00	2040.25	2042.25	2044.25	2046.50	2048.75	2052.00	2055.50	2059.50	2063.25	2067.50	2072.00	2076.00	2080.25	2083.75	2087.25	2091.00	2093.00	2094.75	2096.50	2098.00	2099.75	2101.25	2103.00	2104.25	2105.00	2105.75	2106.00	2106.75	2106.00	2106.00	2105.00	2105.00	2105.00	2105.00	2105.00	2104.75	2104.00	2103.50	2102.50	2100.75	2099.50	2097.75	2095.75	2094.25	2092.25	2090.50	2089.25	2088.25	2087.50	2087.00	2086.00	2086.00	2086.00	2086.00	2087.00	2087.25	2088.25	2089.50	2091.50	2093.25	2095.00	2097.75	2100.50	2103.25	2106.75	2110.00	2113.75	2117.00	2120.25	2123.75	2127.00	2130.00	2132.75	2135.50	2139.00	2141.50	2142.75	2144.25	2146.25	2147.00	2148.00	2148.50	2149.00	2150.00	2150.00	2150.00	2151.00	2151.25	2152.75	2153.50	2154.25	2155.75	2157.00	2158.50	2159.75	2160.75	2162.75	2164.25	2165.50	2167.25	2169.00	2170.75	2172.75	2173.75	2175.75	2177.25	2178.25	2179.75	2181.00	2182.00	2182.75	2183.00	2183.75	2183.50	2182.50	2182.00	2181.00	2179.50	2178.75	2177.50	2176.25	2175.25	2174.50	2173.50	2173.00	2173.25	2174.00	2174.00	2175.50	2177.00	2179.00	2181.25	2182.75	2185.75	2187.25	2189.75	2192.50	2196.00	2199.25	2201.50	2204.25	2206.75	2209.25	2210.75	2212.50	2213.75	2215.75	2216.00	2217.00	2217.75	2218.00	2218.00	2217.00	2216.75	2216.00	2215.00	2214.25	2213.25	2211.75	2209.25	2207.25	2205.25	2204.25	2204.00	2204.00	2203.00	2203.00	2202.00	2202.00	2202.50	2203.75	2205.50	2207.25	2209.00	2211.75	2214.50	2217.00	2219.75	2222.25	2225.00	2227.75	2230.00	2231.75	2234.50	2236.25	2238.00	2239.75	2241.50	2242.50	2243.75	2244.50	2245.50	2246.75	2247.75	2248.75	2249.75	2250.75	2251.00	2252.00	2252.50	2253.00	2253.75	2254.00	2255.00	2255.75	2256.00	2257.00	2257.00	2257.75	2258.00	2258.00	2258.75	2259.00	2259.50	2260.00	2260.00	2260.50	2261.00	2261.00	2261.00	2261.00	2261.00	2261.00	2260.00	2260.00	2260.00	2259.75	2259.00	2259.00	2259.00	2259.00	2258.00	2258.25	2259.00	2259.00	2259.00	2259.00	2259.50	2260.00	2260.00	2260.00	2260.00	2260.00	2260.00	2260.00	2260.00	2260.00	2260.00	2260.00	2260.00	2260.00	2260.00	2260.00
2036.75	2038.00	2039.00	2040.25	2042.25	2044.25	2046.50	2048.75	2052.00	2055.50	2059.50	2063.25	2067.50	2072.00	2076.00	2080.25	2083.75	2087.25	2091.00	2093.00	2094.75	2096.50	2098.00	2099.75	2101.25	2103.00	2104.25	2105.00	2105.75	2106.00	2106.75	2106.00	2106.00	2105.00	2105.00	2105.00	2105.00	2105.00	2104.75	2104.00	2103.50	2102.50	2100.75	2099.50	2097.75	2095.75	2094.25	2092.25	2090.50	2089.25	2088.25	2087.50	2087.00	2086.00	2086.00	2086.00	2086.00	2087.00	2087.25	2088.25	2089.50	2091.50	2093.25	2095.00	2097.75	2100.50	2103.25	2106.75	2110.00	2113.75	2117.00	2120.25	2123.75	2127.00	2130.00	2132.75	2135.50	2139.00	2141.50	2142.75	2144.25	2146.25	2147.00	2148.00	2148.50	2149.00	2150.00	2150.00	2150.00	2151.00	2151.25	2152.75	2153.50	2154.25	2155.75	2157.00	2158.50	2159.75	2160.75	2162.75	2164.25	2165.50	2167.25	2169.00	2170.75	2172.75	2173.75	2175.75	2177.25	2178.25	2179.75	2181.00	2182.00	2182.75	2183.00	2183.75	2183.50	2182.50	2182.00	2181.00	2179.50	2178.75	2177.50	2176.25	2175.25	2174.50	2173.50	2173.00	2173.25	2174.00	2174.00	2175.50	2177.00	2179.00	2181.25	2182.75	2185.75	2187.25	2189.75	2192.50	2196.00	2199.25	2201.50	2204.25	2206.75	2209.25	2210.75	2212.50	2213.75	2215.75	2216.00	2217.00	2217.75	2218.00	2218.00	2217.00	2216.75	2216.00	2215.00	2214.25	2213.25	2211.75	2209.25	2207.25	2205.25	2204.25	2204.00	2204.00	2203.00	2203.00	2202.00	2202.00	2202.50	2203.75	2205.50	2207.25	2209.00	2211.75	2214.50	2217.00	2219.75	2222.25	2225.00	2227.75	2230.00	2231.75	2234.50	2236.25	2238.00	2239.75	2241.50	2242.50	2243.75	2244.50	2245.50	2246.75	2247.75	2248.75	2249.75	2250.75	2251.00	2252.00	2252.50	2253.00	2253.75	2254.00	2255.00	2255.75	2256.00	2257.00	2257.00	2257.75	2258.00	2258.00	2258.75	2259.00	2259.50	2260.00	2260.00	2260.50	2261.00	2261.00	2261.00	2261.00	2261.00	2261.00	2260.00	2260.00	2260.00	2259.75	2259.00	2259.00	2259.00	2259.00	2258.00	2258.25	2259.00	2259.00	2259.00	2259.00	2259.50	2260.00	2260.00	2260.00	2260.00	2260.00	2260.00	2260.00	2260.00	2260.00	2260.00	2260.00	2260.00	2260.00	2260.00	2260.00
2034.69	2035.38	2036.38	2037.62	2039.06	2040.88	2042.94	2045.56	2048.81	2052.12	2056.12	2059.88	2063.94	2068.62	2072.62	2077.06	2080.94	2085.00	2089.12	2091.50	2094.00	2096.31	2098.00	2099.94	2101.62	2103.38	2105.00	2105.94	2106.88	2107.50	2107.69	2106.94	2106.75	2106.50	2106.50	2106.50	2106.50	2105.75	2104.94	2104.00	2103.31	2101.56	2099.81	2098.19	2096.44	2094.06	2092.56	2090.38	2088.62	2087.75	2086.56	2085.81	2084.94	2084.50	2083.94	2083.75	2083.75	2084.75	2084.81	2085.81	2087.44	2089.44	2091.38	2093.69	2097.19	2100.50	2103.81	2107.69	2111.50	2115.62	2119.25	2123.06	2126.75	2130.75	2133.75	2136.69	2140.00	2142.75	2145.25	2146.50	2148.00	2149.44	2150.56	2151.00	2151.88	2152.00	2152.25	2152.25	2152.62	2153.25	2153.50	2154.62	2155.38	2156.12	2157.62	2158.88	2160.19	2161.62	2162.81	2164.25	2165.94	2167.38	2169.12	2170.88	2172.25	2174.25	2175.62	2177.62	2178.94	2179.75	2181.25	2182.12	2182.75	2182.94	2182.62	2182.44	2181.44	2180.25	2179.19	2178.19	2175.75	2174.44	2172.81	2171.19	2169.62	2168.50	2167.31	2167.00	2167.81	2168.19	2168.94	2171.00	2172.69	2175.06	2177.50	2180.50	2184.25	2186.88	2190.12	2193.25	2196.75	2200.56	2202.81	2205.75	2208.25	2210.38	2211.88	2213.81	2215.25	2216.69	2216.75	2217.00	2217.19	2217.62	2218.00	2217.75	2217.69	2216.94	2216.50	2215.56	2214.38	2212.88	2210.75	2208.94	2208.06	2207.81	2207.75	2207.75	2206.75	2206.38	2205.75	2205.75	2205.88	2206.56	2207.38	2208.94	2210.50	2212.50	2214.50	2217.00	2219.19	2221.50	2223.31	2225.50	2227.19	2229.12	2231.12	2233.06	2235.00	2237.12	2238.50	2240.06	2241.50	2242.81	2244.00	2245.25	2246.62	2247.81	2249.00	2250.00	2250.81	2251.62	2252.31	2253.19	2253.94	2254.00	2254.81	2255.19	2255.62	2256.25	2256.62	2257.19	2257.25	2258.00	2258.19	2258.25	2258.38	2258.50	2258.88	2259.38	2259.50	2259.50	2259.50	2259.50	2259.50	2259.50	2259.25	2259.25	2259.25	2259.19	2258.44	2258.25	2258.25	2258.25	2258.00	2258.06	2258.62	2259.00	2259.00	2259.00	2259.88	2260.00	2260.00	2260.00	2260.00	2260.00	2260.00	2260.38	2260.75	2260.75	2260.75	2260.75	2260.75	2260.75	2260.75	2260.75
2034.00	2034.50	2035.50	2036.75	2038.00	2039.75	2041.75	2044.50	2047.75	2051.00	2055.00	2058.75	2062.75	2067.50	2071.50	2076.00	2080.00	2084.25	2088.50	2091.00	2093.75	2096.25	2098.00	2100.00	2101.75	2103.50	2105.25	2106.25	2107.25	2108.00	2108.00	2107.25	2107.00	2107.00	2107.00	2107.00	2107.00	2106.00	2105.00	2104.00	2103.25	2101.25	2099.50	2097.75	2096.00	2093.50	2092.00	2089.75	2088.00	2087.25	2086.00	2085.25	2084.25	2084.00	2083.25	2083.00	2083.00	2084.00	2084.00	2085.00	2086.75	2088.75	2090.75	2093.25	2097.00	2100.50	2104.00	2108.00	2112.00	2116.25	2120.00	2124.00	2127.75	2132.00	2135.00	2138.00	2141.50	2144.00	2146.50	2147.75	2149.25	2150.50	2151.75	2152.00	2153.00	2153.00	2153.00	2153.00	2153.50	2154.00	2154.25	2155.25	2156.00	2156.75	2158.25	2159.50	2160.75	2162.25	2163.50	2164.75	2166.50	2168.00	2169.75	2171.50	2172.75	2174.75	2176.25	2178.25	2179.50	2180.25	2181.75	2182.50	2183.00	2183.00	2182.50	2182.00	2180.75	2179.50	2178.25	2177.25	2174.50	2173.00	2171.25	2169.50	2167.75	2166.50	2165.25	2165.00	2166.00	2166.25	2167.25	2169.50	2171.25	2173.75	2176.25	2179.75	2183.75	2186.75	2190.25	2193.50	2197.00	2201.00	2203.25	2206.25	2208.75	2210.75	2212.25	2214.25	2215.75	2217.00	2217.00	2217.00	2217.00	2217.50	2218.00	2218.00	2218.00	2217.25	2217.00	2216.00	2214.75	2213.25	2211.25	2209.50	2209.00	2209.00	2209.00	2209.00	2208.00	2207.50	2207.00	2207.00	2207.00	2207.50	2208.00	2209.50	2211.00	2212.75	2214.50	2217.00	2219.00	2221.25	2222.75	2224.75	2226.25	2228.25	2230.00	2232.00	2234.00	2236.25	2237.50	2239.25	2240.75	2242.25	2243.50	2244.75	2246.25	2247.50	2248.75	2249.75	2250.75	2251.50	2252.25	2253.25	2254.00	2254.00	2254.75	2255.00	2255.50	2256.00	2256.50	2257.00	2257.00	2258.00	2258.00	2258.00	2258.00	2258.00	2258.50	2259.00	2259.00	2259.00	2259.00	2259.00	2259.00	2259.00	2259.00	2259.00	2259.00	2259.00	2258.25	2258.00	2258.00	2258.00	2258.00	2258.00	2258.50	2259.00	2259.00	2259.00	2260.00	2260.00	2260.00	2260.00	2260.00	2260.00	2260.00	2260.50	2261.00	2261.00	2261.00	2261.00	2261.00	2261.00	2261.00	2261.00
2034.00	2034.50	2035.50	2036.75	2038.00	2039.75	2041.75	2044.50	2047.75	2051.00	2055.00	2058.75	2062.75	2067.50	2071.50	2076.00	2080.00	2084.25	2088.50	2091.00	2093.75	2096.25	2098.00	2100.00	2101.75	2103.50	2105.25	2106.25	2107.25	2108.00	2108.00	2107.25	2107.00	2107.00	2107.00	2107.00	2107.00	2106.00	2105.00	2104.00	2103.25	2101.25	2099.50	2097.75	2096.00	2093.50	2092.00	2089.75	2088.00	2087.25	2086.00	2085.25	2084.25	2084.00	2083.25	2083.00	2083.00	2084.00	2084.00	2085.00	2086.75	2088.75	2090.75	2093.25	2097.00	2100.50	2104.00	2108.00	2112.00	2116.25	2120.00	2124.00	2127.75	2132.00	2135.00	2138.00	2141.50	2144.00	2146.50	2147.75	2149.25	2150.50	2151.75	2152.00	2153.00	2153.00	2153.00	2153.00	2153.50	2154.00	2154.25	2155.25	2156.00	2156.75	2158.25	2159.50	2160.75	2162.25	2163.50	2164.75	2166.50	2168.00	2169.75	2171.50	2172.75	2174.75	2176.25	2178.25	2179.50	2180.25	2181.75	2182.50	2183.00	2183.00	2182.50	2182.00	2180.75	2179.50	2178.25	2177.25	2174.50	2173.00	2171.25	2169.50	2167.75	2166.50	2165.25	2165.00	2166.00	2166.25	2167.25	2169.50	2171.25	2173.75	2176.25	2179.75	2183.75	2186.75	2190.25	2193.50	2197.00	2201.00	2203.25	2206.25	2208.75	2210.75	2212.25	2214.25	2215.75	2217.00	2217.00	2217.00	2217.00	2217.50	2218.00	2218.00	2218.00	2217.25	2217.00	2216.00	2214.75	2213.25	2211.25	2209.50	2209.00	2209.00	2209.00	2209.00	2208.00	2207.50	2207.00	2207.00	2207.00	2207.50	2208.00	2209.50	2211.00	2212.75	2214.50	2217.00	2219.00	2221.25	2222.75	2224.75	2226.25	2228.25	2230.00	2232.00	2234.00	2236.25	2237.50	2239.25	2240.75	2242.25	2243.50	2244.75	2246.25	2247.50	2248.75	2249.75	2250.75	2251.50	2252.25	2253.25	2254.00	2254.00	2254.75	2255.00	2255.50	2256.00	2256.50	2257.00	2257.00	2258.00	2258.00	2258.00	2258.00	2258.00	2258.50	2259.00	2259.00	2259.00	2259.00	2259.00	2259.00	2259.00	2259.00	2259.00	2259.00	2259.00	2258.25	2258.00	2258.00	2258.00	2258.00	2258.00	2258.50	2259.00	2259.00	2259.00	2260.00	2260.00	2260.00	2260.00	2260.00	2260.00	2260.00	2260.50	2261.00	2261.00	2261.00	2261.00	2261.00	2261.00	2261.00	2261.00
2033.00	2033.38	2034.25	2035.50	2036.81	2038.50	2040.50	2043.25	2046.31	2049.38	2053.50	2057.38	2061.44	2066.06	2070.12	2074.62	2078.69	2083.00	2087.25	2090.06	2093.12	2095.75	2097.50	2099.44	2101.12	2102.88	2104.75	2105.94	2107.12	2108.00	2108.00	2107.69	2107.50	2107.50	2107.50	2107.31	2107.19	2106.12	2105.06	2103.94	2103.00	2101.00	2099.19	2097.44	2095.56	2093.19	2091.56	2089.38	2087.75	2086.94	2085.69	2084.94	2083.94	2083.62	2082.88	2082.69	2082.75	2083.75	2083.81	2085.00	2086.88	2089.00	2091.19	2093.94	2097.81	2101.50	2105.06	2109.38	2113.44	2117.88	2121.62	2125.75	2129.56	2133.81	2136.75	2139.94	2143.25	2145.75	2148.06	2149.38	2150.81	2152.12	2153.06	2153.25	2154.25	2154.25	2154.19	2154.00	2154.38	2154.88	2155.19	2156.00	2156.75	2157.50	2158.94	2160.12	2161.44	2162.88	2164.06	2165.31	2167.00	2168.50	2170.31	2172.12	2173.44	2175.31	2176.81	2178.62	2179.75	2180.44	2181.75	2182.38	2182.56	2182.50	2181.94	2181.19	2179.88	2178.44	2177.12	2175.75	2173.00	2171.44	2169.50	2167.75	2166.00	2164.69	2163.56	2163.50	2164.50	2164.69	2166.00	2168.50	2170.44	2173.06	2175.88	2179.56	2183.81	2186.88	2190.81	2194.50	2198.25	2202.19	2204.12	2206.88	2209.19	2211.00	2212.50	2214.50	2215.81	2217.00	2217.00	2217.25	2217.25	2217.75	2218.25	2218.25	2218.25	2217.69	2217.50	2216.75	2215.56	2214.25	2212.44	2210.88	2210.31	2210.25	2210.19	2210.00	2209.25	2208.88	2208.31	2208.25	2208.25	2208.62	2209.00	2210.44	2211.75	2213.38	2215.00	2217.06	2218.94	2220.88	2222.38	2224.19	2225.62	2227.50	2229.25	2231.06	2233.00	2235.06	2236.44	2238.31	2239.81	2241.50	2242.75	2244.06	2245.62	2246.81	2248.12	2249.25	2250.25	2251.12	2251.94	2252.88	2253.69	2253.75	2254.50	2254.75	2255.25	2255.75	2256.12	2256.56	2256.75	2257.50	2257.50	2257.50	2257.50	2257.62	2258.12	2258.50	2258.50	2258.50	2258.50	2258.50	2258.50	2258.50	2258.69	2258.75	2258.75	2258.75	2258.19	2258.00	2258.00	2258.00	2258.25	2258.25	2258.62	2259.00	2259.12	2259.25	2260.00	2260.00	2260.00	2260.00	2260.00	2260.00	2260.06	2260.62	2261.00	2261.00	2261.00	2261.00	2261.00	2261.00	2261.00	2261.00
2030.00	2030.00	2030.50	2031.75	2033.25	2034.75	2036.75	2039.50	2042.00	2044.50	2049.00	2053.25	2057.50	2061.75	2066.00	2070.50	2074.75	2079.25	2083.50	2087.25	2091.25	2094.25	2096.00	2097.75	2099.25	2101.00	2103.25	2105.00	2106.75	2108.00	2108.00	2109.00	2109.00	2109.00	2109.00	2108.25	2107.75	2106.50	2105.25	2103.75	2102.25	2100.25	2098.25	2096.50	2094.25	2092.25	2090.25	2088.25	2087.00	2086.00	2084.75	2084.00	2083.00	2082.50	2081.75	2081.75	2082.00	2083.00	2083.25	2085.00	2087.25	2089.75	2092.50	2096.00	2100.25	2104.50	2108.25	2113.50	2117.75	2122.75	2126.50	2131.00	2135.00	2139.25	2142.00	2145.75	2148.50	2151.00	2152.75	2154.25	2155.50	2157.00	2157.00	2157.00	2158.00	2158.00	2157.75	2157.00	2157.00	2157.50	2158.00	2158.25	2159.00	2159.75	2161.00	2162.00	2163.50	2164.75	2165.75	2167.00	2168.50	2170.00	2172.00	2174.00	2175.50	2177.00	2178.50	2179.75	2180.50	2181.00	2181.75	2182.00	2181.25	2181.00	2180.25	2178.75	2177.25	2175.25	2173.75	2171.25	2168.50	2166.75	2164.25	2162.50	2160.75	2159.25	2158.50	2159.00	2160.00	2160.00	2162.25	2165.50	2168.00	2171.00	2174.75	2179.00	2184.00	2187.25	2192.50	2197.50	2202.00	2205.75	2206.75	2208.75	2210.50	2211.75	2213.25	2215.25	2216.00	2217.00	2217.00	2218.00	2218.00	2218.50	2219.00	2219.00	2219.00	2219.00	2219.00	2219.00	2218.00	2217.25	2216.00	2215.00	2214.25	2214.00	2213.75	2213.00	2213.00	2213.00	2212.25	2212.00	2212.00	2212.00	2212.00	2213.25	2214.00	2215.25	2216.50	2217.25	2218.75	2219.75	2221.25	2222.50	2223.75	2225.25	2227.00	2228.25	2230.00	2231.50	2233.25	2235.50	2237.00	2239.25	2240.50	2242.00	2243.75	2244.75	2246.25	2247.75	2248.75	2250.00	2251.00	2251.75	2252.75	2253.00	2253.75	2254.00	2254.50	2255.00	2255.00	2255.25	2256.00	2256.00	2256.00	2256.00	2256.00	2256.50	2257.00	2257.00	2257.00	2257.00	2257.00	2257.00	2257.00	2257.00	2257.75	2258.00	2258.00	2258.00	2258.00	2258.00	2258.00	2258.00	2259.00	2259.00	2259.00	2259.00	2259.50	2260.00	2260.00	2260.00	2260.00	2260.00	2260.00	2260.00	2260.25	2261.00	2261.00	2261.00	2261.00	2261.00	2261.00	2261.00	2261.00	2261.00
2030.00	2030.00	2030.50	2031.75	2033.25	2034.75	2036.75	2039.50	2042.00	2044.50	2049.00	2053.25	2057.50	2061.75	2066.00	2070.50	2074.75	2079.25	2083.50	2087.25	2091.25	2094.25	2096.00	2097.75	2099.25	2101.00	2103.25	2105.00	2106.75	2108.00	2108.00	2109.00	2109.00	2109.00	2109.00	2108.25	2107.75	2106.50	2105.25	2103.75	2102.25	2100.25	2098.25	2096.50	2094.25	2092.25	2090.25	2088.25	2087.00	2086.00	2084.75	2084.00	2083.00	2082.50	2081.75	2081.75	2082.00	2083.00	2083.25	2085.00	2087.25	2089.75	2092.50	2096.00	2100.25	2104.50	2108.25	2113.50	2117.75	2122.75	2126.50	2131.00	2135.00	2139.25	2142.00	2145.75	2148.50	2151.00	2152.75	2154.25	2155.50	2157.00	2157.00	2157.00	2158.00	2158.00	2157.75	2157.00	2157.00	2157.50	2158.00	2158.25	2159.00	2159.75	2161.00	2162.00	2163.50	2164.75	2165.75	2167.00	2168.50	2170.00	2172.00	2174.00	2175.50	2177.00	2178.50	2179.75	2180.50	2181.00	2181.75	2182.00	2181.25	2181.00	2180.25	2178.75	2177.25	2175.25	2173.75	2171.25	2168.50	2166.75	2164.25	2162.50	2160.75	2159.25	2158.50	2159.00	2160.00	2160.00	2162.25	2165.50	2168.00	2171.00	2174.75	2179.00	2184.00	2187.25	2192.50	2197.50	2202.00	2205.75	2206.75	2208.75	2210.50	2211.75	2213.25	2215.25	2216.00	2217.00	2217.00	2218.00	2218.00	2218.50	2219.00	2219.00	2219.00	2219.00	2219.00	2219.00	2218.00	2217.25	2216.00	2215.00	2214.25	2214.00	2213.75	2213.00	2213.00	2213.00	2212.25	2212.00	2212.00	2212.00	2212.00	2213.25	2214.00	2215.25	2216.50	2217.25	2218.75	2219.75	2221.25	2222.50	2223.75	2225.25	2227.00	2228.25	2230.00	2231.50	2233.25	2235.50	2237.00	2239.25	2240.50	2242.00	2243.75	2244.75	2246.25	2247.75	2248.75	2250.00	2251.00	2251.75	2252.75	2253.00	2253.75	2254.00	2254.50	2255.00	2255.00	2255.25	2256.00	2256.00	2256.00	2256.00	2256.00	2256.50	2257.00	2257.00	2257.00	2257.00	2257.00	2257.00	2257.00	2257.00	2257.75	2258.00	2258.00	2258.00	2258.00	2258.00	2258.00	2258.00	2259.00	2259.00	2259.00	2259.00	2259.50	2260.00	2260.00	2260.00	2260.00	2260.00	2260.00	2260.00	2260.25	2261.00	2261.00	2261.00	2261.00	2261.00	2261.00	2261.00	2261.00	2261.00
2030.00	2030.00	2030.50	2031.75	2033.25	2034.75	2036.75	2039.50	2042.00	2044.50	2049.00	2053.25	2057.50	2061.75	2066.00	2070.50	2074.75	2079.25	2083.50	2087.25	2091.25	2094.25	2096.00	2097.75	2099.25	2101.00	2103.25	2105.00	2106.75	2108.00	2108.00	2109.00	2109.00	2109.00	2109.00	2108.25	2107.75	2106.50	2105.25	2103.75	2102.25	2100.25	2098.25	2096.50	2094.25	2092.25	2090.25	2088.25	2087.00	2086.00	2084.75	2084.00	2083.00	2082.50	2081.75	2081.75	2082.00	2083.00	2083.25	2085.00	2087.25	2089.75	2092.50	2096.00	2100.25	2104.50	2108.25	2113.50	2117.75	2122.75	2126.50	2131.00	2135.00	2139.25	2142.00	2145.75	2148.50	2151.00	2152.75	2154.25	2155.50	2157.00	2157.00	2157.00	2158.00	2158.00	2157.75	2157.00	2157.00	2157.50	2158.00	2158.25	2159.00	2159.75	2161.00	2162.00	2163.50	2164.75	2165.75	2167.00	2168.50	2170.00	2172.00	2174.00	2175.50	2177.00	2178.50	2179.75	2180.50	2181.00	2181.75	2182.00	2181.25	2181.00	2180.25	2178.75	2177.25	2175.25	2173.75	2171.25	2168.50	2166.75	2164.25	2162.50	2160.75	2159.25	2158.50	2159.00	2160.00	2160.00	2162.25	2165.50	2168.00	2171.00	2174.75	2179.00	2184.00	2187.25	2192.50	2197.50	2202.00	2205.75	2206.75	2208.75	2210.50	2211.75	2213.25	2215.25	2216.00	2217.00	2217.00	2218.00	2218.00	2218.50	2219.00	2219.00	2219.00	2219.00	2219.00	2219.00	2218.00	2217.25	2216.00	2215.00	2214.25	2214.00	2213.75	2213.00	2213.00	2213.00	2212.25	2212.00	2212.00	2212.00	2212.00	2213.25	2214.00	2215.25	2216.50	2217.25	2218.75	2219.75	2221.25	2222.50	2223.75	2225.25	2227.00	2228.25	2230.00	2231.50	2233.25	2235.50	2237.00	2239.25	2240.50	2242.00	2243.75	2244.75	2246.25	2247.75	2248.75	2250.00	2251.00	2251.75	2252.75	2253.00	2253.75	2254.00	2254.50	2255.00	2255.00	2255.25	2256.00	2256.00	2256.00	2256.00	2256.00	2256.50	2257.00	2257.00	2257.00	2257.00	2257.00	2257.00	2257.00	2257.00	2257.75	2258.00	2258.00	2258.00	2258.00	2258.00	2258.00	2258.00	2259.00	2259.00	2259.00	2259.00	2259.50	2260.00	2260.00	2260.00	2260.00	2260.00	2260.00	2260.00	2260.25	2261.00	2261.00	2261.00	2261.00	2261.00	2261.00	2261.00	2261.00	2261.00
2027.00	2027.00	2027.00	2027.75	2028.50	2029.50	2031.75	2034.50	2037.00	2039.50	2044.00	2047.75	2051.50	2056.00	2060.00	2064.25	2068.25	2073.00	2077.00	2081.25	2085.25	2088.75	2092.00	2094.75	2097.25	2100.00	2101.75	2104.00	2105.75	2106.00	2106.25	2107.00	2107.75	2108.00	2108.50	2109.00	2108.00	2107.50	2106.75	2105.75	2103.75	2100.75	2099.25	2097.25	2095.00	2093.25	2091.25	2089.75	2089.00	2088.00	2086.75	2086.00	2085.00	2084.00	2083.50	2084.00	2084.50	2085.00	2086.00	2088.50	2091.25	2093.75	2097.25	2101.75	2106.25	2111.00	2116.00	2121.50	2126.00	2131.00	2135.50	2139.75	2144.00	2148.25	2151.00	2153.75	2157.00	2158.75	2159.75	2160.75	2162.00	2162.00	2162.00	2162.00	2161.50	2161.00	2161.00	2161.00	2161.00	2161.00	2161.00	2161.75	2162.25	2163.00	2163.75	2164.50	2165.75	2167.25	2168.50	2169.75	2171.50	2173.00	2175.00	2176.50	2177.75	2179.25	2180.50	2181.00	2181.00	2181.75	2182.00	2181.00	2180.00	2178.75	2177.25	2175.25	2173.25	2170.50	2168.00	2165.25	2162.50	2159.25	2157.25	2155.50	2153.75	2152.00	2152.00	2153.25	2154.25	2155.50	2159.00	2162.50	2166.00	2170.50	2175.50	2180.50	2186.50	2191.00	2196.75	2203.00	2207.75	2209.75	2210.75	2211.75	2213.00	2213.75	2215.25	2216.50	2217.75	2218.00	2218.50	2219.00	2219.00	2219.50	2220.00	2220.00	2220.25	2221.00	2221.00	2221.50	2221.00	2221.00	2220.50	2220.00	2219.75	2219.00	2219.00	2218.25	2218.00	2218.00	2217.00	2217.00	2217.00	2216.50	2216.00	2216.00	2216.00	2216.00	2217.00	2217.00	2217.00	2217.75	2218.25	2219.50	2220.25	2221.25	2222.50	2223.75	2225.00	2226.50	2228.75	2230.75	2233.00	2234.75	2236.50	2238.75	2240.75	2241.75	2243.75	2245.25	2246.75	2247.50	2249.00	2249.75	2250.75	2251.00	2252.00	2252.25	2253.00	2253.00	2253.25	2254.00	2254.00	2254.00	2254.00	2254.00	2254.00	2255.00	2255.00	2255.00	2255.00	2255.00	2255.00	2256.00	2256.00	2256.00	2256.25	2257.00	2257.00	2258.00	2258.00	2258.00	2259.00	2259.00	2259.00	2259.25	2260.00	2260.00	2260.00	2260.00	2260.00	2260.00	2260.25	2261.00	2261.00	2261.00	2261.00	2261.00	2261.00	2261.00	2261.00	2261.00	2261.00	2261.00	2261.00	2261.00
2027.00	2027.00	2027.00	2027.75	2028.50	2029.50	2031.75	2034.50	2037.00	2039.50	2044.00	2047.75	2051.50	2056.00	2060.00	2064.25	2068.25	2073.00	2077.00	2081.25	2085.25	2088.75	2092.00	2094.75	2097.25	2100.00	2101.75	2104.00	2105.75	2106.00	2106.25	2107.00	2107.75	2108.00	2108.50	2109.00	2108.00	2107.50	2106.75	2105.75	2103.75	2100.75	2099.25	2097.25	2095.00	2093.25	2091.25	2089.75	2089.00	2088.00	2086.75	2086.00	2085.00	2084.00	2083.50	2084.00	2084.50	2085.00	2086.00	2088.50	2091.25	2093.75	2097.25	2101.75	2106.25	2111.00	2116.00	2121.50	2126.00	2131.00	2135.50	2139.75	2144.00	2148.25	2151.00	2153.75	2157.00	2158.75	2159.75	2160.75	2162.00	2162.00	2162.00	2162.00	2161.50	2161.00	2161.00	2161.00	2161.00	2161.00	2161.00	2161.75	2162.25	2163.00	2163.75	2164.50	2165.75	2167.25	2168.50	2169.75	2171.50	2173.00	2175.00	2176.50	2177.75	2179.25	2180.50	2181.00	2181.00	2181.75	2182.00	2181.00	2180.00	2178.75	2177.25	2175.25	2173.25	2170.50	2168.00	2165.25	2162.50	2159.25	2157.25	2155.50	2153.75	2152.00	2152.00	2153.25	2154.25	2155.50	2159.00	2162.50	2166.00	2170.50	2175.50	2180.50	2186.50	2191.00	2196.75	2203.00	2207.75	2209.75	2210.75	2211.75	2213.00	2213.75	2215.25	2216.50	2217.75	2218.00	2218.50	2219.00	2219.00	2219.50	2220.00	2220.00	2220.25	2221.00	2221.00	2221.50	2221.00	2221.00	2220.50	2220.00	2219.75	2219.00	2219.00	2218.25	2218.00	2218.00	2217.00	2217.00	2217.00	2216.50	2216.00	2216.00	2216.00	2216.00	2217.00	2217.00	2217.00	2217.75	2218.25	2219.50	2220.25	2221.25	2222.50	2223.75	2225.00	2226.50	2228.75	2230.75	2233.00	2234.75	2236.50	2238.75	2240.75	2241.75	2243.75	2245.25	2246.75	2247.50	2249.00	2249.75	2250.75	2251.00	2252.00	2252.25	2253.00	2253.00	2253.25	2254.00	2254.00	2254.00	2254.00	2254.00	2254.00	2255.00	2255.00	2255.00	2255.00	2255.00	2255.00	2256.00	2256.00	2256.00	2256.25	2257.00	2257.00	2258.00	2258.00	2258.00	2259.00	2259.00	2259.00	2259.25	2260.00	2260.00	2260.00	2260.00	2260.00	2260.00	2260.25	2261.00	2261.00	2261.00	2261.00	2261.00	2261.00	2261.00	2261.00	2261.00	2261.00	2261.00	2261.00	2261.00
2027.00	2027.00	2027.00	2027.75	2028.50	2029.50	2031.75	2034.50	2037.00	2039.50	2044.00	2047.75	2051.50	2056.00	2060.00	2064.25	2068.25	2073.00	2077.00	2081.25	2085.25	2088.75	2092.00	2094.75	2097.25	2100.00	2101.75	2104.00	2105.75	2106.00	2106.25	2107.00	2107.75	2108.00	2108.50	2109.00	2108.00	2107.50	2106.75	2105.75	2103.75	2100.75	2099.25	2097.25	2095.00	2093.25	2091.25	2089.75	2089.00	2088.00	2086.75	2086.00	2085.00	2084.00	2083.50	2084.00	2084.50	2085.00	2086.00	2088.50	2091.25	2093.75	2097.25	2101.75	2106.25	2111.00	2116.00	2121.50	2126.00	2131.00	2135.50	2139.75	2144.00	2148.25	2151.00	2153.75	2157.00	2158.75	2159.75	2160.75	2162.00	2162.00	2162.00	2162.00	2161.50	2161.00	2161.00	2161.00	2161.00	2161.00	2161.00	2161.75	2162.25	2163.00	2163.75	2164.50	2165.75	2167.25	2168.50	2169.75	2171.50	2173.00	2175.00	2176.50	2177.75	2179.25	2180.50	2181.00	2181.00	2181.75	2182.00	2181.00	2180.00	2178.75	2177.25	2175.25	2173.25	2170.50	2168.00	2165.25	2162.50	2159.25	2157.25	2155.50	2153.75	2152.00	2152.00	2153.25	2154.25	2155.50	2159.00	2162.50	2166.00	2170.50	2175.50	2180.50	2186.50	2191.00	2196.75	2203.00	2207.75	2209.75	2210.75	2211.75	2213.00	2213.75	2215.25	2216.50	2217.75	2218.00	2218.50	2219.00	2219.00	2219.50	2220.00	2220.00	2220.25	2221.00	2221.00	2221.50	2221.00	2221.00	2220.50	2220.00	2219.75	2219.00	2219.00	2218.25	2218.00	2218.00	2217.00	2217.00	2217.00	2216.50	2216.00	2216.00	2216.00	2216.00	2217.00	2217.00	2217.00	2217.75	2218.25	2219.50	2220.25	2221.25	2222.50	2223.75	2225.00	2226.50	2228.75	2230.75	2233.00	2234.75	2236.50	2238.75	2240.75	2241.75	2243.75	2245.25	2246.75	2247.50	2249.00	2249.75	2250.75	2251.00	2252.00	2252.25	2253.00	2253.00	2253.25	2254.00	2254.00	2254.00	2254.00	2254.00	2254.00	2255.00	2255.00	2255.00	2255.00	2255.00	2255.00	2256.00	2256.00	2256.00	2256.25	2257.00	2257.00	2258.00	2258.00	2258.00	2259.00	2259.00	2259.00	2259.25	2260.00	2260.00	2260.00	2260.00	2260.00	2260.00	2260.25	2261.00	2261.00	2261.00	2261.00	2261.00	2261.00	2261.00	2261.00	2261.00	2261.00	2261.00	2261.00	2261.00
2026.00	2025.50	2025.50	2025.75	2025.88	2027.00	2029.12	2031.50	2034.00	2036.50	2040.50	2044.00	2047.75	2052.00	2056.00	2060.12	2064.12	2068.62	2073.00	2077.12	2081.25	2084.75	2088.38	2091.62	2094.25	2097.25	2099.75	2102.00	2103.50	2104.00	2104.50	2105.12	2106.12	2106.75	2107.88	2108.50	2107.88	2107.25	2106.88	2106.00	2104.88	2102.62	2101.50	2099.75	2097.62	2096.00	2094.25	2092.75	2091.75	2090.75	2089.50	2088.75	2087.62	2086.50	2086.38	2087.00	2087.25	2088.25	2090.00	2092.50	2095.25	2098.00	2102.00	2106.38	2110.88	2115.50	2120.50	2126.00	2130.75	2135.62	2140.00	2144.25	2148.62	2152.38	2154.50	2157.25	2160.25	2161.50	2162.50	2163.62	2164.38	2164.00	2164.00	2163.62	2163.25	2163.00	2162.50	2162.50	2162.50	2162.50	2162.50	2163.00	2163.75	2164.50	2165.25	2166.00	2167.25	2168.75	2170.00	2171.62	2173.00	2174.50	2176.38	2177.75	2178.75	2180.12	2181.12	2181.50	2181.25	2181.38	2181.38	2180.25	2179.12	2177.88	2176.38	2174.00	2171.75	2168.88	2166.00	2162.75	2159.50	2156.62	2154.50	2153.00	2151.25	2150.12	2150.50	2151.62	2152.75	2154.38	2158.12	2162.00	2165.62	2170.88	2176.38	2181.75	2188.25	2193.00	2198.88	2205.00	2209.50	2211.50	2212.62	2213.75	2215.00	2215.75	2216.75	2217.75	2218.75	2219.00	2219.25	2219.50	2219.50	2220.12	2220.50	2220.50	2221.00	2221.50	2221.75	2222.25	2222.00	2222.00	2221.75	2221.50	2221.38	2221.00	2220.75	2220.12	2220.00	2219.50	2219.00	2218.50	2218.12	2217.50	2216.88	2216.25	2215.62	2215.00	2215.50	2215.50	2215.50	2215.88	2216.38	2217.25	2217.75	2218.88	2220.25	2221.50	2223.00	2224.62	2226.75	2228.75	2231.00	2232.75	2235.00	2237.00	2239.25	2240.50	2242.50	2244.25	2245.62	2246.50	2248.12	2249.00	2249.88	2250.50	2251.25	2251.62	2252.00	2252.38	2252.62	2253.00	2253.12	2253.50	2253.50	2253.50	2253.50	2254.00	2254.12	2254.50	2254.50	2254.50	2254.75	2255.50	2255.50	2256.00	2256.12	2256.88	2257.00	2258.00	2258.12	2258.50	2259.00	2259.00	2259.38	2259.62	2260.00	2260.00	2260.50	2260.50	2260.50	2260.50	2260.62	2261.00	2261.00	2261.00	2261.00	2261.00	2261.00	2261.00	2261.00	2261.00	2261.00	2261.00	2261.00	2261.00
2025.00	2024.00	2024.00	2023.75	2023.25	2024.50	2026.50	2028.50	2031.00	2033.50	2037.00	2040.25	2044.00	2048.00	2052.00	2056.00	2060.00	2064.25	2069.00	2073.00	2077.25	2080.75	2084.75	2088.50	2091.25	2094.50	2097.75	2100.00	2101.25	2102.00	2102.75	2103.25	2104.50	2105.50	2107.25	2108.00	2107.75	2107.00	2107.00	2106.25	2106.00	2104.50	2103.75	2102.25	2100.25	2098.75	2097.25	2095.75	2094.50	2093.50	2092.25	2091.50	2090.25	2089.00	2089.25	2090.00	2090.00	2091.50	2094.00	2096.50	2099.25	2102.25	2106.75	2111.00	2115.50	2120.00	2125.00	2130.50	2135.50	2140.25	2144.50	2148.75	2153.25	2156.50	2158.00	2160.75	2163.50	2164.25	2165.25	2166.50	2166.75	2166.00	2166.00	2165.25	2165.00	2165.00	2164.00	2164.00	2164.00	2164.00	2164.00	2164.25	2165.25	2166.00	2166.75	2167.50	2168.75	2170.25	2171.50	2173.50	2174.50	2176.00	2177.75	2179.00	2179.75	2181.00	2181.75	2182.00	2181.50	2181.00	2180.75	2179.50	2178.25	2177.00	2175.50	2172.75	2170.25	2167.25	2164.00	2160.25	2156.50	2154.00	2151.75	2150.50	2148.75	2148.25	2149.00	2150.00	2151.25	2153.25	2157.25	2161.50	2165.25	2171.25	2177.25	2183.00	2190.00	2195.00	2201.00	2207.00	2211.25	2213.25	2214.50	2215.75	2217.00	2217.75	2218.25	2219.00	2219.75	2220.00	2220.00	2220.00	2220.00	2220.75	2221.00	2221.00	2221.75	2222.00	2222.50	2223.00	2223.00	2223.00	2223.00	2223.00	2223.00	2223.00	2222.50	2222.00	2222.00	2221.00	2221.00	2220.00	2219.25	2218.50	2217.75	2216.50	2215.25	2214.00	2214.00	2214.00	2214.00	2214.00	2214.50	2215.00	2215.25	2216.50	2218.00	2219.25	2221.00	2222.75	2224.75	2226.75	2229.00	2230.75	2233.50	2235.25	2237.75	2239.25	2241.25	2243.25	2244.50	2245.50	2247.25	2248.25	2249.00	2250.00	2250.50	2251.00	2251.00	2251.75	2252.00	2252.00	2252.25	2253.00	2253.00	2253.00	2253.00	2253.00	2253.25	2254.00	2254.00	2254.00	2254.50	2255.00	2255.00	2256.00	2256.00	2256.75	2257.00	2258.00	2258.25	2259.00	2259.00	2259.00	2259.75	2260.00	2260.00	2260.00	2261.00	2261.00	2261.00	2261.00	2261.00	2261.00	2261.00	2261.00	2261.00	2261.00	2261.00	2261.00	2261.00	2261.00	2261.00	2261.00	2261.00	2261.00
